# .PCD v0.7 - Point Cloud Data file format
VERSION 0.7
FIELDS x y z rgb
SIZE 4 4 4 4
TYPE F F F U
COUNT 1 1 1 1
WIDTH 1300
HEIGHT 1
VIEWPOINT 0 0 0 1 0 0 0
POINTS 1300
DATA ascii
9832.9287 1060.8805 12371.204 460553
9829.6367 1052.6793 12275.567 460811
10092.361 1072.8776 12511.104 1579292
10007.793 1056.1311 12315.82 2039843
9979.7354 1045.5476 12192.403 1908258
10226.294 1063.6802 12403.852 2631980
10398.082 1073.8324 12522.239 2895153
10533.662 1080.1279 12595.653 2631981
10583.828 1077.6381 12566.618 2631979
10682.598 1080.0973 12595.295 3158323
10754.255 1079.8 12591.829 3224115
10844.231 1081.3336 12609.712 2960944
10718.091 1061.4435 12377.77 2697774
10813.041 1063.5702 12402.569 2303016
10788.258 1053.9707 12290.627 2697774
10766.498 1044.7933 12183.606 2763567
10870.496 1047.8606 12219.375 2434602
10935.564 1047.1594 12211.199 2237223
10987.629 1045.2305 12188.705 2566188
10935.675 1033.4962 12051.868 2500394
11083.384 1040.6614 12135.423 2697517
11286.948 1052.9448 12278.664 2368809
11167.171 1035.1 12070.57 2171430
11256.48 1036.7395 12089.689 2171431
11365.711 1040.1814 12129.826 2303017
11450.34 1041.3428 12143.368 2302764
11455.26 1035.2856 12072.735 2434860
11672.753 1048.3961 12225.62 2434860
0 0 0 0
0 0 0 0
0 0 0 0
0 0 0 0
0 0 0 0
0 0 0 0
-3831.801 390.54022 4259.9004 8882556
-3797.9934 389.66086 4250.3086 8684920
-3706.6113 382.82339 4175.7275 8289906
-3677.5283 382.37164 4170.7998 8026734
-3634.3389 380.43707 4149.6982 7763306
-3630.5359 382.6272 4173.5874 7303011
-3655.0076 387.84772 4230.5312 8092527
-3593.2581 383.92783 4187.7744 8618874
-3617.6416 389.22046 4245.5049 8947835
-3591.6228 389.1265 4244.48 7763561
-3613.6641 394.27484 4300.6367 7566183
-3665.9124 402.81555 4393.7959 8816505
-3697.2751 409.16699 4463.0762 7698025
-3635.7888 405.26062 4420.4663 7500390
-3625.2629 407.01901 4439.6465 7368804
-3577.04 404.53986 4412.6045 4473912
-3531.1902 402.29453 4388.1133 7237475
-3522.9836 404.33627 4410.3838 7961198
-3461.4836 400.24625 4365.771 7170402
-3377.7236 393.5014 4292.2002 7302240
-3394.1196 398.4108 4345.7505 5986637
-3452.0752 408.31094 4453.7383 5526086
-3510.4028 418.40793 4563.873 7499876
-3436.5503 412.78467 4502.5366 6841945
-3364.0256 407.23419 4441.9932 6907738
-3331.2109 406.44122 4433.3438 7170910
-3308.2476 406.84711 4437.7715 7302495
-3286.5657 407.41843 4444.0029 6052427
-3263.8625 407.87131 4448.9429 6184014
-3234.3938 407.47925 4444.6665 5788999
-3231.2825 410.42859 4476.8369 5789254
-3189.7566 408.50702 4455.877 7170651
-3150.1147 406.79666 4437.2212 7105115
-3116.3882 405.82788 4426.6538 7105114
-3110.1826 408.45697 4455.3311 7368543
-3086.6338 408.83386 4459.4424 7236700
-3047.9019 407.18887 4441.499 6776406
-3008.5679 405.43408 4422.3584 6710357
-3012.1106 409.47729 4466.4604 6907482
-2962.5679 406.31158 4431.9297 6250322
-2995.1299 414.4505 4520.7065 6711385
-2918.9478 407.55304 4445.4712 7303266
0 0 0 0
0 0 0 0
0 0 0 0
0 0 0 0
0 0 0 0
-1415.9214 209.01022 2279.8235 256
-1412.1713 210.46422 2295.6833 0
0 0 0 0
0 0 0 0
0 0 0 0
-2746.9771 425.80127 4644.5176 7171427
-2769.5591 433.64526 4730.0776 6447958
-2787.4441 440.90662 4809.2827 6118737
-2779.5591 444.19968 4845.2026 5658186
-2789.9248 450.50858 4914.0181 6118737
-2680.175 437.35013 4770.4893 5723465
-2676.8132 441.45654 4815.2808 6908256
-2626.7698 437.86978 4776.1577 6710876
-2565.9106 432.38242 4716.3032 6579289
-2551.0239 434.60629 4740.5605 6711133
-2602.8208 448.36679 4890.6558 6316377
-2534.5276 441.51721 4815.9429 5000520
-2579.2466 454.42267 4956.7119 6580580
-2566.1655 457.32462 4988.3657 4672328
-2520.7876 454.47137 4957.2432 4606792
-2459.1721 448.58899 4893.0796 7435121
-2439.2996 450.27155 4911.4326 4540482
-2472.5696 461.92279 5038.521 5000521
-2405.1558 454.81927 4961.0381 6711398
-2387.4094 457.0484 4985.3525 7172205
-2363.7961 458.19614 4997.8716 5395283
-2319.4395 455.30109 4966.2935 6842470
-2305.2439 458.32831 4999.3135 5724243
-2324.2307 468.11749 5106.0913 6053208
-2259.0273 460.98474 5028.2891 5987156
-2233.7859 461.92502 5038.5454 5723727
-2229.6882 467.32242 5097.4185 4473145
-2181.3943 463.47763 5055.481 5591110
-2110.8435 454.73111 4960.0762 6315089
-2118.0381 462.72247 5047.2437 7499620
-2112.1953 468.05368 5105.395 6907226
-2079.637 467.53372 5099.7236 6578517
-2060.6733 470.09979 5127.7134 6644566
-2005.7273 464.41116 5065.6636 6973531
-1957.9001 460.22311 5019.9814 6118222
-1931.5925 461.04227 5028.9165 4341811
-1936.7316 469.51053 5121.2856 7039325
-1866.0554 459.57629 5012.9263 7170911
-1833.2926 458.80923 5004.5591 7763048
-1779.6993 452.71811 4938.1191 6973533
-1773.6763 458.7265 5003.6567 6513497
-1727.2894 454.32233 4955.6177 6250325
-1736.1521 464.54926 5067.1699 6645083
-1691.2092 460.48581 5022.8467 6776670
-1692.2339 469.017 5115.9028 7895151
-1666.4011 470.27994 5129.6782 6776670
-1644.7141 472.78149 5156.9644 7303013
-1629.0179 477.13242 5204.4233 5789774
-1587.0728 473.8147 5168.2344 6250323
-1577.9147 480.34738 5239.4912 5987150
-1561.8182 484.98776 5290.1069 6118225
-1526.9691 483.8757 5277.9771 6052688
-1522.4788 492.53854 5372.4688 6644823
-1468.4236 485.19421 5292.3589 7170911
-1432.9128 483.79047 5277.0474 7170654
-1416.0131 488.74786 5331.1211 6776152
-1385.0162 488.95471 5333.3774 5920843
-1375.6655 496.99139 5421.0391 4473398
-1360.1511 503.13226 5488.022 5920844
-1312.2567 497.30292 5424.4375 6315602
-1303.6583 506.44675 5524.1753 5854797
-1265.7026 504.36295 5501.4458 5855567
-1236.526 505.75977 5516.6821 6645083
-1172.4568 492.57339 5372.8491 7697770
-1189.1088 513.51007 5601.2202 7105889
-1136.7029 504.9704 5508.0718 6842460
-1114.7776 509.86697 5561.4819 5526601
-1084.5298 511.13928 5575.3604 7697770
-1046.8934 508.89996 5550.9346 6579288
-1020.658 512.23718 5587.3359 6710875
-985.70044 511.27402 5576.8301 6645081
-947.06293 508.26904 5544.0527 5460550
-933.60779 519.04865 5661.6333 6513238
-896.70996 517.11273 5640.5166 6645081
-868.77411 520.39508 5676.3203 6316116
-824.80743 513.95276 5606.0493 5855568
-787.22394 511.11423 5575.0874 6579291
-758.2002 513.82794 5604.6875 7434858
-735.62054 521.35736 5686.8164 6711136
-707.45416 525.45996 5731.5664 7105894
-681.79449 531.93201 5802.1616 6974309
-627.8548 515.85602 5626.8091 6579552
-606.34949 526.11993 5738.7651 7106152
-571.44073 525.28253 5729.6309 6710880
-546.72058 534.29645 5827.9517 6447706
-507.49411 529.39325 5774.4692 4671294
-481.10013 538.13507 5869.8223 5460810
-460.0842 554.72333 6050.7622 5986901
-418.26489 546.9129 5965.5688 6118744
-385.26843 550.26202 6002.1001 7105895
-348.83557 548.88513 5987.0811 7171946
-316.04919 553.58362 6038.3311 6645345
-278.91492 550.8938 6008.9912 6382173
-242.056 548.04034 5977.8667 6447965
-210.16273 557.37842 6079.7236 6119257
-170.52089 545.77863 5953.1968 6974313
-135.65668 547.40839 5970.9731 6119003
-102.3227 558.54083 6092.4028 5395024
-65.608391 553.29919 6035.2285 4934217
-30.725988 569.4538 6211.4385 5329487
6.3063445 591.43353 6451.187 5000780
43.427902 576.8653 6292.2808 6777191
78.15184 558.61719 6093.2358 6514018
115.30702 563.78772 6149.6338 8422015
151.21182 561.82953 6128.2749 6053470
192.18718 575.82172 6280.8979 6382434
234.25784 588.02411 6413.998 5658711
276.25916 596.67059 6508.311 6118747
311.76825 590.89447 6445.3071 6184540
350.16513 591.25482 6449.2373 6381919
382.55914 582.40558 6352.7129 5921882
410.67593 569.21307 6208.8125 6842985
440.74466 560.67255 6115.6553 6250848
489.69034 575.61896 6278.686 5856090
523.79828 572.24487 6241.8828 6119007
582.55121 594.46478 6484.251 6119265
620.76508 594.27301 6482.1592 5593434
662.54376 597.31744 6515.3672 5922399
693.91492 591.16034 6448.207 6645095
732.97949 591.85797 6455.8164 6119521
756.05273 580.21417 6328.8096 5658714
798.91504 584.13983 6371.6294 6645610
905.0033 631.85425 6892.085 5790815
933.34741 623.51306 6801.1011 5132375
1003.2381 642.46838 7007.8604 4671568
1024.551 630.04449 6872.3442 6580338
1065.5115 630.19067 6873.9385 6646393
1106.0273 630.07275 6872.6523 8095641
1165.6302 640.45056 6985.8506 8623284
1212.4624 643.34045 7017.3726 8492728
1228.4653 630.22284 6874.2896 8624060
1258.0549 624.69354 6813.9775 8624315
1296.5814 623.80786 6804.3164 8755645
1340.807 625.6347 6824.2437 8821438
1395.3667 632.03558 6894.062 8821695
1439.7926 633.61273 6911.2656 8887231
1499.8333 641.78436 7000.3989 8821438
1529.8748 637.02478 6948.4834 8821439
1583.5057 642.07971 7003.6211 8821439
1635.6268 646.27991 7049.4355 8755903
1714.5559 660.59985 7205.6333 8755903
1716.5037 645.28442 7038.5771 8755646
1770.5835 649.82867 7088.1445 8821437
1831.6542 656.6687 7162.7534 8755645
1873.1421 656.33728 7159.1387 8820924
1957.0037 670.53931 7314.0498 8755132
1959.2566 656.76965 7163.8545 8689596
2166.1506 710.72797 7752.416 8623803
2222.1042 713.94946 7787.5557 8623803
2324.5703 731.68011 7980.9565 8492472
2493.7327 769.27863 8391.0703 8426678
2615.7983 791.16284 8629.7764 8294835
2631.9631 780.79175 8516.6514 8425650
2631.1355 765.86462 8353.8311 7438496
2680.9866 765.96771 8354.9561 6451599
2710.0984 760.24933 8292.5811 5463675
2757.3647 759.73663 8286.9883 5266037
2805.0901 759.36609 8282.9473 4542058
2880.5803 766.39532 8359.6201 3160150
2925.3782 765.15912 8346.1357 1976134
3019.416 776.62915 8471.2471 922677
3089.9021 781.76526 8527.2705 1252155
3104.1091 772.72626 8428.6758 1975107
3169.491 776.51099 8469.959 1975363
3191.7642 769.78107 8396.5508 1975364
3235.7083 768.40393 8381.5293 1909572
3315.7598 775.51349 8459.0781 1843779
3376.2581 777.90619 8485.1768 1909828
3434.8752 779.80164 8505.8525 1843779
3510.9187 785.5412 8568.458 1778242
3584.0073 790.46564 8622.1719 1843778
3605.0012 783.92334 8550.8105 1777985
3652.7512 783.29999 8544.0107 1712193
3716.7036 786.12054 8574.7773 1777986
3817.6792 796.59033 8688.9785 1777986
3853.1252 793.29016 8652.9814 1711934
4025.5642 817.91083 8921.5361 1711932
4215.3926 845.38062 9221.1689 1711932
4274.7739 846.32172 9231.4336 1777981
4412.4438 862.54272 9408.3682 1646135
4532.9829 875.05206 9544.8164 1711669
4646.187 885.8548 9662.6494 1909044
4673.9644 880.30493 9602.1133 2435385
4750.5132 883.96399 9642.0254 3092799
4778.5767 878.62115 9583.7471 3619399
4789.7456 870.33398 9493.3525 4014156
4686.2798 841.65082 9180.4854 4277584
4794.0371 851.1261 9283.8389 3816778
4844.3267 850.29932 9274.8203 3290695
5020.6162 871.35925 9504.5361 2764611
5067.1099 869.67505 9486.165 2303807
5128.3335 870.52802 9495.4697 2107201
5243.8247 880.47455 9603.9629 2172483
5367.5356 891.57281 9725.0195 2106691
5478.1436 900.28198 9820.0166 2107461
5532.9634 899.73621 9814.0635 2041668
5615.7236 903.69806 9857.2783 2041668
5712.145 909.75409 9923.3359 2107204
5737.377 904.46411 9865.6348 2107461
5744.3677 896.43427 9778.0479 1975875
5798.4312 895.83734 9771.5361 2041411
5994.7212 917.00848 10002.465 1975619
6220.4443 942.22345 10277.503 1975618
6394.5498 959.20685 10462.752 2041410
6438.9624 956.59631 10434.277 2041667
6612.3999 973.02179 10613.441 2041411
6907.9565 1006.9384 10983.394 2041151
6723.0142 970.83563 10589.596 2041151
6824.5234 976.383 10650.105 1712184
6804.1338 964.54846 10521.018 1382960
6764.0112 950.15686 10364.038 988459
6716.8721 935.04755 10199.229 659237
6689.1533 922.88678 10066.584 593188
6597.1963 902.15662 9840.4648 658467
6576.3608 891.43005 9723.4629 461600
6800.7798 913.8457 9967.9658 461085
6956.6582 926.74451 10108.662 526612
7140.6553 943.13708 10287.468 723989
7434.125 973.58899 10619.629 987160
7540.0605 979.17603 10680.57 1381669
7592.4683 977.77667 10665.307 1974840
7637.9575 975.51672 10640.655 3685201
7784.3457 986.07507 10755.823 4936039
7666.5796 963.27216 10507.096 5660017
7756.6968 966.74567 10544.984 6778497
7879.0127 974.1449 10625.692 7239048
7981.2227 978.96063 10678.221 7435912
8047.8481 979.37012 10682.688 7107204
8004.9102 966.54407 10542.785 6844031
8139.7148 975.21185 10637.331 6515066
8232.2148 978.71698 10675.563 6449273
8277.1426 976.55591 10651.991 6515066
8473.6367 992.17432 10822.353 6580346
8725.9307 1014.0428 11060.888 6777725
9356.0664 1079.1671 11771.245 6777724
9629.6748 1102.5088 12025.849 6251638
10008.36 1137.4495 12406.972 5659500
9788.7881 1104.3844 12046.308 5329766
9823.0303 1100.2266 12000.955 4343127
9871.8262 1097.7467 11973.905 2368812
9776.2021 1079.3574 11773.319 1908259
9875.1953 1082.5634 11808.29 1447706
10006.252 1089.2146 11880.839 986898
10168.099 1099.101 11988.677 723468
10379.223 1114.1396 12152.715 921103
10400.28 1108.7096 12093.485 723728
10471.181 1108.6309 12092.626 1513504
10477.442 1101.756 12017.637 1184281
10394.948 1085.7037 11842.545 1447453
10312.732 1069.8958 11670.115 1447709
10417.08 1073.5245 11709.696 2697774
10128.989 1036.9302 11310.536 2829360
10316.621 1049.1978 11444.348 2368809
10481.719 1059.0284 11551.578 2171431
10514.258 1055.4253 11512.276 2237224
10619.274 1059.097 11552.326 2303017
10683.214 1058.6511 11547.462 2303017
10605.188 1044.2324 11390.188 1908258
10671.983 1044.1656 11389.459 2303016
10731.833 1043.4243 11381.373 2434603
10721 1035.863 11298.896 2303017
10853.5 1042.1584 11367.564 2368810
0 0 0 0
0 0 0 0
0 0 0 0
0 0 0 0
0 0 0 0
-3897.6943 420.15952 4304.8037 6645594
-3757.5952 407.72501 4177.4043 6908252
-3665.0417 400.31885 4101.5234 6842460
-3615.5378 397.54736 4073.1279 7368804
-3537.6792 391.59991 4012.1926 7960940
-3542.0129 394.73184 4044.2808 7763562
-3540.0581 397.20071 4069.5762 7697769
-3528.1445 398.57846 4083.6921 7368804
-3532.3926 401.8136 4116.8384 8553080
-3538.3152 405.28561 4152.4111 7895149
-3495.1387 403.14291 4130.4575 7763564
-3491.9922 405.61975 4155.8345 7237220
-3496.8005 409.06232 4191.106 6776668
-3464.0203 408.12549 4181.5078 7895147
-3423.3171 406.23502 4162.1387 7763562
-3418.2734 408.57944 4186.1587 7697255
-3412.0911 410.82101 4209.125 6841946
-3446.3176 417.99664 4282.644 6118223
-3372.9805 412.13583 4222.5962 6578517
-3358.8408 413.4747 4236.3135 7368289
-3316.7388 411.3656 4214.7046 7500131
-3280.1675 409.91568 4199.8491 7762790
-3379.5466 425.5629 4360.165 7170910
-3376.499 428.45392 4389.7852 6973532
-3306.2192 422.79227 4331.7778 6841947
-3284.5276 423.30402 4337.021 6841945
-3221.7454 418.48642 4287.6616 7500132
-3243.1313 424.61206 4350.4229 7368289
-3220.9341 425.08395 4355.2578 8158061
-3263.8428 434.22522 4448.916 6907994
-3174.0212 425.71304 4361.7031 6249808
-3121.0298 422.04141 4324.085 5460292
-3105.7261 423.44757 4338.4922 6776152
-3044.8521 418.61206 4288.9492 6907739
-3043.6719 421.97107 4323.3643 7697253
-2999.79 419.41675 4297.1938 7236701
-2997.845 422.73227 4331.1636 6973529
-2952.019 419.86395 4301.7754 7104858
-2944.7214 422.47324 4328.5093 6973271
-2910.1233 421.17719 4315.2305 5723204
-2815.0444 411.02731 4211.2383 6381132
-2786.603 410.5127 4205.9658 5854532
-2785.3386 414.02856 4241.9883 5394495
0 0 0 0
0 0 0 0
0 0 0 0
0 0 0 0
0 0 0 0
0 0 0 0
-1413.4805 224.27211 2297.8118 131072
0 0 0 0
0 0 0 0
0 0 0 0
-2624.2051 433.05612 4436.938 7039321
-2603.2825 433.95007 4446.0972 7039067
-2633.9143 443.54391 4544.3921 7500646
-2611.7498 444.35333 4552.6851 7303011
-2590.0613 445.26151 4561.9897 7105633
-2546.3765 442.36749 4532.3389 5855567
-2572.2893 451.63144 4627.2539 7500393
-2500.2239 443.70709 4546.064 6908255
-2495.2903 447.65359 4586.4985 7434598
-2465.8293 447.2384 4582.2441 7434598
-2506.457 459.66766 4709.5898 6447963
-2497.4055 463.16336 4745.4058 6580063
-2447.4492 459.06622 4703.4277 6842979
-2398.7439 455.11206 4662.915 6975078
-2382.6755 457.33005 4685.6396 6843493
-2367.3279 459.74033 4710.3345 6909288
-2333.4419 458.56497 4698.2925 6053981
-2283.7344 454.21451 4653.7188 5988188
-2280.3975 459.09302 4703.7026 5198158
-2293.5066 467.44421 4789.2661 5461327
-2295.5369 473.71835 4853.5483 5921621
-2250.5259 470.32086 4818.7388 5000519
-2239.1968 473.96536 4856.0791 5790035
-2214.4407 474.82568 4864.8936 6711137
-2195.6492 477.00455 4887.2173 6908515
-2106.9573 463.85284 4752.4702 6118998
-2156.8049 481.25784 4930.7954 8289909
-2119.5537 479.43924 4912.1626 6710364
-2059.8948 472.43079 4840.3564 6842206
-2035.8467 473.50702 4851.3833 6578519
-2036.5481 480.45285 4922.5479 7170910
-1980.2476 473.95755 4855.999 6117454
-1979.7516 480.82404 4926.3506 6184015
-1964.3701 484.22659 4961.2119 6841945
-1918.433 480.086 4918.7891 6184272
-1911.781 485.80038 4977.3369 6973788
-1881.1851 485.51419 4974.4043 7434340
-1832.4373 480.45941 4922.6152 7039582
-1777.7709 473.66434 4852.9951 7039325
-1744.3522 472.40002 4840.0415 7170655
-1685.2782 464.02945 4754.2798 6250581
-1693.4392 474.20169 4858.5005 6053202
-1660.1741 472.92487 4845.4189 7566184
-1651.2046 478.64581 4904.0337 7039841
-1636.1514 482.77658 4946.356 7631977
-1600.1472 480.76337 4925.729 5460808
-1572.4771 481.22574 4930.4663 7039582
-1553.5032 484.41736 4963.1665 7171682
-1533.7394 487.48108 4994.5562 6711131
-1530.5665 496.04224 5082.271 5658188
-1527.0409 504.83035 5172.311 7039843
-1488.4337 502.14319 5144.7793 7105636
-1464.9425 504.54987 5169.437 7697772
-1461.9108 514.25629 5268.8857 5065794
-1411.8811 507.49316 5199.5928 4934208
-1373.8638 504.84238 5172.4341 6710103
-1355.3252 509.39163 5219.0439 7039839
-1332.2239 512.39838 5249.8501 5657928
-1312.7373 516.97235 5296.7139 5723465
-1291.8859 521.21979 5340.231 5986636
-1262.1732 522.0155 5348.3838 5263173
-1214.1564 515.08704 5277.397 6118738
-1196.3698 520.95593 5337.5278 7105634
-1159.3472 518.53986 5312.7734 7829357
-1132.9531 520.87537 5336.7026 6645082
-1085.936 513.59137 5262.0732 6447188
-1060.5183 516.39417 5290.7896 6644567
-1029.8394 516.72772 5294.207 7237219
-1010.8915 523.15338 5360.042 6644826
-972.06036 519.37213 5321.3003 5526345
-957.56805 528.7774 5417.6641 6842204
-912.84039 521.55994 5343.7163 5855308
-894.20679 529.26849 5422.6958 6644311
-870.44019 534.40027 5475.2739 6184012
-821.53644 523.89917 5367.6831 5591619
-793.89868 526.65991 5395.9688 5262911
-754.14172 521.27533 5340.8003 6842202
-751.32037 542.06769 5553.8311 6381653
-703.20209 530.58667 5436.2007 5920847
-682.56171 539.73157 5529.896 5855310
-652.68176 542.12402 5554.4087 7040098
-609.17975 532.85522 5459.4438 6381912
-583.2121 538.74445 5519.7827 7631979
-551.63422 539.84308 5531.0386 6908512
-521.60785 542.69464 5560.2544 7171427
-491.16077 545.46332 5588.6216 5263172
-467.0509 556.17896 5698.4102 6052686
-438.07419 562.31708 5761.2993 4933947
-412.70947 574.52069 5886.333 5525824
-377.884 574.59137 5887.0576 4736825
-336.46573 563.63251 5774.7769 4868416
-296.81256 553.48438 5670.8022 6644829
-267.56799 562.63251 5764.5312 6908516
-234.41212 565.02972 5789.0918 6579551
-202.6617 572.21686 5862.7285 6579551
-166.77713 568.28998 5822.4951 5658449
-132.47592 569.11725 5830.9717 7500654
-96.956902 563.45105 5772.9175 7369068
-62.59552 562.00269 5758.0781 7303278
-29.427824 580.63788 5949.0073 7106155
5.8916197 588.24396 6026.937 6514018
41.545521 587.52228 6019.5425 7237228
77.163292 587.19232 6016.1621 6710884
112.09648 583.50739 5978.4072 6645091
145.51443 575.59808 5897.3721 5658707
183.84441 586.41974 6008.2466 6974055
218.79298 584.6944 5990.5693 4342334
257.4458 591.96808 6065.0928 5657938
296.84714 598.97046 6136.8369 5657681
331.99078 596.79108 6114.5078 5657939
367.35941 595.40521 6100.3081 5921111
397.49661 586.54803 6009.5605 6184540
432.15875 585.27515 5996.5195 6250335
470.81802 589.19788 6036.71 6053213
502.28345 584.19958 5985.4995 6974315
548.16772 595.52496 6101.5356 5329490
592.27924 603.64246 6184.7041 6118750
619.5141 594.61572 6092.2197 6513507
679.6192 616.39514 6315.3638 6316129
695.3877 597.78802 6124.7217 6250335
729.4826 595.99927 6106.395 5592405
774.12823 602.59241 6173.9458 5066061
833.43817 619.4906 6347.0786 6382690
836.70197 595.06927 6096.8667 6316386
884.74396 603.19794 6180.1499 6513764
944.21808 618.16498 6333.4971 6777450
996.78735 627.64032 6430.5781 6053730
1016.8237 616.68726 6318.3569 5856607
1088.235 636.56396 6522.0059 5330008
1151.2861 650.3548 6663.3022 5198680
1197.0217 653.77423 6698.3364 5922921
1223.5688 646.83032 6627.1919 6713214
1251.2001 640.87347 6566.1602 8228003
1290.4902 641.06757 6568.1484 8162988
1339.7446 646.0553 6619.251 8492471
1360.2911 637.30945 6529.644 8624058
1401.5178 638.46814 6541.5161 8624057
1430.3787 634.08282 6496.585 8755644
1474.3456 636.4483 6520.8208 8755644
1518.8488 638.91858 6546.1309 8821440
1588.3578 651.52289 6675.27 8821440
1652.2963 661.28534 6775.293 8887232
1674.7965 654.39362 6704.6826 8821438
1707.1017 651.56354 6675.6865 8821438
1758.8848 656.12756 6722.4478 8886718
1798.156 655.92535 6720.3765 8952510
1853.7661 661.56305 6778.1377 8886718
1926.9908 673.1145 6896.4897 8820925
1976.6724 676.13312 6927.418 8755388
2055.1548 688.68024 7055.9707 8820925
2047.9287 672.57874 6891.001 8820925
2096.9758 675.22662 6918.1304 8755388
2343.5652 740.16229 7583.438 8755389
2373.1965 735.42273 7534.8774 8623803
2516.7307 765.50342 7843.0737 8689597
2455.3669 733.30035 7513.1328 8558267
2566.3689 752.80493 7712.9697 8491960
2707.6011 780.33954 7995.0791 8557495
2932.6973 830.6817 8510.8672 8491444
2996.114 834.30072 8547.9463 8096172
3018.0032 826.4278 8467.2832 7635106
3041.5403 819.25623 8393.8057 6581901
3036.2529 804.67615 8244.4238 5528440
2948.8625 769.14313 7880.3647 3554646
3021.998 775.93463 7949.9478 4212835
3043.2622 769.40344 7883.0317 3028307
3061.8733 762.40906 7811.3701 2172486
3282.3479 805.13873 8249.1631 1449536
3234.4839 781.75861 8009.6187 1383229
3273.6445 779.78394 7989.3867 1712193
3329.51 781.7879 8009.9189 1844036
3384.5574 783.54614 8027.9331 1844035
3413.4888 779.29346 7984.3613 1844035
3454.4607 777.86823 7969.7593 1844035
3513.6885 780.5368 7997.1006 1843778
3552.9348 778.75482 7978.8423 1909825
3653.2795 790.23566 8096.4712 1844287
3796.0938 810.48633 8303.9531 1844031
3850.9827 811.68658 8316.25 1778239
3894.8926 810.57172 8304.8271 1777726
4010.7161 824.26392 8445.1123 1777727
4078.208 827.80823 8481.4268 1646141
4120.6582 826.24506 8465.4111 1646140
4214.1089 834.82281 8553.2949 1711677
4242.7563 830.51172 8509.125 1646140
4311.5562 834.06915 8545.5732 1646140
4407.397 842.71442 8634.1504 1777724
4457.0493 842.43127 8631.249 1777721
4520.6772 844.76617 8655.1709 1778234
4587.5537 847.64874 8684.7051 1909564
4677.4614 854.67572 8756.7012 2040890
4799.9868 867.44324 8887.5127 2764608
4850.3911 867.0415 8883.3965 3488069
5019.4116 887.62433 9094.2803 4145739
5019.772 878.26111 8998.3486 4474705
5083.583 880.07935 9016.9775 4277328
5262.6348 901.60309 9237.502 3422280
5400.5479 915.70819 9382.0186 2566978
5400.3257 906.34277 9286.0625 1975357
5474.6284 909.54755 9318.8984 1909311
5589.356 919.33746 9419.2021 1975106
5574.394 907.81335 9301.1299 1975363
5641.0293 909.67316 9320.1855 2041154
5703.1289 910.77271 9331.4502 2106947
6237.564 986.55731 10107.913 2107204
5843.7236 915.47742 9379.6533 1975619
5856.4614 908.83093 9311.5557 2106435
5893.8477 906.09784 9283.5537 2040898
6002.7969 914.31543 9367.748 2106692
6362.8604 960.28058 9838.6904 2040898
6440.4624 963.16913 9868.2861 1975105
6512.2544 965.14478 9888.5273 1975104
6436.0107 945.34106 9685.626 2040899
6465.2227 941.24036 9643.6113 2172739
6520.6685 940.99725 9641.1201 2238275
6553.3457 937.50092 9605.2988 1974844
6672.9165 946.38873 9696.3604 1711671
6683.8096 939.84314 9629.2959 1645364
6768.6626 943.72009 9669.0176 1250605
6924.292 957.31708 9808.3281 789796
6979.8662 956.96991 9804.7705 658210
7159.3252 973.47339 9973.8594 460830
7286.8989 982.70935 10068.488 526877
7378.7646 987.01892 10112.643 790049
7491.1094 993.9765 10183.927 855842
7539.9775 992.46759 10168.467 724254
7805.4727 1019.2706 10443.081 855840
8059.6172 1044.1815 10698.31 1447723
8181.9629 1051.7614 10775.971 1908785
7715.9565 984.17902 10083.546 2895681
8070.0869 1021.4407 10465.315 4080469
8161.375 1025.1196 10503.008 5132902
8142.8481 1015.0538 10399.877 5922932
8295.8027 1026.3547 10515.663 6383224
8417.6299 1033.6648 10590.56 6778238
8345.0898 1017.1756 10421.616 6712444
8629.5127 1044.119 10697.669 6580856
8518.6387 1023.1896 10483.233 6449271
8392.6807 1000.7645 10253.474 6383478
8511.416 1007.6297 10323.812 6383736
8560.4014 1006.1986 10309.15 6383223
8555.6592 998.5174 10230.451 6251895
8817.0264 1021.7828 10468.821 6383737
9614.2266 1106.386 11335.635 6515066
9601.7549 1097.2863 11242.402 6515323
9537.0996 1082.3895 11089.775 6777468
9475.3115 1068.0197 10942.547 6316917
9501.7588 1063.7233 10898.527 5592936
9573.1289 1064.4799 10906.279 4474452
9595.5049 1059.8151 10858.485 2894650
9415.9131 1033.0537 10584.298 1842215
9786.1201 1066.5679 10927.672 657940
9808.5322 1061.9851 10880.719 131593
9953.5449 1070.6498 10969.494 328715
10123.75 1081.8943 11084.701 855060
10144.55 1077.1301 11035.89 789268
10255.402 1081.9276 11085.042 855314
10358.878 1085.8906 11125.646 1184023
10358.632 1078.9994 11055.041 2039333
10334.962 1069.7703 10960.482 2039334
10341.592 1063.7731 10899.037 2039845
10448.45 1068.0961 10943.329 2500396
0 0 0 0
0 0 0 0
0 0 0 0
0 0 0 0
0 0 0 0
0 0 0 0
-3703.2461 426.21768 4116.9829 7500390
-3604.1094 417.5578 4033.3342 5658186
-3540.127 412.88239 3988.1726 7894634
-3494.3108 410.27707 3963.0071 7894633
-3510.7786 414.9989 4008.6169 7566183
-3487.468 415.05093 4009.1196 7500390
-3500.5427 419.46368 4051.7439 6974046
-3478.1921 419.66312 4053.6704 8487288
-3450.9111 419.26633 4049.8374 9145216
-3401.7822 416.19098 4020.1316 8750459
-3374.9873 415.82394 4016.5864 7895150
-3317.4749 411.64023 3976.1746 6842461
-3400.3052 424.93527 4104.5957 6645081
-3354.9153 422.28278 4078.9744 7237218
-3344.262 423.99582 4095.521 7566183
-3322.4023 424.3027 4098.4858 6711385
-3271.7344 420.90796 4065.6943 6645335
-3325.4697 430.9939 4163.1182 7303267
-3270.8098 427.07718 4125.2852 7697512
-3195.7498 420.41776 4060.9595 8224114
-3179.4744 421.44937 4070.9241 7500648
-3194.0745 426.62067 4120.8755 7763821
-3177.1873 427.63358 4130.6597 6908769
-3148.4561 427.05573 4125.0781 6711133
-3171.0251 433.4816 4187.1479 6842203
-3154.3958 434.60812 4198.0293 6644567
-3148.897 437.29825 4224.0142 7763048
-3133.4666 438.6413 4236.9868 6841946
-3117.8613 439.98126 4249.9302 6841946
-3086.9629 439.16733 4242.0684 7565668
-3016.5305 432.66962 4179.3047 7434082
-3048.7998 440.91711 4258.9697 6973531
-2944.6309 429.40588 4147.7788 7499875
-2940.3811 432.39438 4176.646 6710101
-2889.9207 428.58047 4139.8062 7368031
-2888.636 432.05661 4173.3833 6512979
-2866.4348 432.43723 4177.0596 7631460
-2857.1604 434.7916 4199.8013 7631459
-2821.1724 433.08643 4183.3306 6447185
-2769.7542 428.96136 4143.4854 5592130
-2774.4822 433.5358 4187.6714 6052422
0 0 0 0
0 0 0 0
0 0 0 0
0 0 0 0
0 0 0 0
0 0 0 0
-1389.1895 231.56662 2236.7815 1280
-1408.9528 237.12289 2290.4514 0
0 0 0 0
0 0 0 0
0 0 0 0
-2556.6147 447.5105 4322.6577 6381392
-2578.4102 455.89206 4403.6182 6841944
-2566.3899 458.40482 4427.8896 8026733
-2524.803 455.63382 4401.1235 7632231
-2499.1096 455.70306 4401.7925 5855049
-2524.8013 465.24243 4493.9365 5328705
-2479.124 461.69394 4459.6602 6645082
-2500.2024 470.63501 4546.0254 6316375
-2471.6738 470.33112 4543.0898 7763820
-2410.4448 463.72949 4479.3228 6842462
-2390.9468 465.09872 4492.5483 6579292
-2407.1665 473.52493 4573.9399 5658189
-2411.0598 479.69052 4633.4956 5329224
-2364.7932 475.90378 4596.918 5723981
-2346.5298 477.72992 4614.5576 5921363
-2325.9958 479.13144 4628.0952 5395532
-2267.6038 472.67499 4565.73 7303015
-2208.3342 465.8775 4500.0708 7040099
-2205.7163 471.01129 4549.6602 7040102
-2173.0466 469.77551 4537.7231 6381914
-2201.2471 481.83267 4654.1875 6250584
-2178.0874 482.81082 4663.6357 6053207
-2187 491.01486 4742.8813 6184791
-2134.386 485.43896 4689.022 6316120
-2102.2673 484.43896 4679.3623 6316118
-2103.6653 491.23883 4745.0444 6447447
-2012.4587 476.30539 4600.7974 7368806
-2016.2416 483.75256 4672.7319 7170913
-1967.3484 478.59259 4622.8901 6644567
-1965.08 484.78943 4682.7476 6315603
-1942.6339 486.11459 4695.5479 6447189
-1945.1984 493.82764 4770.0508 6644567
-1964.085 505.9729 4887.3662 5262916
-1907.9377 498.8627 4818.6865 5328708
-1901.8917 504.83536 4876.3779 4867643
-1853.2351 499.50729 4824.9126 4407092
-1861.0553 509.47305 4921.1753 5460036
-1792.5391 498.526 4815.4341 6052428
-1710.6843 483.45529 4669.8608 6907739
-1685.8585 484.27097 4677.7397 5986637
-1659.1448 484.5625 4680.5557 6512725
-1643.4276 488.13013 4715.0166 6973018
-1643.624 496.62952 4797.1152 4736053
-1588.103 488.29654 4716.624 5131067
-1569.6478 491.26581 4745.3052 6578258
-1584.035 504.80975 4876.1309 5788744
-1550.9836 503.4581 4863.0747 5657158
-1509.2173 499.17276 4821.6812 6776409
-1481.1433 499.33823 4823.2793 6645337
-1475.7218 507.29724 4900.1582 6645081
-1462.2916 512.7674 4952.9961 7566184
-1413.7932 505.9126 4886.7837 6974048
-1463.4282 534.62158 5164.0933 6710875
-1375.9585 513.39972 4959.1045 6316117
-1343.6516 512.28339 4948.3213 6776411
-1305.5743 508.86813 4915.332 6118483
-1278.5311 509.69589 4923.3276 6315602
-1266.4945 516.68445 4990.8325 6579031
-1240.2804 518.0849 5004.3599 7697512
-1211.4658 518.44116 5007.8013 7697256
-1227.0852 538.30792 5199.7012 6447704
-1165.2632 524.35034 5064.8804 6776669
-1141.8586 527.39917 5094.3296 5921360
-1132.6271 537.33746 5190.3271 5131843
-1094.0424 533.51617 5153.416 6184275
-1032.0187 517.71722 5000.8086 6118994
-1030.5734 532.27191 5141.3975 7566184
-979.28644 521.18701 5034.3242 7763564
-975.03979 535.22742 5169.9453 6447188
-946.30859 536.30231 5180.3286 7829099
-910.46057 533.28082 5151.1426 8158321
-875.56281 530.62561 5125.4951 7302496
-859.93317 539.87646 5214.8521 6315599
-825.31952 537.45416 5191.4541 4933942
-799.02032 540.46826 5220.5688 5196086
-754.23846 530.71997 5126.4062 5788228
-725.9173 532.22205 5140.916 5262400
-708.01733 541.83087 5233.731 5986637
-678.73145 543.2074 5247.0269 6249809
-647.44928 543.04169 5245.4263 6249553
-621.14624 547.24603 5286.0371 5855054
-592.2749 549.51385 5307.9429 6578777
-559.74084 548.4472 5297.6401 6842463
-524.07257 544.00043 5254.6875 6842463
-492.04364 543.00836 5245.1045 7368808
-478.27472 563.39227 5441.9995 7566184
-436.62015 551.50018 5327.1294 8027248
-419.24597 570.81329 5513.6816 7237220
-394.52786 582.54633 5627.0151 6250324
-356.77115 575.41595 5558.1406 7039841
-328.42111 583.54968 5636.7065 5855568
-293.74988 581.02167 5612.2881 6118998
-262.57315 585.64252 5656.9219 6645087
-224.41777 573.77289 5542.2695 6513245
-193.93552 580.81506 5610.2925 6710880
-161.14781 582.43768 5625.9653 6579551
-128.53226 585.69092 5657.3896 5066313
-94.479858 582.38239 5625.4316 4934727
-60.247883 573.75763 5542.1221 6513759
-27.929688 584.52728 5646.1499 6974569
5.4513512 577.32245 5576.5562 6645604
38.814457 582.21735 5623.8374 6053467
72.803734 587.64459 5676.2612 6448225
107.38758 592.92523 5727.2686 6250589
141.9071 595.40027 5751.1758 6118746
177.76151 601.43323 5809.4502 6513759
212.45041 602.20544 5816.9092 5921622
242.51776 591.49023 5713.4072 6382173
279.76505 598.76654 5783.6919 6513759
314.17825 599.05121 5786.4419 5066056
354.41367 609.28918 5885.3335 4671043
372.96405 583.75238 5638.665 5198156
408.46262 586.76019 5667.7188 5657939
448.75473 595.67401 5753.8198 6052697
477.31931 588.86115 5688.0122 6908264
518.41772 597.39001 5770.395 5395026
563.23773 608.88672 5881.4463 5658197
608.20428 619.19324 5981 6052956
639.24823 614.97107 5940.2168 6250335
668.69153 609.72998 5889.5913 5526869
709.50049 614.85834 5939.1279 5658197
743.51062 613.88849 5929.7598 6184541
786.05652 619.73578 5986.2412 6184798
834.19861 629.30005 6078.6255 6448227
857.29535 619.96088 5988.415 5987676
902.49683 626.71393 6053.645 5526612
947.65894 632.92456 6113.6357 5592403
983.51007 632.68811 6111.3521 5592145
1026.8508 637.11566 6154.1187 4408125
1038.7418 622.3952 6011.9292 5263437
1072.6294 621.39392 6002.2573 5790041
1108.8518 621.76605 6005.8521 5723993
1157.9386 629.10425 6076.7339 5461080
1209.3237 637.21088 6155.0391 5461082
1256.5835 642.73297 6208.3784 5790562
1317.6592 654.8067 6325.0029 5724514
1345.2606 650.03778 6278.9385 6712440
1360.2275 639.58472 6177.9683 7239822
1381.4574 632.54706 6109.9897 8689332
1447.3829 645.81177 6238.1177 8624570
1492.7183 649.45746 6273.333 8690108
1550.8334 658.35126 6359.2412 8755901
1577.774 653.90308 6316.2744 8755647
1610.9387 652.18066 6299.6372 8755647
1655.3199 654.97449 6326.6235 8755646
1713.887 663.13324 6405.4321 8755647
1753.5134 663.76886 6411.5718 8755903
1810.0016 670.62512 6477.7983 8821440
1855.0221 673.03583 6501.0845 8821439
1915.1776 680.72815 6575.3867 8821440
1934.8108 673.99762 6510.3745 8821440
1993.2811 680.7948 6576.0312 8887232
2051.2009 687.14703 6637.3892 8821440
2073.7341 681.62878 6584.0869 8755647
2109.4832 680.57812 6573.938 8887231
2153.29 682.1181 6588.813 8755645
2243.1965 697.94672 6741.707 8755644
2287.991 699.43085 6756.043 8624058
2327.6296 699.31494 6754.9233 8755131
2383.6921 704.05402 6800.6997 8623802
2493.1243 724.1369 6994.6875 8689338
2506.5754 716.14093 6917.4512 8623546
2516.8477 707.50861 6834.0684 8624060
2584.3257 714.97601 6906.1987 8361143
2746.8474 748.09546 7226.1113 8360116
2789.9775 748.18152 7226.9429 8294066
2812.2559 742.75775 7174.5522 8030635
2858.7627 743.79932 7184.6128 6977690
2952.4705 756.91101 7311.2637 6055817
3059.9448 773.12183 7467.8491 5595009
3067.7859 764.05603 7380.2798 4475757
3114.1702 764.70972 7386.5938 3159635
3107.4141 752.47693 7268.4331 2172999
3207.1365 766.01056 7399.1592 1449019
3292.2354 775.73358 7493.0771 1580092
3376.6267 785.03339 7582.9067 1778240
3407.8596 781.89233 7552.5669 1778241
3496.01 791.72247 7647.5195 1844033
3587.2744 801.9975 7746.769 1909825
3670.762 810.29602 7826.9282 1909826
3757.0117 818.98975 7910.9033 1909825
3822.7493 823.05286 7950.1499 1844032
3865.9304 822.21967 7942.1025 1844033
3937.4258 827.35614 7991.7173 1909826
4044.5439 839.76697 8111.5972 1843778
4124.6543 846.34442 8175.1313 1712449
4220.7881 856.01892 8268.5811 1712193
4289.457 859.96533 8306.7002 1777985
4368.6909 865.91602 8364.1807 1777983
4453.4307 872.81262 8430.7969 1646397
4443.6963 861.24567 8319.0684 1711933
4575.6792 877.09808 8472.1914 1711933
4614.4888 874.94 8451.3457 1646139
4628.188 868.11835 8385.4531 1646139
4654.0562 863.69977 8342.7734 1777978
4758.5444 873.81116 8440.4424 1843512
4869.5986 884.9054 8547.6055 1843508
4917.3193 884.38074 8542.5371 2435384
5004.6455 890.91724 8605.6758 2632504
5142.4316 906.21405 8753.4336 3158590
5118.2227 892.94324 8625.2461 3553602
5177.063 894.28076 8638.165 3685188
5272.8188 901.90631 8711.8232 3816520
5343.1353 905.07489 8742.4287 3619400
5465.8672 916.97607 8857.3867 3027521
5630.9937 935.69543 9038.2041 2698561
5686.8657 936.07867 9041.9053 2238528
5725.9263 933.71326 9019.0566 1975357
5845.2144 944.35315 9121.8311 2041153
5940.0928 950.8905 9184.9785 2106691
5841.2588 926.5813 8950.167 1975362
5937.376 933.35571 9015.6035 1975362
5990.1055 933.24963 9014.5791 2041158
6031.248 931.35614 8996.2891 2041157
6070.5737 929.21765 8975.6328 1910081
6173.5239 936.77075 9048.5908 1909312
6304.54 948.41595 9161.0752 1843520
6490.9985 968.13147 9351.5146 1909312
6652.479 983.81934 9503.0488 1909312
6807.6138 998.31342 9643.0518 1909056
6886.6611 1001.5012 9673.8438 1843264
6966.6929 1004.7782 9705.498 1777983
7116.5723 1017.9929 9833.1436 1909311
7138.4478 1012.8315 9783.2871 2040638
7360.9668 1035.9919 10007.002 1974843
7416.4536 1035.4618 10001.882 1580084
7514.1265 1040.7833 10053.284 1447983
7597.4424 1044.0482 10084.82 921895
7624.9331 1039.6504 10042.34 790050
7688.0278 1040.1376 10047.047 658206
7784.6353 1045.1166 10095.141 526877
7709.4985 1027.1382 9921.4805 329242
7687.7139 1016.4861 9818.5889 329239
7825.8105 1026.9752 9919.9062 328977
8142.4355 1060.5615 10244.327 461073
8012.0879 1035.8627 10005.754 723987
8053.6592 1033.5905 9983.8047 987421
8284.8525 1055.5096 10195.53 1448238
8258.752 1044.569 10089.851 3027530
8186.8828 1028.0383 9930.1748 4080472
8203.2246 1022.7411 9879.0078 5067880
8283.2061 1025.3973 9904.665 6383482
8215.9922 1009.9225 9755.1885 6778497
8284.8477 1011.2729 9768.2324 6975875
8314.6309 1007.8684 9735.3477 6844288
8397.1865 1010.8637 9764.2793 6712702
8442.8018 1009.4014 9750.1553 6515324
8528.0488 1012.6651 9781.6807 6383481
8528.6309 1005.8991 9716.3252 6317688
8637.6729 1011.9301 9774.5811 6317944
8700.2969 1012.4791 9779.8838 6580602
8751.1904 1011.6647 9772.0166 6712188
9028.1436 1036.8225 10015.025 6975103
9212.2256 1051.0558 10152.509 6975359
9464.1816 1072.7981 10362.525 6777980
9599.9209 1081.1716 10443.408 5921903
9832.7695 1100.3044 10628.219 4737631
9925.2988 1103.5918 10659.973 3487306
10208.266 1127.8784 10894.565 2763581
10199.611 1119.842 10816.939 2105392
10181.934 1110.9215 10730.772 263173
10278.437 1114.4923 10765.264 0
0 0 0 0
0 0 0 0
0 0 0 0
0 0 0 0
0 0 0 0
0 0 0 0
-3498.2881 425.66852 3889.1265 7829868
-3521.4578 431.32852 3940.8394 7895404
-3489.2578 430.23688 3930.8655 7500390
-3459.8662 429.47916 3923.9424 7829355
-3491.6541 436.35684 3986.7808 7895148
-3430.0803 431.58124 3943.1479 7368804
-3398.0789 430.48648 3933.146 7039840
-3398.2146 433.4761 3960.4604 8421494
-3370.3508 432.91074 3955.2952 9408388
-3367.7434 435.60437 3979.9055 9145216
-3277.7444 426.95245 3900.8574 8421492
-3227.9639 423.4537 3868.8909 6974046
-3279.4946 433.29022 3958.7622 7237218
-3239.8276 431.13251 3939.0486 7039580
-3255.4165 436.34991 3986.717 7236446
-3227.8074 435.81107 3981.7942 6447187
-3210.7607 436.70093 3989.9241 6644310
-3200.751 438.56815 4006.9844 7236703
-3194.6838 441.00754 4029.2717 7828584
-3126.7617 434.88071 3973.2937 7237217
-3134.8855 439.31781 4013.8335 7631975
-3093.9612 436.89673 3991.7131 8158319
-3093.0198 440.12775 4021.2336 7368548
-3055.6099 438.17932 4003.4316 7368807
-3102.1499 448.33313 4096.2021 6645082
-3024.0918 440.49777 4024.6143 5658445
-3061.0232 449.42065 4106.1382 6513754
-3073.748 454.90399 4156.2368 8026736
-3049.7649 454.99936 4157.1084 7170657
-3040.7915 457.35388 4178.6201 7500390
-2997.2864 454.51056 4152.6426 7631976
-2956.0859 451.97266 4129.4546 8026734
-2920.7224 450.29224 4114.1016 7960941
-2860.3464 444.69485 4062.9609 6842460
-2867.1553 449.53632 4107.1948 7500645
-2861.6643 452.51562 4134.4155 6711129
-2852.9487 455.03207 4157.4072 6579543
-2817.8059 453.34064 4141.9531 6183757
-2770.0291 449.56897 4107.4937 6184013
-2758.6868 451.6962 4126.9287 6644564
-2719.7922 449.30975 4105.125 7433823
-2652.6794 442.17657 4039.9524 7631201
0 0 0 0
0 0 0 0
0 0 0 0
0 0 0 0
0 0 0 0
-1416.0837 249.55743 2280.085 1280
-1407.1641 250.37376 2287.5435 256
0 0 0 0
0 0 0 0
0 0 0 0
-2504.1108 463.40274 4233.8857 6447185
-2473.7883 462.42316 4224.936 7039580
-2444.3645 461.59335 4217.3545 7828840
-2460.8535 469.50613 4289.6494 8486771
-2394.2693 461.56909 4217.1328 7236704
-2443.1372 475.95627 4348.5815 6841946
-2439.3594 480.28476 4388.1284 6447702
-2404.2437 478.46985 4371.5469 6644567
-2372.5427 477.30246 4360.8809 5525832
-2358.4775 479.69632 4382.7524 6250325
-2338.4131 480.9097 4393.8384 6645084
-2343.9622 487.47723 4453.8428 6908511
-2307.4331 485.34363 4434.3491 5658446
-2320.9255 493.80365 4511.644 6184532
-2285.0776 491.8407 4493.7095 5263432
-2278.9302 496.29947 4534.4473 6579292
-2195.408 483.81317 4420.3662 6579291
-2154.9194 480.6235 4391.2236 5724495
-2126.7029 480.1264 4386.6821 7303273
-2112.0056 482.70694 4410.2588 5592654
-2098.646 485.66159 4437.2539 6579549
-2072.3589 485.66159 4437.2539 6118997
-2068.1826 490.90991 4485.2056 7303272
-2041.2992 490.83487 4484.52 7105635
-1996.7919 486.46432 4444.5884 6316375
-2016.2471 497.76788 4547.8633 6447446
-1979.5765 495.33371 4525.6235 6381397
-1957.1827 496.45413 4535.8604 7302243
-1894.41 487.22073 4451.499 6249552
-1937.0408 505.21793 4615.9307 6315602
-1915.8406 506.84375 4630.7852 6644566
-1896.4277 508.99655 4650.4546 4341042
-1876.0137 510.94012 4668.2119 5262914
-1848.877 511.08356 4669.5225 6381395
-1794.4817 503.58188 4600.9829 5986894
-1820.9166 518.88177 4740.771 6381652
-1766.6841 511.31424 4671.6299 6052687
-1729.7043 508.57867 4646.6362 5657672
-1704.5375 509.28406 4653.0811 7170911
-1645.2037 499.63638 4564.9351 6446675
-1625.8878 502.02246 4586.7354 4341043
-1593.6693 500.43805 4572.2593 5130816
-1600.9149 511.40549 4672.4639 5525828
-1578.3296 513.06189 4687.5972 5394755
-1550.8662 513.16339 4688.5249 6710360
-1534.7517 517.09241 4724.4224 6052686
-1527.7429 524.29224 4790.2036 7829098
-1471.321 514.48602 4700.6094 7170655
-1429.5564 509.52567 4655.2886 5592135
-1404.929 510.59836 4665.0894 5723465
-1364.3934 505.81656 4621.4004 7039325
-1333.8326 504.61255 4610.3999 6842461
-1312.4091 506.88727 4631.1826 6579546
-1294.2104 510.53122 4664.4756 6974046
-1271.5975 512.55487 4682.9648 7697769
-1259.6272 519.05426 4742.3467 6052944
-1225.1195 516.35138 4717.6519 6644567
-1207.7938 520.93311 4759.5127 6841946
-1161.7306 513.04272 4687.4224 7236450
-1175.671 531.9137 4859.8369 6841948
-1157.127 536.66602 4903.2568 6776412
-1122.5101 534.01672 4879.0513 6381911
-1099.6528 536.96967 4906.0312 6776667
-1071.3191 537.33618 4909.3799 6908253
-1030.9534 531.5199 4856.2393 6710875
-1007.3101 534.23865 4881.0791 6645082
-990.12299 540.64343 4939.5962 5197893
-967.17316 544.19574 4972.0522 6974049
-933.22198 541.58673 4948.2153 8486771
-907.07141 543.48242 4965.5347 7170911
-880.34235 545.14679 4980.7417 7368290
-858.8183 550.26172 5027.4741 6578773
-821.62744 545.3454 4982.5562 7631461
-789.28894 543.40338 4964.813 6776667
-770.54651 551.03394 5034.5298 6512725
-730.62744 543.52533 4965.9268 5592135
-726.29498 562.97083 5143.5908 5920843
-690.38654 558.5722 5103.4028 5855050
-655.48114 554.61932 5067.2876 6315601
-617.8454 547.86597 5005.5854 6249808
-598.14032 557.13306 5090.2539 5591879
-574.26147 563.29004 5146.5073 6183761
-540.82233 560.23407 5118.5869 5591625
-511.69153 561.54321 5130.5474 6776157
-480.21417 560.27979 5119.0044 6513241
-448.82687 558.95825 5106.9302 7631978
-423.43106 565.44666 5166.2114 6710874
-398.16705 573.13586 5236.4639 9473409
-373.25943 582.68073 5323.6709 6381912
-343.37796 585.50641 5349.4878 6447706
-310.29443 582.8916 5325.5977 7500394
-274.8804 574.81146 5251.7734 5460557
-244.94484 577.58728 5277.1343 7040102
-215.73232 583.12958 5327.7715 6184793
-182.666 578.36938 5284.2803 5592656
-151.48181 578.83209 5288.5078 5921623
-121.214 583.95074 5335.2744 6382173
-88.680626 577.91614 5280.1392 5395278
-58.237335 586.34772 5357.1748 6447710
-26.285881 581.60529 5313.8447 6315866
5.3134732 594.92175 5435.5112 5460556
37.898174 601.00348 5491.0771 4473914
69.732903 595.06714 5436.8394 5789522
101.45505 592.22479 5410.8706 5724242
138.97902 616.48303 5632.5063 6250588
171.89444 614.86334 5617.708 6184794
206.12186 617.70081 5643.6328 7105896
236.89766 610.84619 5581.0049 5592403
272.91055 617.52063 5641.9863 6447712
306.15555 617.159 5638.6821 5987161
336.75409 612.05853 5592.0815 6974057
366.22458 606.00507 5536.7739 6447712
392.32092 595.82245 5443.7402 3618613
433.56116 608.43903 5559.0117 5921368
467.52795 609.78748 5571.3325 6974056
505.76743 616.16357 5629.5874 6579553
538.58026 615.54852 5623.9683 5131593
575.16467 619.06464 5656.0928 4342077
609.62848 620.0368 5664.9751 5657938
650.17316 626.76947 5726.4883 4671042
686.33612 628.81989 5745.2222 4736835
705.76447 616.06873 5628.7207 4736836
747.44373 623.01489 5692.1846 3486769
790.27631 630.28119 5758.5728 5000521
824.38403 630.27551 5758.5215 5132107
878.60498 645.03662 5893.3867 5856087
914.79022 645.93445 5901.5894 5856089
942.93872 641.30029 5859.2495 5592916
977.65027 641.30029 5859.2495 5921112
1012.0049 641.07422 5857.1841 5066316
1028.7266 630.06348 5756.584 5000524
1063.6315 630.5387 5760.9263 5987421
1129.8774 648.98633 5929.4727 5855835
1154.5342 643.15326 5876.1792 5856091
1190.2925 643.6651 5880.8555 6184798
1216.1733 638.95837 5837.8525 5461589
1248.7115 637.9129 5828.3003 4080195
1265.9587 629.32233 5749.8125 4672332
1342.5487 649.90894 5937.9023 5396317
1374.9397 648.59448 5925.8926 6054770
1439.9493 662.34949 6051.5654 7963289
1475.5083 662.21844 6050.3682 7832739
1518.134 665.19006 6077.5186 8754616
1543.356 660.57495 6035.3525 8294835
1589.5439 664.93939 6075.228 8558008
1618.3951 662.0188 6048.5439 8295093
1675.4028 670.49286 6125.9678 8689596
1703.6686 667.34906 6097.2441 8624059
1759.8591 675.04718 6167.5781 8689852
1796.8628 675.22205 6169.1758 8624316
1842.2894 678.49213 6199.0527 8624315
1883.9498 680.27435 6215.3364 8755646
1911.146 676.86548 6184.1914 8821439
1953.4784 678.84485 6202.2759 8821439
1992.7057 679.69202 6210.0161 8755902
2029.1366 679.5719 6208.9185 8821437
2063.7041 678.84308 6202.2598 8821437
2140.3435 691.73706 6320.0654 8821438
2181.2964 692.85236 6330.2559 8886719
2231.9961 696.97357 6367.9092 8886718
2267.9807 696.43915 6363.0264 9017278
2324.4004 702.09473 6414.6987 8885947
2414.7153 717.64185 6556.7451 8885948
2456.6843 718.55603 6565.0977 8820410
2498.0051 719.255 6571.4839 8885946
2553.5693 723.97076 6614.5693 8754618
2588.1279 722.67865 6602.7637 8754874
2589.8252 712.38574 6508.7227 8689082
2633.6152 713.80347 6521.6758 8558265
2566.1812 685.4704 6262.8101 8558265
2592.7512 682.69714 6237.4722 8492472
2587.9973 671.86981 6138.5483 8426423
2586.4788 662.1709 6049.9341 7965614
2710.3555 684.401 6253.0396 7505064
2830.4109 705.07977 6441.9717 6846104
2900.4709 712.91974 6513.6016 5792899
2960.6892 718.1665 6561.5386 4278889
3044.2451 728.86493 6659.2847 2829899
3098.613 732.39062 6691.4976 1909054
3229.7612 753.74591 6886.6104 1514298
3255.3479 750.24023 6854.5811 1777725
3311.8003 753.8468 6887.5322 1909312
3496.7349 786.25537 7183.6333 1843777
3496.8904 776.83575 7097.5708 1843520
3878.7993 851.43903 7779.1855 1843522
3778.4414 819.67059 7488.9316 1778242
3917.6165 839.99908 7674.6636 1777985
4026.0154 853.33795 7796.5347 1712447
4121.5659 863.68182 7891.042 1778495
4206.8696 871.67065 7964.0317 1712446
4229.0562 866.54913 7917.2393 1843519
4321.6914 875.81696 8001.9146 1909312
4380.3281 878.06842 8022.4854 1843519
4427.9873 878.09473 8022.7251 1711933
4533.0674 889.38629 8125.8906 1711932
4612.5713 895.47528 8181.5234 1646139
4641.3506 891.6925 8146.9614 1646140
4670.1948 887.99994 8113.2241 1711675
4725.9326 889.44409 8126.4185 1711420
4745.3906 884.09985 8077.5908 1646140
4889.4189 901.83911 8239.666 1645881
4916.6255 897.89313 8203.6133 1645880
5023.8887 908.50146 8300.5371 1580341
5164.0811 924.80133 8449.4609 1777718
5257.9819 932.5777 8520.5098 2040889
5400.1323 948.68262 8667.6523 2566975
5449.9858 948.42236 8665.2744 3158851
5586.3877 963.08777 8799.2656 3619399
5610.4766 958.29846 8755.5078 4211791
5629.0078 952.65619 8703.957 4277070
5695.9937 955.24249 8727.5869 3750728
5728.6533 952.07739 8698.6689 3356228
5798.8892 955.15808 8726.8154 2764612
5918.0342 966.16913 8827.418 2238272
5906.8032 955.88861 8733.4902 1909566
5976.5566 958.77863 8759.8945 1910081
6006.7583 955.32831 8728.3711 2040899
6049.0273 953.83978 8714.7705 1975876
6041.8906 944.65186 8630.8252 1975620
6244.2583 968.09937 8845.0537 2041158
6299.9771 968.60962 8849.7158 1975365
6310.2368 962.17987 8790.9707 1975107
6370.6602 963.44171 8802.499 2040898
6441.0581 966.1792 8827.5098 1975361
6481.6211 964.43341 8811.5596 1975361
6582.4033 971.60413 8877.0752 1843519
6778.9751 992.68842 9069.7119 1843518
6753.4297 981.17072 8964.4805 1843773
7319.8564 1055.1663 9640.542 1843774
7391.4629 1057.2395 9659.4834 2040896
7424.8535 1053.8564 9628.5742 2041153
7356.4678 1036.1895 9467.1602 2040637
7633.749 1067.1101 9749.666 1909051
7558.2588 1048.6232 9580.7607 1908795
7670.6504 1056.2841 9650.7549 1514032
7740.7197 1058.0469 9666.8604 1118761
7783.3208 1056.0568 9648.6777 987174
7896.3345 1063.5797 9717.4111 987173
7965.7554 1065.1646 9731.8916 66063
8086.8359 1073.585 9808.8242 526876
8130.7363 1071.7119 9791.7119 526621
8192.0381 1072.1431 9795.6504 592411
8326.6357 1082.0931 9886.5596 461080
8609.3955 1111.0244 10150.891 526619
8408.2012 1077.5342 9844.9062 789795
8246.6455 1049.55 9589.2295 1711152
8223.9678 1039.5032 9497.4355 2697793
8269.2568 1038.1252 9484.8457 3620177
8361.3955 1042.6077 9525.8008 4936037
8533.0801 1056.8824 9656.2217 5988212
8600.3867 1058.1252 9667.5762 6580090
8695.2764 1062.7227 9709.5811 6711933
8807.8965 1069.4125 9770.7021 6777723
8936.3828 1077.9287 9848.5107 6646136
