# .PCD v0.7 - Point Cloud Data file format
VERSION 0.7
FIELDS x y z rgb
SIZE 4 4 4 4
TYPE F F F U
COUNT 1 1 1 1
WIDTH 1344
HEIGHT 1
VIEWPOINT 0 0 0 1 0 0 0
POINTS 1344
DATA ascii
3838.397 672.86652 9104.4082 1581116
3817.0771 659.85693 8928.3789 1646652
3821.7871 651.64136 8817.2148 1580861
3829.0852 644.08252 8714.9385 1580861
3956.3857 656.64172 8884.874 1580862
3950.8772 647.11816 8756.0127 1449532
4218.4443 681.98914 9227.8447 1646397
4073.4775 650.12744 8796.7314 1843775
4267.1953 672.44196 9098.6641 1975360
4356.2744 677.91608 9172.7334 2106688
4467.2998 686.62848 9290.6182 2304321
4577.4224 694.9917 9403.7793 2370114
4733.7988 710.09216 9608.1006 2567236
4768.7476 706.83539 9564.0342 2830406
4846.7607 709.96332 9606.3574 2961733
4940.7026 715.32489 9678.9033 3224648
5015.2715 717.79071 9712.2676 3487815
5037.0522 712.7312 9643.8086 3553607
5074.6704 710.00092 9606.8662 3685191
5037.9927 697.05182 9431.6543 3882567
5071.0947 693.93549 9389.4883 4080202
5221.9468 706.82501 9563.8936 4145995
5262.3511 704.6485 9534.4434 4145995
5274.6636 698.79657 9455.2617 4080202
5246.0132 687.69781 9305.0869 3948617
5055.2114 655.79456 8873.4111 3684935
5270.1919 676.64691 9155.5596 3422022
5263.5449 668.90918 9050.8623 3290694
5372.0488 675.81378 9144.2871 3158853
5037.3984 627.38745 8489.041 2895682
5090.917 627.78546 8494.4268 2829893
5261.4482 642.46381 8693.0361 2435650
5565.7808 673.03748 9106.7217 2304066
5693.2002 681.83636 9225.7773 2172482
5474.4663 649.4057 8786.9648 1909311
5717.7769 671.87946 9091.0527 1975105
5740.1494 668.21423 9041.46 1777727
5796.7134 668.56024 9046.1416 1909056
5830.2148 666.26447 9015.0781 1843522
5906.084 668.80804 9049.4941 1843779
6033.2607 677.06366 9161.1992 1909315
6088.8848 677.21399 9163.2334 1975108
6199.9155 683.46948 9247.875 1975108
6222.9717 680.00226 9200.9609 1975108
6241.1909 676.07123 9147.7705 1975108
6252.0435 671.41675 9084.792 1975362
6256.9546 666.20923 9014.3301 2041155
6161.3828 650.48132 8801.5195 1975362
6235.6045 652.79279 8832.7949 1975619
6260.7837 649.97443 8794.6602 1975619
6319.854 650.69189 8804.3682 2041411
6446.645 658.31305 8907.4893 2041412
6494.8394 657.84961 8901.2178 1975619
6555.7695 658.67322 8912.3623 2041411
6583.0771 656.13251 8877.9844 1975618
6524.6606 645.15576 8729.46 2040898
6549.4009 642.5094 8693.6533 2040897
6534.1504 636.0119 8605.7363 2040897
6415.8105 619.65814 8384.458 2040897
6413.5864 614.68451 8317.1602 1909567
6500.0449 618.22119 8365.0146 1975104
6612.355 624.14459 8445.1631 2040898
6695.2837 627.2265 8486.8633 1975105
6706.9067 623.63226 8438.2305 2040897
6846.8237 631.93213 8550.5342 1975104
6905.937 632.70703 8561.0195 2041152
6911.5288 628.60284 8505.4863 1975359
6895.8096 622.63385 8424.7217 1975104
6931.9253 621.39734 8407.9902 2040897
6875.4043 611.93347 8279.9365 2040898
6880.1455 608.01758 8226.9512 2106691
6913.3521 606.6546 8208.5098 1975364
6899.2485 601.18823 8134.5449 1975110
6896.1343 596.74854 8074.4731 1975366
6835.9038 587.46173 7948.8149 2106953
6887.7188 587.86487 7954.27 2106953
7081.1353 600.26617 8122.0693 2106953
7026.2344 591.59235 8004.7056 2106696
7494.0107 626.74792 8480.3877 2172489
7142.8579 593.40173 8029.188 2304074
7291.1831 601.71698 8141.6997 2501451
7564.5815 620.177 8391.4785 2435657
7593.1343 618.45355 8368.1582 2238277
7772.7432 628.97595 8510.5352 2172482
7931.5557 637.69073 8628.4531 2106432
8013.0884 640.12054 8661.3301 2106689
8140.8667 646.19012 8743.4561 2040896
8173.3608 644.66754 8722.8545 1975102
8182.0459 641.29797 8677.2617 2040638
8370.4707 651.97028 8821.666 1908795
8518.418 659.37695 8921.8838 1777210
0 0 0 0
0 0 0 0
0 0 0 0
-7735.9302 673.25067 8433.5762 5658188
-7851.8828 687.784 8615.6299 5987153
-7832.1328 690.54291 8650.1895 5920847
-8019.7051 711.73761 8915.6885 5262917
-7970.7642 712.08411 8920.0283 5065281
-7888.6943 709.45569 8887.1035 5197637
-7808.7012 706.98004 8856.0918 4605500
-7808.8945 711.77985 8916.2178 4737086
-7597.9829 697.27191 8734.4814 5723981
-7625.5176 704.59729 8826.2441 6052946
-7522.519 699.87939 8767.1445 6842722
-7405.1138 693.74615 8690.3154 7764077
-7312.6304 689.87811 8641.8623 7040099
-7300.5254 693.59204 8688.3857 6974308
-7218.8779 690.7049 8652.2188 6710879
-7178.5347 691.75665 8665.3936 6645343
-7072.5776 686.4552 8598.9844 6842721
-7130.6504 697.11279 8732.4883 6448219
-6961.0049 685.50116 8587.0332 6316118
-6882.5952 682.76923 8552.8115 6645085
-6805.9746 680.17566 8520.3232 6645085
-6888.7764 693.59473 8688.4189 6513499
-6711.1284 680.79517 8528.083 6250327
-6718.3135 686.69348 8601.9697 7039843
-6501.4614 669.60773 8387.9424 6711135
-6454.4756 669.88861 8391.4609 6645342
-6121.8623 640.29944 8020.8076 6711135
-5545.938 584.59985 7323.0776 6776929
0 0 0 0
-4827.2749 516.93274 6475.4355 4407612
-4809.5781 519.16339 6503.3779 4867652
-4768.1494 518.84766 6499.4233 1446935
-4780.7871 524.45801 6569.7021 460302
-4743.0083 524.58423 6571.2832 10
-4693.4341 523.39722 6556.4141 12
-4659.8066 523.98352 6563.7583 15
-4619.48 523.82007 6561.7114 18
-4482.8467 512.64062 6421.6699 21
-4084.178 471.04791 5900.6528 19
-4492.1528 522.5744 6546.1069 16
-4036.0327 473.60233 5932.6509 10
0 0 0 0
0 0 0 0
0 0 0 0
0 0 0 0
0 0 0 0
0 0 0 0
0 0 0 0
0 0 0 0
0 0 0 0
-1370.522 176.16237 2206.7244 18
-1358.9502 176.35721 2209.165 25
-1345.3932 176.2957 2208.3945 2960190
-1333.1279 176.40388 2209.75 5464431
-1306.677 174.61855 2187.3855 923179
-1292.8511 174.50148 2185.9192 24
-1287.7159 175.56693 2199.2656 13753309
-1281.5653 176.51431 2211.1331 12570582
-1272.2053 177.03464 2217.6511 6580107
-1249.8463 175.73808 2201.4097 6448271
-1256.4377 178.52777 2236.355 10792912
-1241.1328 178.23248 2232.656 6124693
-1215.8928 176.48874 2210.8127 538
-1211.2007 177.72205 2226.262 527649
-1198.0718 177.73096 2226.3735 394515
0 0 0 0
0 0 0 0
-4368.668 670.21613 8395.5635 6974566
-4338.5146 673.25513 8433.6318 6776931
-4246.7607 666.6944 8351.4482 6250587
-4244.5728 674.20557 8445.5381 6908260
-4097.4917 658.60675 8250.1367 7040103
-3908.2861 635.77856 7964.1763 7171689
-3920.1252 645.49713 8085.917 7369067
-3920.364 653.52234 8186.4458 7303274
-3875.5322 654.14111 8194.1973 6842722
-3795.3645 648.73578 8126.4863 6513758
-3756.522 650.34595 8146.6567 6579551
-3599.7129 631.30933 7908.1914 5592655
-3510.8008 623.83533 7814.5674 5526349
-3444.1941 620.17798 7768.7524 6579038
-3505.0493 639.68372 8013.0942 6250329
-3498.9114 647.33081 8108.8867 5921621
-3412.385 640.11115 8018.4487 6513758
-3341.7546 635.71161 7963.3369 6842722
-3404.3735 656.89734 8228.7236 5855828
-3297.8057 645.57874 8086.939 5921621
-3335.7356 662.63019 8300.5371 6711393
-3224.4604 650.10956 8143.6953 6711650
-3159.8235 646.75452 8101.6675 6711650
-3158.2891 656.41095 8222.6309 6382686
-3108.8574 656.25916 8220.7295 6316892
-3028.3079 649.42926 8135.1738 6185306
-2955.3794 644.03918 8067.6543 6185306
-2906.7183 643.84729 8065.2505 6316892
-2901.4602 653.42352 8185.2085 6711137
-2767.238 633.78827 7939.2441 6711137
-2804.0305 653.31921 8183.9019 6645344
-2765.8416 655.75989 8214.4756 6382173
-2714.1377 655.02643 8205.2871 6514015
-2607.9392 640.87463 8028.0127 6316893
-2666.3462 667.39856 8360.2686 6382429
-2640.6047 673.46515 8436.2627 6382430
-2514.0066 653.54694 8186.7544 6053465
-2495.937 661.6134 8287.7998 5198159
-2348.6248 635.05695 7955.1367 6448225
-2317.0913 639.35992 8009.0386 6053467
-2245.4453 632.54315 7923.647 5856090
-2212.7405 636.63928 7974.958 6777449
-2173.1702 638.89575 8003.2236 7501172
-2116.4482 636.09796 7968.1768 5922139
-2041.7596 627.64935 7862.3442 6382431
-2081.4622 654.79187 8202.3486 6382946
-2077.9958 669.32709 8384.4268 6646118
-1986.2205 655.43311 8210.3818 6975596
-1960.7617 663.27478 8308.6113 6909291
-1877.2031 651.3606 8159.3662 6843500
-1855.8811 660.98242 8279.8955 7106674
-1874.0294 685.56592 8587.8447 6053473
-1806.6163 679.34753 8509.9492 5658973
-1753.5942 678.33905 8497.3164 5198166
-1639.7871 653.06256 8180.6865 5922144
-1614.9688 662.76654 8302.2451 5724764
-1613.502 682.96454 8555.2578 6119785
-1562.0497 682.62842 8551.0479 7831693
-1475.6071 666.46631 8348.5908 7898775
-1440.0217 672.94971 8429.8057 8952238
-1383.4106 669.72028 8389.3516 8294312
-1317.8444 661.75323 8289.5518 6386059
-1279.9108 667.58221 8362.5693 8886450
-1200.9502 651.61993 8162.6157 8557744
-1174.1802 663.82434 8315.4951 7307936
-1138.078 671.59058 8412.7803 8690363
-1087.1085 670.89307 8404.043 8624571
-1055.9833 682.96283 8555.2373 8493498
-988.94989 671.85516 8416.0947 8690362
-915.92859 655.28406 8208.5146 7571112
-864.39124 653.08673 8180.9893 7307426
-813.2099 650.91333 8153.7642 8887229
-807.53125 687.18701 8608.1514 8756926
-763.57324 693.58038 8688.2393 8822208
-715.146 696.54504 8725.377 8822207
-668.25671 701.58636 8788.5273 8756671
-617.61316 703.20508 8808.8047 8756415
-578.23853 719.13727 9008.3818 8953793
-542.43768 743.20605 9309.8828 8822464
0 0 0 0
0 0 0 0
0 0 0 0
0 0 0 0
0 0 0 0
0 0 0 0
0 0 0 0
0 0 0 0
0 0 0 0
0 0 0 0
0 0 0 0
0 0 0 0
0 0 0 0
0 0 0 0
0 0 0 0
0 0 0 0
0 0 0 0
0 0 0 0
0 0 0 0
0 0 0 0
0 0 0 0
0 0 0 0
0 0 0 0
0 0 0 0
0 0 0 0
0 0 0 0
0 0 0 0
0 0 0 0
0 0 0 0
0 0 0 0
0 0 0 0
0 0 0 0
0 0 0 0
0 0 0 0
1287.9645 689.66821 8639.2324 8295350
1545.0514 795.71118 9967.5957 8294836
1653.1881 820.06036 10272.609 8031663
1771.4438 847.52173 10616.609 7834284
1837.167 848.82843 10632.978 7636903
1925.6764 860.22736 10775.768 7570596
1945.7191 841.29114 10538.56 7175581
1987.235 832.5282 10428.79 6912152
2002.0608 813.4494 10189.797 6385806
2050.0757 808.57776 10128.771 6450572
2145.4585 822.13434 10298.59 6187656
2122.9392 791.01074 9908.7158 5661054
2165.0813 785.00671 9833.5049 5200761
2235.3652 789.25354 9886.7031 4608367
2334.04 803.05164 10059.547 4411245
2333.4058 782.84503 9806.4258 3884902
2328.8777 762.34558 9549.6367 3424095
2331.1567 744.99384 9332.2773 2831958
2405.1299 750.82739 9405.3525 2239307
2491.1709 760.0788 9521.2412 1778753
2569.9958 766.76758 9605.0293 1514809
2654.2258 774.7442 9704.9502 1844031
2594.3635 741.21515 9284.9434 1382711
2612.7839 730.97955 9156.7256 1317946
2612.8823 716.13861 8970.8184 1318203
2841.0334 763.14819 9559.6904 1580605
2804.2197 738.53717 9251.3975 1843778
2747.502 709.72833 8890.5186 1843779
2774.5544 703.23541 8809.1846 1975365
2842.6179 707.18506 8858.6602 1909572
2850.386 696.26312 8721.8447 1909572
2968.3716 712.17352 8921.1494 1909571
2966.478 699.26898 8759.498 1843779
3022.8662 700.3103 8772.543 1843779
3075.741 700.51624 8775.1221 1844289
3137.5195 702.70947 8802.5967 1844288
3197.7847 704.49774 8824.9971 1844288
3324.7991 720.69714 9027.9219 1844289
3337.939 712.09052 8920.1094 1844289
3407.0925 715.5155 8963.0127 1844033
3437.7815 710.88147 8904.9639 1843778
3509.2805 714.69891 8952.7832 1843778
3485.2583 699.2384 8759.1152 1712448
3564.5315 704.65149 8826.9229 1712448
3627.7668 706.78345 8853.6289 1712448
3648.3362 700.66052 8776.9297 1778240
3705.0703 701.55762 8788.167 1778239
3756.9136 701.5166 8787.6533 1778239
3759.1638 692.3429 8672.7373 1712447
3805.9795 691.51367 8662.3506 1646655
3840.4263 688.48926 8624.4639 1712190
3829.3694 677.49359 8486.7256 1646653
3933.1394 686.83484 8603.7402 1580861
3987.666 687.44794 8611.4199 1580860
4006.3484 681.94415 8542.4766 1646143
4068.3054 683.85199 8566.375 1580860
4106.0977 681.70081 8539.4277 1646653
4076.72 668.58618 8375.1455 1515068
4233.0205 685.87207 8591.6797 1580860
4129.9907 661.22754 8282.9658 1580861
4305.3057 681.20239 8533.1846 1580861
4353.4819 680.83087 8528.5303 1449274
4372.3535 675.93744 8467.2324 1449531
4336.0425 662.72089 8301.6729 1646139
4369.5317 660.34955 8271.9678 1646139
4412.5547 659.45551 8260.7686 1712187
4308.0264 636.77136 7976.6128 1712185
4344.0186 635.12476 7955.9854 1645880
4344.1514 628.32672 7870.8296 1711671
4353.7046 623.02118 7804.3687 1711413
4404.9414 623.72943 7813.2407 1711669
4327.8403 606.43958 7596.6567 1909046
4578.5122 634.96222 7953.9502 1843509
4493.4746 616.82074 7726.6982 1843507
4425.7461 601.39728 7533.4937 1909299
4448.6113 598.4693 7496.8154 1909042
4465.9951 594.8689 7451.7153 1777712
4505.8799 594.30695 7444.6758 1974834
4591.2905 599.70233 7512.2617 2040882
4699.1265 607.89508 7614.8896 2303541
4733.665 606.54034 7597.9189 2500919
4856.041 616.3598 7720.9243 2566964
4873.0425 612.74615 7675.6567 2698292
4890.5029 609.25641 7631.9424 2961465
4984.77 615.31158 7707.7935 3093051
4988.3174 610.1601 7643.2622 3422015
5006.1431 606.83209 7601.5737 3553345
4994.3892 600.00983 7516.1133 3619396
5080.9136 605.01074 7578.7578 3684933
5076.0205 599.13373 7505.1392 3684932
5093.9937 596.0343 7466.3135 3553346
5138.937 596.11682 7467.3472 3487809
5128.2271 589.79718 7388.1831 3487811
5199.0952 592.88745 7426.894 3290690
5215.228 589.73639 7387.4219 3159363
5362.1885 601.30865 7532.3833 3224901
5540.478 616.17407 7718.5972 2961987
5608.4526 618.62805 7749.3374 2764610
5582.7266 610.79071 7651.1616 2764612
5769.6924 626.16217 7843.7148 2501441
6251.8345 673.06647 8431.2686 2435394
6140.6021 655.85138 8215.6211 2172222
6201.2676 657.12238 8231.542 1974844
6341.46 666.73486 8351.9551 1843773
6418.1865 669.57745 8387.5635 1843774
6385.5103 661.05066 8280.751 1975359
6411.8013 658.71185 8251.4531 1908797
6189.4199 631.05444 7904.999 1909566
6470.6152 654.77014 8202.0771 1909565
6552.2959 658.09357 8243.708 2041151
6615.3081 659.50659 8261.4092 2041151
6602.7725 653.42267 8185.1973 2041153
6596.2559 648.01874 8117.5039 1975104
6641.6611 647.75696 8114.2246 2040641
6610.0435 640.04077 8017.5674 2040898
6646.7725 639.00549 8004.5986 2040899
6701.9727 639.74805 8013.9009 2041157
6754.7271 640.24841 8020.168 2040901
6757.7397 636.05981 7967.6992 1975109
6820.9106 637.55237 7986.396 2040903
6912.3315 641.64679 8037.6851 1909573
6954.0762 641.10535 8030.9033 1975110
6969.6714 638.17706 7994.2207 1974854
6976.6694 634.50623 7948.2378 1974853
6973.4321 629.96002 7891.2896 1974853
7025.6719 630.45276 7897.4609 1974853
7117.4692 634.46503 7947.7222 1909060
7134.1509 631.77277 7913.9971 1909316
7158.7617 629.81317 7889.4497 1843523
7152.748 625.20221 7831.6895 1843523
7347.7739 638.1098 7993.3784 1843523
7265.208 626.89923 7852.9478 1909060
7487.5156 641.97076 8041.7437 1909313
7532.9736 641.78479 8039.4141 1975363
7267.1025 615.24353 7706.9409 1909569
7539.9849 634.36066 7946.4141 1909312
7630.0747 637.95703 7991.4648 1909312
0 0 0 0
0 0 0 0
0 0 0 0
-7206.2695 673.69647 7856.1499 6118739
-7197.7314 677.2724 7897.8496 6316118
-7441.145 704.75769 8218.3633 7105634
-7567.061 721.4035 8412.4736 7631979
-7495.5205 719.32074 8388.1865 5658189
-7605.3315 734.73004 8567.8779 5921618
-7467.0947 726.22211 8468.665 7171685
-7339.3877 718.63019 8380.1338 6908257
-7319.3135 721.54541 8414.1289 5197896
-7232.8862 717.91461 8371.7891 6118999
-7119.0078 711.49011 8296.8711 5921362
-7074.6875 711.97638 8302.542 5395018
-6950.3721 704.36261 8213.7559 5921362
-6914.8237 705.70074 8229.3604 6184791
-6714.2646 690.09796 8047.4121 6579549
-6816.6636 705.633 8228.5703 6250584
-6806.8745 709.69489 8275.9365 6250585
-6812.2646 715.40985 8342.5801 7171687
-6574.2642 695.46118 8109.9536 7369065
-6515.8765 694.35901 8097.1006 7171686
-6490.9644 696.83423 8125.9653 5921875
-6411.4126 693.43677 8086.3472 6315865
-6261.5947 682.33136 7956.8438 5986901
-6216.71 682.5788 7959.729 6250073
-5952.2695 658.53906 7679.3955 6447451
-5881.4287 655.7132 7646.4424 6381913
-5432.6245 610.37781 7117.7744 7104866
-5295.8511 599.66528 6992.8525 4407352
-4828.3901 551.04382 6425.8657 4341049
-4788.7178 550.85931 6423.7139 4867906
-4759.0581 551.83289 6435.0669 2171166
-4706.6279 550.16046 6415.564 131591
-4742.416 558.85663 6516.9731 11
-4650.2163 552.48944 6442.7231 18
-4599.7026 551.01056 6425.4775 20
-4543.376 548.80481 6399.7559 23
-4429.498 539.5517 6291.8525 23
-4450.6265 546.72607 6375.5146 25
-4493.4082 556.70593 6491.8926 23
-4345.2456 542.99701 6332.0293 23
-4417.7485 556.86462 6493.7432 18
-4446.4785 565.40973 6593.3901 328719
0 0 0 0
0 0 0 0
0 0 0 0
0 0 0 0
0 0 0 0
0 0 0 0
0 0 0 0
0 0 0 0
0 0 0 0
-1358.5414 189.3878 2208.5005 22
-1338.8865 188.46283 2197.7141 8686249
-1339.1174 190.34631 2219.678 11653073
0 0 0 0
-1282.287 185.91966 2168.0576 393237
-1279.708 187.42307 2185.5891 13293017
-1285.7397 190.2312 2218.3354 11850459
-1281.3566 191.54048 2233.6033 29
-1263.6727 190.8681 2225.7627 3883111
-1243.0919 189.73941 2212.6006 12308947
-1242.5593 191.67931 2235.2222 8429001
-1203.3474 187.62997 2188.002 133157
-1205.1001 189.94936 2215.0488 1053484
-1197.0699 190.76083 2224.5117 724251
-1201.7701 193.64163 2258.1055 4211015
0 0 0 0
-4022.9988 662.9873 7731.2676 6513761
-3988.0576 664.79779 7752.3799 5987415
-3938.97 664.26471 7746.1636 6447966
-3943.155 672.80884 7845.7993 6316380
-3820.2278 659.60931 7691.876 7105896
-3762.2598 657.44263 7666.6094 7632239
-3599.3818 636.66608 7424.3291 6974567
-3558.8757 637.28876 7431.5903 7303531
-3457.2144 626.83887 7309.731 6711393
-3590.6592 659.29236 7688.1797 6645344
-3509.1003 652.59503 7610.0806 6776929
-3415.8174 643.51471 7504.1924 6711136
-3355.9451 640.5722 7469.8789 6382170
-3291.2175 636.61194 7423.6973 6645343
-3293.8198 645.74414 7530.1904 5987414
-3228.4553 641.61951 7482.0923 6382170
-3175.5859 639.89795 7462.0166 5789777
-3209.0837 655.77686 7647.1846 5329480
-3205.1587 664.35364 7747.2002 6118739
-3050.5723 641.49744 7480.6685 6382168
-2911.9246 621.36847 7245.9395 6250322
-2983.0659 646.07336 7534.0298 5657928
-2980.7512 655.37799 7642.5332 5460550
-2860.1528 638.5614 7446.4307 5526088
-2871.218 651.07385 7592.3418 6381399
-2831.5149 652.28912 7606.5137 6250069
-2753.155 644.49451 7515.6187 6381912
-2680.3657 637.76917 7437.1919 5527116
-2618.0654 633.35632 7385.7334 6447962
-2593.2329 638.01184 7440.022 6250586
-2527.1052 632.49268 7375.6621 6250586
-2496.8743 635.92188 7415.6504 6250586
-2506.3857 649.77698 7577.2188 5527632
-2439.095 643.86353 7508.2598 6448734
-2446.0449 657.69214 7669.519 6843236
-2325.157 637.02069 7428.4639 6777444
-2323.6404 648.88654 7566.835 6842981
-2274.0459 647.52917 7551.0063 6514274
-2231.4429 648.14813 7558.2236 7040363
-2243.4441 664.9776 7754.4771 6711397
-2137.0581 646.6861 7541.1748 6251360
-2071.178 640.13245 7464.751 6514277
-2008.2806 634.23486 7395.978 6514277
-2026.0387 654.11407 7627.7949 7172461
-1963.4071 648.35419 7560.6265 6909544
-1923.9762 650.16547 7581.7485 6974565
-1826.8464 632.09918 7371.0728 6251099
-1833.5128 649.94165 7579.1387 6250585
-1771.3593 643.67224 7506.0293 5263690
-1756.0782 654.55103 7632.8901 6448478
-1693.34 647.84839 7554.7285 6513759
-1661.8691 653.06909 7615.6089 6514786
-1616.9086 653.13208 7616.3428 6580837
-1596.6493 663.46301 7736.8149 6711656
-1517.4667 649.19623 7570.4458 6119776
-1485.5879 654.91406 7637.123 6119775
-1435.9957 652.93701 7614.0684 6120032
-1429.9487 671.2735 7827.895 6974827
-1449.1624 703.09497 8198.9736 6579811
-1369.0819 687.27808 8014.5283 5987674
-1308.7982 680.61963 7936.8828 7106670
-1255.8932 677.44513 7899.8638 7040877
-1198.7312 671.63965 7832.165 7172464
-1148.5032 669.40826 7806.144 7238258
-1096.6732 666.01672 7766.5942 6580586
-1061.6249 672.96594 7847.6313 7370366
-1009.1561 669.00317 7801.4204 7172990
-966.62927 671.56726 7831.3203 5988974
-913.83881 666.89966 7776.8901 6120301
-864.1814 664.14417 7744.7583 5856869
-786.15692 638.05664 7440.5444 5725795
-745.71051 641.18036 7476.9712 8094868
-702.62689 642.28802 7489.8877 9016746
-657.90674 641.94812 7485.9238 9083569
-613.44458 641.82898 7484.5352 8820398
-571.78088 644.84741 7519.7334 8162467
-526.83276 644.3587 7514.0347 7372952
-482.6022 644.73853 7518.4634 8887221
-443.27365 652.41028 7607.9263 8756410
-404.26569 662.34406 7723.7661 8624573
-358.33917 662.03149 7720.1216 8689852
-313.5112 663.95392 7742.5396 8624316
-271.72849 674.0899 7860.7378 8689852
-226.83037 679.09161 7919.064 8492729
-178.41756 673.43561 7853.1074 8755901
0 0 0 0
-78.183296 616.74091 7191.9766 8821694
-37.348103 647.45471 7550.1377 8953024
0 0 0 0
0 0 0 0
0 0 0 0
0 0 0 0
0 0 0 0
0 0 0 0
0 0 0 0
322.25311 651.03339 7591.8701 8888256
381.65952 676.61609 7890.1963 8822206
429.25174 677.95691 7905.832 8690621
463.0733 659.42419 7689.7173 8755900
500.89899 649.40247 7572.8516 8558264
554.60394 659.92328 7695.5366 8624057
575.99426 633.31512 7385.2529 8558264
614.45966 627.91284 7322.2554 8492729
638.67328 609.61969 7108.9336 8427193
723.71515 648.05908 7557.1855 8426938
769.77283 649.14453 7569.8438 8492472
808.94293 644.62201 7517.105 8558267
847.14429 639.83978 7461.3384 8558266
0 0 0 0
0 0 0 0
0 0 0 0
0 0 0 0
0 0 0 0
0 0 0 0
0 0 0 0
1256.0952 669.32275 7805.147 8755388
1270.3712 652.89545 7613.584 8624057
1420.1775 704.86084 8219.5654 8624057
1386.4337 665.30151 7758.2544 8624058
1458.9176 677.6203 7901.9067 8624057
1603.4636 721.60303 8414.8008 8624058
1660.3235 724.66193 8450.4717 8558522
1592.5416 674.73328 7868.2402 8558521
1529.121 629.43951 7340.0576 8558521
1767.3195 707.37439 8248.877 8492728
1812.2738 705.84998 8231.1006 8492727
1774.8202 673.15002 7849.7778 8558263
1842.8037 681.08875 7942.3535 8558264
1891.1171 681.54327 7947.6533 8558007
1814.579 638.0733 7440.7388 8491701
1805.5931 619.85565 7228.2979 8491445
1879.3877 630.24213 7349.4175 8360115
1907.9972 625.34875 7292.355 8425908
1995.4515 639.53156 7457.7441 8426165
1995.4469 625.67694 7296.1816 8162736
2119.0354 650.341 7583.7959 7833770
2157.3381 648.34991 7560.5771 7438498
2209.2842 650.4566 7585.1436 6517137
2310.5857 666.72089 7774.8057 6253194
2351.5356 665.27533 7757.9487 6450572
2348.4717 651.67181 7599.3145 6647693
2438.3296 663.8797 7741.6743 6516363
2495.3176 666.85266 7776.3423 5923453
2552.9841 669.89581 7811.8296 4607847
2666.2974 687.17224 8013.2944 3883611
2613.6697 661.8252 7717.7158 2830924
2591.3962 644.90375 7520.3901 2107203
2622.2278 641.54675 7481.2441 922928
2639.0918 634.9411 7404.2129 921642
2982.1995 705.75916 8230.041 1052969
3069.4045 714.71191 8334.4414 1119021
3172.5227 727.02789 8478.0615 1184820
3202.5916 722.48059 8425.0342 1251126
3113.4727 691.5976 8064.8994 1317177
3198.6179 699.77246 8160.229 1580349
3296.4087 710.42932 8284.501 1646912
3276.7917 695.84137 8114.3872 1843777
3400.6565 711.70374 8299.3623 1844290
3418.895 705.323 8224.9551 1909569
3480.4163 707.92548 8255.3037 1778240
3507.0686 703.46167 8203.25 1778240
3536.5264 699.67505 8159.0928 1778240
3565.7639 695.94739 8115.6235 1778239
3609.1208 695.03802 8105.0195 1712446
3708.2703 704.75598 8218.3428 1712446
3741.7705 701.9071 8185.1211 1712446
3781.5205 700.28845 8166.2456 1778239
3816.6492 697.86572 8137.9937 1843778
3854.1917 695.93927 8115.5288 1778239
3967.0974 707.50079 8250.3506 1712446
4021.063 708.39728 8260.8047 1778239
4076.0464 709.44934 8273.0732 1712447
4132.9932 710.81403 8288.9873 1712447
4198.8057 713.65363 8322.1006 1646653
4120.8301 692.27179 8072.7617 1646654
4144.5464 688.26825 8026.0747 1646653
4226.8638 693.97668 8092.6426 1711933
4318.9106 701.1366 8176.1362 1777980
4317.1338 693.07526 8082.1309 1712187
4402.2046 698.98022 8150.9907 1646649
4557.9497 715.85712 8347.7959 1580344
4503.0312 699.64062 8158.6914 1580344
4576.0654 703.43756 8202.9688 1580345
4648.002 706.98779 8244.3682 1580346
4627.5488 696.55731 8122.7358 1514297
4640.5249 691.32159 8061.6807 1580347
4438.9492 654.55524 7632.9395 1514553
4730.5371 690.51776 8052.3076 1448761
4735.0962 684.28284 7979.6006 1448760
4798.1816 686.54535 8005.9839 1448760
4918.2593 696.8385 8126.0151 1514041
4968.3081 697.10632 8129.1377 1448249
4906.832 681.87097 7951.4746 1514041
4921.4341 677.39709 7899.3037 1514042
5059.1675 689.79578 8043.8882 1514553
4988.6382 673.8324 7857.7344 1580088
5027.4419 672.79565 7845.645 1580344
4757.5796 630.84906 7356.4951 1448758
4813.2974 632.44373 7375.0908 1448758
4850.0771 631.5437 7364.5957 1448501
4883.2754 630.19751 7348.8975 1382709
4999.5801 639.50543 7457.4395 1514550
5216.5439 661.41296 7712.9087 1580344
4906.8184 616.7403 7191.9692 1448502
4868.5933 606.66791 7074.5127 1448759
4882.0254 603.14948 7033.4834 1449014
4836.9072 592.51831 6909.5103 1580343
4888.1875 593.77509 6924.166 1645879
4843.4189 583.44092 6803.6562 1580085
4974.0269 594.22894 6929.458 1646133
4917.752 582.69684 6794.9795 1711668
5022.5244 590.27936 6883.4009 1777460
5282.6738 615.85358 7181.6289 1843510
5087.8149 588.39807 6861.4634 2039860
5089.8633 583.96936 6809.8188 2040118
5216.167 593.75427 6923.9233 2040117
5251.2007 593.07831 6916.0405 2237752
5406.5332 605.89429 7065.4912 2500925
5483.0381 609.74731 7110.4219 2632252
5604.8799 618.54486 7213.0127 2829631
5673.1187 621.3385 7245.5898 2830401
5593.0469 607.96869 7089.6812 2962243
5812.1118 627.0722 7312.4526 3027780
5845.4961 626.00812 7300.0435 3093573
5909.1963 628.18243 7325.3989 3028036
6073.1958 640.90967 7473.8145 3028293
6100.6577 639.14801 7453.2715 3093828
5969.5786 620.92126 7240.7241 3094085
6012.8188 620.95685 7241.1392 3094085
5972.8433 612.45886 7142.0425 3093830
6020.9473 613.04877 7148.9209 3159367
6039.8174 610.6745 7121.2344 2830660
6091.1709 611.59479 7131.9663 2830407
6119.062 610.1629 7115.2686 2633285
6127.6978 606.84363 7076.5615 2369860
6158.1782 605.71814 7063.437 2172482
6551.1284 640.01965 7463.436 2040899
6588.2085 639.32727 7455.3618 1909314
6595.1514 635.73907 7413.519 1843522
6824.7129 653.51562 7620.8159 1909060
6904.1968 656.78204 7658.9062 1909061
6840.2295 646.44861 7538.4053 1909060
6651.5063 624.5354 7282.8701 1712451
6515.0967 607.78497 7087.5391 1777988
7014.8657 650.21735 7582.3535 1909574
7087.5522 652.77466 7612.1753 1909573
7137.0176 653.17456 7616.8384 1843779
7146.0557 649.8927 7578.5679 1843779
7208.2202 651.45331 7596.7661 1909571
7240.1226 650.27649 7583.0435 1909828
0 0 0 0
0 0 0 0
0 0 0 0
0 0 0 0
-6809.2339 684.9798 7471.563 6776672
-6842.1797 692.79761 7556.8369 6974048
-6851.7075 698.33148 7617.1992 7105635
-6913.1128 709.26129 7736.418 7829356
-7040.0039 727.10028 7931.001 6908768
-6975.5508 725.28406 7911.1899 7171941
-6961.3442 728.70294 7948.4824 7171941
-6888.312 725.96875 7918.6582 6908515
-6784.8037 719.96307 7853.1504 7698030
-6735.1753 719.63141 7849.5322 7632239
-6669.7422 717.5946 7827.3159 7434859
-6524.3125 706.86237 7710.251 7500651
-6445.293 703.22443 7670.5698 7105893
-6479.1299 711.93573 7765.5903 6382170
-6504.688 719.85541 7851.9761 6842721
-6680.8364 744.67474 8122.6978 6908258
-6573.0518 737.97607 8049.6304 7829616
-6474.5928 732.23407 7986.999 6776928
-6248.856 711.90747 7765.2817 6447963
-6254.9194 717.88324 7830.4639 6382170
-6123.6396 708.06744 7723.396 7236967
-5873.6782 684.27759 7463.9033 7171175
-5784.9648 679.05463 7406.9326 7500397
-5577.0308 659.65039 7195.2764 7040100
-5508.7012 656.58679 7161.8599 6777185
-5074.8687 609.57294 6649.0464 5131844
-4740.2266 573.83105 6259.1841 3683886
-4835.5942 589.99109 6435.4531 4406844
-4765.5225 586.06226 6392.5986 2169383
-4773.731 591.7746 6454.9067 36
-4702.0215 587.59204 6409.2852 4144465
-4723.0249 595.02167 6490.3257 460580
-4681.208 594.59412 6485.6616 30
-4621.3599 591.85016 6455.7314 32
-4570.9688 590.28174 6438.623 29
-4487.3555 584.36047 6374.0361 28
-4416.833 580.05792 6327.105 28
-3984.4482 527.75208 5756.5679 29
-4276.146 571.27789 6231.335 30
-4105.7593 553.29144 6035.144 26
-4602.4229 625.6701 6824.6299 262935
-3681.5686 504.92145 5507.5376 3816005
0 0 0 0
0 0 0 0
0 0 0 0
0 0 0 0
0 0 0 0
0 0 0 0
0 0 0 0
0 0 0 0
-1363.0699 203.14636 2215.8623 23
-1341.6799 201.90297 2202.2996 8290463
-1342.1271 203.95355 2224.6667 12504789
-1317.4526 202.18942 2205.4241 11060180
-1294.1118 200.59666 2188.0508 10205653
-1295.363 202.8222 2212.3262 1975877
-1275.7454 201.79225 2201.0918 262944
-1265.2488 202.19865 2205.5249 12243678
-1257.4208 203.04449 2214.751 11981267
-1245.3296 203.21248 2216.5833 12046805
-1228.3429 202.57669 2209.6484 9681355
-1201.615 200.30339 2184.8518 67357
-1206.8186 203.36137 2218.2075 791333
-1200.7584 204.56775 2231.3662 1119267
0 0 0 0
0 0 0 0
0 0 0 0
-3385.0933 603.26837 6580.2778 5855314
-3625.0876 653.56506 7128.8999 5262918
-3563.9216 650.11145 7091.2285 5131332
-3547.3325 654.80389 7142.4126 5986641
-3489.6355 651.92993 7111.0645 6381656
-3420.3027 646.7854 7054.9492 6052947
-3330.5715 637.6084 6954.8491 6249298
-3333.8457 646.22968 7048.8877 4933438
-3283.5242 644.54895 7030.5547 6052686
-3359.8545 668.00592 7286.416 5723465
-3264.3774 657.47009 7171.4951 5262914
-3213.5688 655.77161 7152.9683 6183760
-3237.0054 669.38098 7301.4155 5723210
-3100.1555 649.76447 7087.4438 6644313
-3031.5032 644.09906 7025.647 6446934
-3028.5278 652.42444 7116.458 5723211
-2972.0063 649.2868 7082.2339 6052176
-2988.6851 662.28015 7223.9614 5986383
-2876.6401 646.7121 7054.1494 5065281
-2779.5535 634.09735 6916.5518 6315092
-2716.1238 628.89819 6859.8403 6709850
-2752.4053 646.97913 7057.0625 6183762
-2731.6084 651.99408 7111.7642 5591625
-2662.2749 645.39972 7039.8345 5723724
-2575.9612 634.41351 6920 5658188
-2542.2517 636.23706 6939.8906 6052946
-2498.9246 635.67389 6933.748 5723980
-2500.6426 646.742 7054.4756 5855568
-2456.3044 646.07233 7047.1714 6052948
-2410.2275 644.91437 7034.5405 5855311
-2381.3354 648.39478 7072.5034 5855568
-2358.3818 653.64569 7129.7788 5987412
-2358.6267 665.63501 7260.5552 5724242
-2288.1604 657.74341 7174.4761 6053462
-2219.0662 649.95496 7089.522 6579549
-2180.2517 650.90601 7099.8955 6711136
-2131.7688 648.95117 7078.5728 5987669
-2121.6907 658.84369 7186.4775 5724240
-2082.6724 659.97058 7198.769 6382170
-2007.3696 649.40607 7083.5342 5921105
-1985.8225 656.15228 7157.1206 5987152
-1935.1125 653.3468 7126.519 5657929
-1880.3622 649.02148 7079.3398 6578772
-1850.4379 653.26331 7125.6084 5065535
-1750.027 632.23822 6896.2725 7236962
-1744.6909 645.37701 7039.5869 5855566
-1713.6304 649.41058 7083.584 5790033
-1693.8551 658.03076 7177.6104 5855826
-1637.4021 652.47937 7117.0576 6316377
-1635.5441 668.96484 7296.876 5263947
-1562.9396 656.62329 7162.2578 5132618
-1512.5186 653.17279 7124.6211 5987672
-1484.3621 659.41504 7192.7095 5790036
-1465.1328 670.10925 7309.3589 6250844
-1383.6499 652.11469 7113.0796 4934984
-1354.1498 658.25879 7180.0977 6119000
-1309.4846 657.19049 7168.4448 6382172
-1276.178 661.94208 7220.2739 6119000
-1241.3597 666.21204 7266.8496 5987415
-1181.4341 656.83014 7164.5146 5987158
-1127.0742 649.95868 7089.562 6185052
-1086.6019 650.8739 7099.5454 5527123
-1044.2615 650.69867 7097.6343 5790296
-1049.3193 681.28271 7431.2358 6645605
-1013.608 686.91632 7492.686 6185055
-957.04022 678.28442 7398.5317 6316640
-888.40131 659.85809 7197.5425 6119262
-844.43854 658.82605 7186.2847 6316641
-831.26001 682.97711 7449.7178 7304052
-764.84827 663.64685 7238.8691 6711917
-720.29956 662.11731 7222.1851 7040883
-675.24182 659.89703 7197.9673 6448746
-630.802 658.02203 7177.5151 6646123
-576.16364 644.46844 7029.6763 6185827
-533.40033 643.12054 7014.9736 5264724
-489.98492 640.6922 6988.4863 6580328
-447.93787 639.77008 6978.4277 5922398
-419.92026 660.73529 7207.1108 5330264
-374.14755 655.34723 7148.3394 5132629
-336.57391 664.77795 7251.2065 6251110
-292.96652 663.30719 7235.1641 6053987
-240.56679 638.01392 6959.272 5659229
-200.85161 642.85687 7012.0977 4672336
-157.70917 636.39569 6941.6211 4014407
-115.57381 630.87366 6881.3882 6777715
-74.267006 626.32043 6831.7231 6449011
-33.386681 618.7652 6749.313 7633284
6.6824837 626.70935 6835.9653 7304319
47.299149 628.28815 6853.1865 6711926
89.784706 641.76709 7000.2109 6843511
130.28082 637.00128 6948.2266 6711925
171.49072 637.17596 6950.1323 7172991
212.45695 636.55304 6943.3379 6646906
254.68535 639.30042 6973.3052 7437451
294.50717 636.08313 6938.2114 7832216
332.05969 629.35284 6864.7998 8425384
392.79398 663.23376 7234.3633 8294571
439.90369 669.70654 7304.9663 8294318
456.6293 632.90631 6903.5596 8360110
499.31952 635.18579 6928.4243 7570594
535.68799 629.68805 6868.4561 7965865
574.50128 627.63745 6846.0889 7900332
608.39618 620.83832 6771.9258 8229556
682.03577 652.92889 7121.9604 8558265
727.2735 655.67468 7151.9106 8492987
775.66003 660.80072 7207.8237 8624572
819.07721 661.37921 7214.1343 8625085
850.11194 652.39764 7116.166 8559037
882.78729 645.46442 7040.54 8690366
938.89764 655.51862 7150.2085 8690109
980.36505 654.92267 7143.708 8690365
1047.0778 670.54303 7314.0908 8624574
1077.1648 662.39911 7225.2593 8689854
1137.7512 672.91632 7339.978 8689853
1164.4799 663.37152 7235.8657 8755644
1208.0155 663.73895 7239.874 8755644
1238.4272 657.11755 7167.6494 8755644
1270.0323 651.54742 7106.8921 8821437
1324.7667 657.81958 7175.3071 8755644
1361.4796 655.03149 7144.895 8689851
1386.3597 646.89008 7056.0913 8755644
1439.481 652.01721 7112.0166 8690620
1519.6106 668.7384 7294.4062 8690619
1570.152 671.87396 7328.6079 8690619
1591.424 662.65326 7228.0312 8625083
1606.442 651.37994 7105.0649 8755642
1636.3306 646.55804 7052.4688 8690106
1673.1455 644.6449 7031.6011 8689850
1748.043 657.14099 7167.9053 8689850
1780.0856 653.3161 7126.1846 8624058
1829.8016 656.00458 7155.5093 8623802
1851.8539 648.87805 7077.7754 8623546
1878.5381 643.65417 7020.7944 8623546
1792.926 601.01337 6555.6807 8623546
1824.2615 598.55194 6528.8325 8689339
1852.1501 595.08527 6491.019 8689593
2081.0769 655.03833 7144.9697 8558264
1931.5256 595.84631 6499.3203 8558263
1985.5814 600.55023 6550.6294 8492471
2025.7997 600.96875 6555.1943 8426936
2250.5266 655.07788 7145.4014 8427195
2097.9985 599.40594 6538.1479 8426939
2134.5369 598.79016 6531.4307 8361146
2170.6431 598.07721 6523.6543 8361146
2211.3264 598.6283 6529.6655 8295609
2269.0623 603.69745 6584.958 8492728
2221.8484 581.14459 6338.958 8492728
2290.0601 589.03021 6424.9722 8558006
2356.7292 596.26776 6503.9175 8755386
2432.5115 605.54108 6605.0679 8557751
2510.8721 615.1524 6709.9053 7504290
2594.4556 625.72375 6825.2148 7701669
2620.3152 622.2627 6787.4624 7504289
2627.4619 614.52954 6703.1113 6714515
2679.5181 617.37396 6734.1377 6318987
2741.3013 622.3432 6788.3408 5792385
2797.3748 625.89124 6827.042 5266042
2801.0093 617.77264 6738.4863 4804718
2862.136 622.38397 6788.7856 4081248
2899.8887 621.85535 6783.019 3948890
2902.1504 613.83429 6695.5283 2896204
2938.5698 613.15698 6688.1396 2830412
3006.3826 618.96094 6751.4478 2304839
3049.6985 619.63525 6758.8027 1843518
3091.6965 620.02777 6763.0845 1711675
3152.5759 624.14832 6808.0308 1382969
3104.3967 606.84619 6619.3037 1514554
3144.5449 607.02649 6621.2705 1711932
3157.9014 602.09418 6567.4702 1777725
3533.0122 665.41553 7258.1611 1712189
3852.9294 716.94379 7820.2168 1777981
3909.0173 718.73822 7839.7896 1777725
3943.2139 716.51257 7815.5132 1712446
3951.8706 709.75177 7741.7681 1580603
3927.2344 697.23523 7605.2417 1646396
3963.0234 695.60876 7587.5005 1580860
4034.7432 700.25488 7638.1787 1646396
4044.3459 694.13666 7571.4429 1646396
4133.7681 701.70184 7653.9619 1580603
4151.7583 697.10895 7603.8638 1580860
4227.311 702.17609 7659.1348 1581116
4267.9053 701.3905 7650.5659 1580859
4358.8447 708.80829 7731.4771 1646653
4279.4429 688.65997 7511.7051 1515323
4345.8521 692.14917 7549.7646 1581116
4205.7578 663.01331 7231.9585 1580603
4447.2261 694.00958 7570.0571 1646652
4453.5972 688.06519 7505.2173 1712189
4552.8242 696.44244 7596.5942 1712189
4643.4355 703.35071 7671.9473 1712189
4713.7891 707.0863 7712.6938 1580603
4662.9868 692.75085 7556.3267 1515067
4818.7725 709.08752 7734.5229 1580860
4755.2061 693.14264 7560.6006 1580860
4755.4429 686.70892 7490.4233 1580860
4830.5034 691.09906 7538.3096 1646396
4876.6006 691.30298 7540.5337 1646140
4862.9736 683.11359 7451.2065 1580347
4939.1401 687.57159 7499.8335 1580090
5032.2642 694.28973 7573.1128 1580090
5037.7349 688.90259 7514.3511 1580090
5057.1953 685.50623 7477.3047 1580090
5138.6138 690.49432 7531.7139 1514553
5156.1938 686.89221 7492.4229 1514298
5195.4819 686.21875 7485.0771 1448761
5200.0874 681.01459 7428.3115 1448761
5240.3936 680.534 7423.0693 1448761
5245.6406 675.54639 7368.666 1382967
5285.7715 675.09656 7363.7588 1382967
5377.7119 681.21686 7430.5176 1514553
5366.5688 674.28583 7354.916 1448760
5261.1885 655.72131 7152.4194 1448760
5380.6436 665.25165 7256.3735 1382967
5351.2012 656.36749 7159.4678 1448760
5419.1782 659.47827 7193.3994 1514553
5387.2661 650.47955 7095.2441 1448759
5385.1963 645.19556 7037.6074 1448758
5443.02 647.11334 7058.5264 1514295
5426.3794 640.21649 6983.2974 1580089
5557.1172 650.68042 7097.4351 1514810
5585.6606 649.11121 7080.3184 1514553
5675.4263 654.62701 7140.4829 1514553
5511.8203 631.05249 6883.3389 1448760
5333.5181 606.15399 6611.7529 1449016
5418.8359 611.36047 6668.5444 1514810
5519.2988 618.18793 6743.0161 1449530
5510.0181 612.71381 6683.3057 1449530
5500.3232 607.27203 6623.9487 1581116
5550.0894 608.42578 6636.5337 1581117
5545.4751 603.64374 6584.3726 1515324
5596.6274 604.95654 6598.6919 1515323
5637.877 605.18811 6601.2183 1712189
5654.0918 602.74774 6574.5991 1580346
5663.3687 599.6062 6540.332 1777723
5685.082 597.81506 6520.7949 1777721
5735.4785 599.04395 6534.1992 1909306
5720.5908 593.48346 6473.5469 1975099
5726.2876 590.11829 6436.8408 2172731
5770.7666 590.76794 6443.9268 2501695
5787.5952 588.59698 6420.2471 2764095
5770.6758 583.04462 6359.6831 3027267
5822.8584 584.50079 6375.5664 3290436
5805.75 579.02759 6315.8662 3290434
5899.6113 584.62091 6376.877 3356480
5994.9961 590.29309 6438.7476 3487552
6048.3804 591.78418 6455.0117 3553600
6143.4668 597.31116 6515.2979 3684928
6173.8789 596.52014 6506.6704 3619906
6250.7866 600.20361 6546.8486 3488066
0 0 0 0
0 0 0 0
0 0 0 0
0 0 0 0
-6393.3862 684.7074 7015.2666 7105634
-6450.3369 695.32654 7124.0664 7171427
-6388.4092 693.1864 7102.1396 6842462
-6368.6123 695.61975 7127.0708 7434599
-6645.0854 730.66193 7486.1006 7106148
-6558.6133 725.99927 7438.3281 7434599
-6499.2192 724.29108 7420.8267 7566185
-6457.2505 724.51477 7423.1187 7237734
-6364.9019 719.05017 7367.1304 7040100
-6306.6255 717.3858 7350.0776 6250584
-6143.6304 703.70355 7209.894 6184791
-6072.6416 700.44214 7176.479 7895409
-5993.0156 696.13141 7132.3125 6711135
-6061.9258 709.13556 7265.5488 6711135
-6188.5352 729.12366 7470.3398 6579549
-6192.6025 734.85809 7529.0928 6579549
-6044.7632 722.51855 7402.666 5921619
-5998.6675 722.24878 7399.9023 6053205
-5954.4453 722.20227 7399.4258 6052948
-5907.292 721.79694 7395.2729 4737088
-5806.9824 714.84198 7324.0146 5263432
-5636.8452 699.12177 7162.9512 5921362
-5567.895 695.80817 7129.001 6118740
-5340.1538 672.44855 6889.667 6841953
-5171.7021 656.25244 6723.7275 6644831
-4977.5376 636.51685 6521.5234 3222826
-4719.5508 608.24719 6231.8828 3157041
-4780.6343 620.97717 6362.3096 1578541
-4751.8999 622.14996 6374.3257 3881805
-4519.8691 596.51135 6111.6416 13293530
-4675.3833 622.01819 6372.9751 12570838
-4429.5303 594.10712 6087.0088 12374485
-4658.0142 629.88019 6453.5269 11388894
-4597.0483 626.78052 6421.769 4743032
-4516.3159 620.91168 6361.6387 41
-4450.6768 617.03656 6321.9355 47
-4395.1338 614.50732 6296.0215 560
-4390.9624 619.17871 6343.8828 66611
-4304.3667 612.20758 6272.459 36
-4222.6147 605.81 6206.9121 28
-4267.6909 617.65564 6328.2783 1381411
-4033.3855 588.9184 6033.8467 6316393
0 0 0 0
0 0 0 0
0 0 0 0
0 0 0 0
0 0 0 0
0 0 0 0
0 0 0 0
0 0 0 0
-1369.1989 217.24609 2225.8257 27
-1342.6542 215.10597 2203.8987 7171984
-1337.9694 216.46036 2217.7751 12373969
-1314.5148 214.77484 2200.5061 12046035
-1302.515 214.94591 2202.2585 12047064
-1294.3207 215.75476 2210.5459 2704745
-1288.4476 216.97104 2223.0076 297
-1263.1567 214.90875 2201.8782 12440286
-1253.8813 215.55672 2208.5168 11914962
-1246.7009 216.58226 2219.0242 11060427
-1230.723 216.08504 2213.9299 11720926
-1225.4998 217.4857 2228.2805 529
-1206.0764 216.3694 2216.8433 593186
-1194.9452 216.73247 2220.5632 658714
-1204.2322 220.84821 2262.7317 2434602
0 0 0 0
0 0 0 0
-3344.2173 634.49609 6500.8193 5526863
-3395.7046 651.77057 6677.8076 6250326
-3378.6619 656.14362 6722.6123 4934467
-3320.1174 652.46515 6684.9243 6381913
-3233.1714 643.04901 6588.4497 5789776
-3239.6538 652.21198 6682.3301 6184534
-3196.0713 651.39777 6673.9878 6381911
-3163.428 652.82062 6688.5659 6250325
-3196.2256 667.95563 6843.6338 5263428
-3193.3608 675.93091 6925.3462 5920844
-3138.8579 673.0415 6895.7417 5855050
-3095.0051 672.38953 6889.062 5855051
-3029.8232 667.02454 6834.0942 5920845
-2937.2561 655.40356 6715.0303 5789003
-2855.0396 645.80481 6616.6846 5789004
-2798.3596 641.79559 6575.6074 5657418
-2829.2268 658.03522 6741.9927 6117712
-2713.8735 640.24432 6559.7139 6513753
-2679.7212 641.37134 6571.2607 6776155
-2665.3958 647.34698 6632.4854 6907741
-2614.8118 644.56354 6603.9673 6250069
-2571.8076 643.59235 6594.0166 6315348
-2532.4731 643.52374 6593.3135 6118482
-2570.8652 663.51343 6798.1206 6118739
-2469.8105 647.57684 6634.8403 6776669
-2431.0974 647.73486 6636.459 5723981
-2354.0432 637.51465 6531.7466 5526601
-2392.179 658.66962 6748.4932 5591625
-2320.4048 649.76642 6657.2739 5657674
-2307.0205 657.18854 6733.3184 5000515
-2244.436 650.60986 6665.9155 6974048
-2230.5452 658.16351 6743.3071 6250328
-2216.8103 666.03949 6824.0015 5921619
-2141.2351 655.28302 6713.7949 5592654
-2186.3472 681.75244 6984.9912 5987412
-2058.7625 654.35345 6704.271 4868418
-2053.1719 665.41376 6817.5908 4407866
-2004.7629 662.76239 6790.4258 6447705
-1972.0115 665.28467 6816.2686 6118741
-1952.1169 672.34064 6888.561 5921875
-1907.4731 670.99176 6874.7412 5724241
-1890.4784 679.52234 6962.1426 6119255
-1804.373 663.03802 6793.25 6448218
-1720 646.4527 6623.3223 6382426
-1658.163 637.76062 6534.2671 6119253
-1654.2993 651.48376 6674.8691 7105893
-1619.9237 653.56879 6696.2314 6908513
-1573.9142 650.94678 6669.3677 5592655
-1514.0929 642.33051 6581.0879 6250585
-1508.9722 657.07776 6732.1836 6316892
-1447.6628 647.49445 6633.9961 5460814
-1430.2709 657.56726 6737.1987 5329485
-1380.8156 653.05408 6690.958 5460815
-1329.3414 647.29114 6631.9131 5987414
-1284.8066 644.65906 6604.9453 5987414
-1248.1167 645.92139 6617.8789 6052948
-1203.5471 643.05548 6588.5161 5658189
-1158.2705 639.60712 6553.1855 5987154
-1128.5406 644.80231 6606.4136 5197385
-1147.264 679.04968 6957.2993 5987413
-1085.2111 666.2572 6826.2329 5461325
-1027.0945 654.98486 6710.7402 5922133
-995.14496 660.16357 6763.7993 6711394
-953.68158 659.20062 6753.9331 5790292
-904.6311 652.67938 6687.1187 4868935
-849.01355 640.60571 6563.4165 5987673
-820.56726 648.85858 6647.9727 5987417
-771.17218 640.54333 6562.7778 6382431
-770.76428 674.1947 6907.5576 5329487
-732.84619 676.96954 6935.9873 5987418
-685.64697 670.99127 6874.7363 4079421
-649.12201 675.36371 6919.5342 5658708
-594.42682 660.14648 6763.624 6053723
-554.20245 659.96173 6761.7314 5987931
-508.05939 652.15088 6681.7041 6053725
-472.3461 657.53912 6736.9102 6448226
-432.96158 658.3396 6745.1113 6119517
-391.96741 656.60651 6727.3545 5987932
-349.0004 650.80219 6667.8857 6119518
-306.56058 644.62476 6604.5938 5527383
-265.69263 640.42865 6561.6021 6053469
-226.86693 640.56049 6562.9531 6185055
-187.80672 639.94788 6556.6768 6579813
-150.19093 645.22101 6610.7031 6053469
-111.11697 645.74017 6616.0225 6119263
-71.484268 641.80878 6575.7427 6053469
-32.614014 643.50421 6593.1138 5922139
6.4120603 640.20691 6559.3306 6251104
45.443954 642.65253 6584.3872 5395796
84.685921 644.4375 6602.6753 5790298
123.8157 644.51056 6603.4243 6185056
165.96281 656.48395 6726.0991 6382692
205.89917 656.76917 6729.0215 6580071
242.43376 647.87109 6637.855 6514278
278.88336 641.26141 6570.1348 5724762
320.92224 647.54858 6634.5508 5724762
355.22256 638.55292 6542.3843 6843243
400.05276 648.39368 6643.209 6250596
435.06805 641.98865 6577.5854 4737870
463.27505 627.41608 6428.2808 5725022
515.31494 644.88275 6607.2378 5461593
558.71326 649.8324 6657.9497 5659743
588.84845 639.72021 6554.3442 5856610
628.83197 640.89642 6566.3955 6580337
670.06311 643.13312 6589.3115 5922408
709.28027 643.29694 6590.9897 6647164
735.54413 632.30835 6478.4048 7634322
791.80292 646.91602 6628.0698 7964316
828.41278 644.84827 6606.8843 7965091
868.0589 645.22394 6610.7334 8162986
904.7782 643.48566 6592.9233 8294575
969.63489 661.07458 6773.1333 7900332
1007.2441 659.42719 6756.2549 8492470
1059.7273 667.27136 6836.623 8755644
1086.9674 659.22833 6754.2173 8821181
1142.1498 668.10132 6845.127 8755645
1176.2147 664.43689 6807.582 8755644
1182.0044 645.57227 6614.3018 8624315
1234.368 652.53918 6685.6826 8624315
1282.3077 656.80707 6729.4097 8624315
1295.2891 643.45142 6592.5728 8624572
1331.8752 642.26044 6580.3706 8559291
1388.2878 650.42621 6664.0337 8690620
1430.5293 651.68451 6676.9258 8624827
1480.413 656.26294 6723.8345 8690619
1523.9277 657.85205 6740.1162 8755643
1545.0938 649.95874 6659.2446 8821436
1577.0907 646.90125 6627.9185 8755644
1626.8394 651.09698 6670.9062 8821437
1652.3074 645.60645 6614.6523 8952511
1720.3772 656.63049 6727.6006 8952511
1768.2645 659.62659 6758.2974 8952511
1820.1003 663.93024 6802.3911 8952511
1854.9193 661.97455 6782.354 8886974
1917.7439 669.8844 6863.396 8821181
1973.4551 675.03265 6916.1431 8820925
2008.2046 672.94733 6894.7769 8821181
2039.2029 669.71301 6861.6396 8820924
2059.7151 663.22864 6795.2031 8820924
2113.4917 667.49884 6838.9536 8755132
2154.6904 667.71051 6841.1226 8886717
2211.2576 672.58899 6891.1055 8952510
2263.1555 675.89606 6924.9888 8952510
2347.3467 688.55811 7054.7197 9018303
2391.1587 689.13977 7060.6792 9018303
2394.6208 678.2724 6949.3359 8755386
2452.3838 682.89307 6996.6777 8623544
2518.9424 689.76862 7067.1221 8491958
2363.3074 636.57031 6522.0713 8425394
2403.2166 636.9071 6525.522 8294065
2625.0483 684.68359 7015.0229 8359859
2490.4722 639.45892 6551.6665 8491187
2525.5757 638.52094 6542.0566 8360370
2701.969 672.7926 6893.1919 8425908
2808.8257 688.98682 7059.1118 8360115
2651.6621 640.89355 6566.3652 8228530
2690.0093 640.76172 6565.0151 8228786
2744.9644 644.53326 6603.6567 8229043
2769.9058 641.25049 6570.0225 8163250
2798.6245 638.92102 6546.1558 7966128
2884.6038 649.54907 6655.0469 7965872
2911.4836 646.76196 6626.4917 7965871
2898.2566 635.25824 6508.6284 7899822
2838.4709 613.9856 6290.6763 7767978
2808.7771 599.68896 6144.1982 7636135
2850.5728 600.82635 6155.8511 7570085
2933.3054 610.45441 6254.4971 7306913
2988.3735 614.15674 6292.4302 7306655
3024.2314 613.86853 6289.4771 6846103
3045.4343 610.6488 6256.4888 6451344
3050.4099 604.29193 6191.3584 5924743
3065.4756 600.06116 6148.0112 5529984
3098.8311 599.46783 6141.9326 4937847
3113.8977 595.39148 6100.168 4279402
3170.7185 599.3006 6140.2192 3621471
3179.5378 594.15118 6087.46 2963284
3187.4651 588.95239 6034.1948 2436685
3220.7556 588.50336 6029.5947 1712448
3252.9194 587.8606 6023.0088 1317175
3280.343 586.3844 6007.8843 1250349
3616.6123 639.5556 6552.6577 1184553
3380.4724 591.44867 6059.771 1118762
3473.5486 601.34717 6161.188 921385
3743.1709 641.28607 6570.3872 1052720
3746.1541 635.19196 6507.9487 1054261
3808.1245 639.12183 6548.2129 1251383
3843.0618 638.48114 6541.6494 1317433
4222.269 694.47888 7115.3818 1646399
4327.9736 704.82855 7221.4209 1646398
4321.1069 696.82233 7139.3916 1712191
4359.9668 696.27368 7133.7705 1712191
4346.7393 687.49719 7043.8501 1646397
4436.3481 694.99799 7120.7002 1711933
4435.1953 688.27271 7051.7954 1646140
4558.1465 700.7522 7179.6558 1711933
4364.1777 664.72931 6810.5781 1646141
4479.9316 676.10968 6927.1772 1646140
4555.042 681.20514 6979.3838 1646140
4607.3999 682.83691 6996.1025 1514554
4691.5 689.10199 7060.2925 1580348
4657.688 678.09015 6947.4688 1514555
4773.3818 688.84631 7057.6724 1646140
4792.9937 685.67059 7025.1353 1580347
4829.1948 684.90222 7017.2632 1580347
4820.1528 677.78528 6944.3447 1580347
4859.2192 677.49609 6941.3823 1580347
4900.5176 677.52051 6941.6318 1646140
4948.8594 678.51007 6951.771 1580347
4973.5781 676.27118 6928.8325 1448762
5024.5884 677.61475 6942.5981 1514555
5102.7026 682.56201 6993.2861 1514554
5119.1025 679.24084 6959.2583 1646140
5174.2026 681.06677 6977.9663 1448761
5169.5015 675.05469 6916.3682 1514554
5146.4844 666.76416 6831.4268 1514554
5140.9604 660.85168 6770.8496 1448761
5142.3237 655.90924 6720.2109 1514554
5162.9448 653.48022 6695.3237 1514554
5236.2368 657.70404 6738.5996 1645371
5298.5449 660.49469 6767.1919 1514554
5365.1655 663.77704 6800.8213 1580347
5395.3696 662.53857 6788.1328 1580347
