# .PCD v0.7 - Point Cloud Data file format
VERSION 0.7
FIELDS x y z rgb
SIZE 4 4 4 4
TYPE F F F U
COUNT 1 1 1 1
WIDTH 1312
HEIGHT 1
VIEWPOINT 0 0 0 1 0 0 0
POINTS 1312
DATA ascii
-451.15472 841.33356 1661.4862 3092515
-434.54657 828.43622 1636.0162 5066051
-420.9166 820.75775 1620.8525 3026470
-405.99371 810.14075 1599.8857 3749939
-395.00064 807.04547 1593.7732 3026217
-388.93701 814.1167 1607.7377 1512977
-376.89462 808.71417 1597.0686 2565151
-362.86914 798.6687 1577.2306 1512720
-351.31549 793.67645 1567.3718 1775635
-343.30927 796.64484 1573.2339 1051651
-333.97479 796.61078 1573.1666 2827802
-320.08301 785.39252 1551.0125 3880232
-314.31525 794.03424 1568.0782 3814436
-300.68738 782.74109 1545.7762 3024920
-291.26596 782.03259 1544.3772 4933174
-284.89203 789.72583 1559.5699 5130812
-278.65643 798.33105 1576.5637 2696727
-268.50464 795.92444 1571.811 3354402
-258.55942 793.97913 1567.9696 2696729
-248.60393 791.85626 1563.7772 1315339
-239.79477 793.36163 1566.7501 5986124
-230.64209 793.80603 1567.6277 3354919
-218.84326 784.79828 1549.8389 6183761
-210.17674 786.72626 1553.6462 4802620
-201.60709 789.21014 1558.5515 5131842
-190.12634 779.98962 1540.3427 6447957
-180.26222 776.80603 1534.0555 5657670
-169.60234 769.67297 1519.9691 6710359
-162.98508 781.11469 1542.5645 4078127
-152.14648 772.48285 1525.5182 6380882
-144.41089 779.51044 1539.3964 5985867
-133.59598 769.74335 1520.108 5394242
-124.7589 770.78357 1522.1624 4012591
-116.79572 777.80585 1536.03 2368797
-107.7922 778.5011 1537.4031 3750449
-99.384521 784.02515 1548.3121 3421484
-90.000084 782.18372 1544.6757 4999488
-80.443581 778.26068 1536.9283 789253
-70.737091 771.70001 1523.9722 1578252
-62.550644 782.22845 1544.764 525568
-52.951077 775.66541 1531.8031 2696218
-43.617905 771.0968 1522.781 1314823
-34.243168 763.21936 1507.2244 5525059
-25.121502 757.41467 1495.7611 3682855
-15.819505 736.88324 1455.2151 2564630
-7.47084 764.76367 1510.274 2037517
1.4686325 760.75806 1502.3636 3485219
10.299229 755.64081 1492.2581 2893083
19.094263 753.84686 1488.7153 4471601
27.950596 754.84198 1490.6804 2893081
36.72113 753.59845 1488.2247 4604726
46.205162 764.64404 1510.0378 7039838
55.176365 764.99609 1510.7332 2236695
65.429253 780.53986 1541.4293 2762526
73.086021 765.09875 1510.9359 788998
83.52935 779.01538 1538.4188 4012339
92.317276 776.27411 1533.0051 3881009
100.06706 766.07611 1512.866 1380362
108.59588 763.0285 1506.8474 4407350
117.53323 763.09631 1506.9813 4604729
125.97102 760.14014 1501.1434 3749678
134.95497 760.6521 1502.1544 2894880
142.99753 756.12299 1493.2102 5197121
151.48671 754.34558 1489.7002 5196355
160.50551 755.25604 1491.4982 2761759
170.6705 761.18335 1503.2036 723206
180.80426 766.39044 1513.4867 3749939
186.22462 752.07043 1485.2072 6512732
195.7135 754.73199 1490.4633 5196868
204.39006 754.16638 1489.3463 3485737
207.5726 734.21442 1449.9447 4538677
221.18448 751.27234 1483.6311 6051916
232.79446 760.48669 1501.8278 4472883
244.28304 768.64056 1517.9303 3025697
252.92776 767.5849 1515.8456 3091235
260.5405 763.57721 1507.931 2893600
267.32877 757.49908 1495.9277 2367772
276.19867 757.52014 1495.9694 723464
0 0 0 0
283.48318 730.61237 1442.8313 4407614
301.32553 753.86615 1488.7534 7433833
311.82129 757.94006 1496.7987 2893856
0 0 0 0
329.54636 757.91785 1496.7548 4670266
341.25928 764.29132 1509.3413 3617837
346.66962 756.58441 1494.1215 5789264
356.66745 759.02393 1498.9391 5131081
363.50568 754.7843 1490.5665 3354926
368.27176 746.5451 1474.2957 3421233
380.01138 752.49677 1486.0491 1907738
390.37903 755.5235 1492.0264 4671554
397.66595 752.58606 1486.2255 4474178
404.77707 749.4502 1480.0327 2762789
413.95514 750.19336 1481.5002 3092010
423.68997 751.89362 1484.8579 2630690
433.46683 753.59778 1488.2234 789256
436.00098 742.89325 1467.0839 4275771
442.311 738.91516 1459.2278 2697252
447.55286 733.33911 1448.2162 2302240
450.63498 724.50073 1430.7618 2104345
459.23798 724.70093 1431.1572 393986
467.66269 724.61755 1430.9926 3222569
477.10162 726.08069 1433.8821 2695710
484.28726 724.12347 1430.0168 1905680
494.22946 726.28436 1434.2842 2563349
502.71091 726.26184 1434.2397 3550242
510.9754 725.93182 1433.588 3813412
523.62189 731.73627 1445.0508 2957588
534.65033 735.12921 1451.7512 3681824
542.3653 733.93097 1449.3849 3352604
547.01587 728.68787 1439.0306 3616291
553.57184 726.10492 1433.9298 3748645
548.59314 708.69897 1399.5562 5657938
578.82513 736.62109 1454.6974 1512722
588.7489 738.25854 1457.931 4144441
595.76825 736.25922 1453.9828 4078134
601.45508 732.69366 1446.9415 5393995
610.0058 732.66815 1446.8911 2236958
615.23071 728.70404 1439.0626 8882307
622.60309 727.35712 1436.4027 5921368
630.27734 726.39441 1434.5016 5329233
629.53076 715.88141 1413.7402 2763049
634.90948 712.51855 1407.0991 1184273
634.83997 703.20776 1388.712 6381660
650.22479 711.03503 1404.1694 3486769
658.20343 710.66791 1403.4445 4933444
660.45294 704.20142 1390.6742 4078134
662.09778 697.25739 1376.9611 3880497
664.39111 691.1571 1364.9141 3616298
680.13239 699.02496 1380.4517 3024416
680.12848 690.71552 1364.042 2629402
697.65472 700.19525 1382.7628 3878958
704.60236 698.96106 1380.3256 3089956
714.96545 701.10443 1384.5582 6774621
721.0943 699.09412 1380.5883 2826270
722.81732 692.9054 1368.3666 2892319
732.21252 694.12708 1370.7792 3748399
735.44208 689.54108 1361.7227 2696225
752.81714 698.17334 1378.7699 5854801
761.40619 698.55951 1379.5325 1183758
764.73352 694.16132 1370.8468 4472635
778.99982 699.68073 1381.7467 1775380
787.5816 700.03265 1382.4418 3485741
797.99945 701.99268 1386.3124 2828324
807.30328 702.94257 1388.1882 2564896
811.46069 699.43744 1381.2662 2762275
814.80444 695.30804 1373.1113 3617327
838.41992 708.38788 1398.9418 3946292
842.57245 704.92822 1392.1096 4143671
862.93231 714.96399 1411.9285 1446417
868.65033 712.79224 1407.6396 2498846
873.94879 710.32086 1402.759 2432283
884.77557 712.34692 1406.7603 2498333
886.57672 707.13635 1396.4703 2235161
885.60815 699.83331 1382.0481 2300697
907.46417 710.53571 1403.1833 2234646
902.82391 700.48566 1383.3363 3879727
917.15125 705.20062 1392.6475 4669755
921.7984 702.45483 1387.2251 3945517
920.23212 695.06439 1372.6302 3616555
927.77948 694.62689 1371.7662 3946034
946.88715 702.77692 1387.8612 1446157
974.46375 717.01825 1415.9852 2499103
973.47272 710.17554 1402.472 4143672
955.81079 691.38965 1365.3733 6051926
990.18353 710.24274 1402.6047 1446418
1002.6812 713.22186 1408.488 1709846
1013.9302 715.27112 1412.535 3420977
1022.9454 715.72375 1413.429 1907225
1018.8929 707.10028 1396.399 2893094
1036.3933 713.4527 1408.944 2959143
1028.1775 702.14209 1386.6074 1445905
1037.4584 702.8645 1388.0341 3485743
0 0 0 0
1033.0828 688.97821 1360.6111 2959912
1034.8159 684.79102 1352.3422 4933444
1055.4055 693.05066 1368.6534 4406589
1078.0155 702.50092 1387.316 3419693
1085.8658 702.26257 1386.8455 3156522
1095.4617 703.14819 1388.5944 5064518
1113.2098 709.21448 1400.5742 4801602
1100.4554 695.90192 1374.2842 4604226
1079.1516 677.41803 1337.7819 4802119
1089.1134 678.68707 1340.288 1644313
1110.3567 686.91705 1356.5406 1841690
1090.235 669.62231 1322.3866 2960683
1081.0933 659.27014 1301.9429 460550
1105.1958 669.19391 1321.5406 1183244
1115.8572 670.89685 1324.9036 2828068
1132.8839 676.37628 1335.7245 1906709
1138.4501 674.98474 1332.9764 4867394
1144.9355 674.15369 1331.3353 2301466
1161.0813 678.98328 1340.8728 3288104
1167.9431 678.35492 1339.632 2827809
1183.7567 682.89929 1348.6063 5854546
1202.2844 688.93793 1360.5316 2236703
1217.7815 693.17114 1368.8914 1644823
1223.7081 691.93677 1366.4537 2564898
1244.9231 699.30652 1381.0077 723465
1254.1195 699.87292 1382.1263 854796
1263.594 700.58624 1383.5349 591365
1255.3383 691.52332 1365.6372 2235933
1253.0498 685.84253 1354.4187 5723988
1260.179 685.35602 1353.4579 2301986
1258.4802 680.1048 1343.0876 7170924
1260.1433 676.72498 1336.4131 1249809
1263.0013 674.02502 1331.0812 2236449
1277.3281 677.4411 1337.8274 4012604
0 0 0 0
0 0 0 0
0 0 0 0
0 0 0 0
0 0 0 0
0 0 0 0
0 0 0 0
0 0 0 0
0 0 0 0
0 0 0 0
0 0 0 0
0 0 0 0
0 0 0 0
-1425.1899 850.92346 1660.9922 4933944
-1418.0154 852.52612 1664.1205 5789252
-1412.2134 854.98199 1668.9144 6118220
-1389.8013 847.3457 1654.0083 5855561
-1397.281 857.95496 1674.7175 6447955
-1381.0096 854.02802 1667.0522 5987403
-1357.4126 845.48169 1650.3699 4934715
-1340.8787 841.24261 1642.0952 6053196
-1324.8026 837.23102 1634.2645 6645335
-1320.0009 840.33759 1640.3287 6842972
-1305.0382 836.97394 1633.7628 7303011
-1315.584 850.04156 1659.2708 6447701
-1289.347 839.36066 1638.4218 3882029
-1286.783 844.04553 1647.5665 5921613
-1271.3214 840.27747 1640.2113 3026468
-1270.936 846.49268 1652.3434 4473913
-1263.1655 847.84747 1654.9878 5658186
-1254.6931 848.74854 1656.7467 2631194
-1250.2737 852.42719 1663.9274 2170644
-1242.4968 853.85699 1666.7183 4078897
-1204.8633 834.62756 1629.1827 5131588
-1208.8331 844.13959 1647.7501 5000255
-1194.0034 840.57172 1640.7856 4342835
-1178.0586 836.15381 1632.1619 2895134
-1178.0328 843.05518 1645.6333 3091744
-1172.4799 846.08319 1651.5439 1118468
-1170.8713 852.03247 1663.1569 1578766
-1161.1766 852.14856 1663.3835 3092264
-1163.6376 861.26355 1681.1759 6645085
-1145.8455 855.41644 1669.7623 1842199
-1119.8638 843.30029 1646.1118 2894883
-1127.2949 856.35345 1671.5914 7171169
-1127.8381 864.35925 1687.2185 5789772
-1112.3497 860.11182 1678.9277 6185041
-1082.5917 844.65442 1648.755 6118993
-1109.889 873.83643 1705.7179 4671547
-1105.2615 878.18854 1714.2131 4868156
-1094.9006 878.02374 1713.8916 3486761
-1079.0563 873.41736 1704.9 4342582
-1056.6118 863.33118 1685.2119 6119248
-1044.0619 861.21442 1681.08 6052941
-1028.9138 856.89294 1672.6444 5855558
-1019.564 857.36328 1673.5625 5921094
-1023.1347 868.81451 1695.9153 6447182
-999.48187 857.1463 1673.139 4539443
-988.15161 855.91785 1670.7411 5460287
-971.15955 849.71075 1658.625 4736568
-947.64014 837.60748 1634.9994 4144432
-937.83661 837.50256 1634.7947 2959902
-929.42767 838.65393 1637.0421 1446922
-930.04138 848.05676 1655.3965 6184016
-917.34442 845.39349 1650.1976 1052423
-905.82764 843.77209 1647.0327 4342325
-899.17712 846.69763 1652.7434 3618858
-889.17065 846.49268 1652.3434 5789257
-878.20331 845.35828 1650.129 4342580
-861.54254 838.65613 1637.0465 5461062
-847.83423 834.70819 1629.3402 5395269
-846.61389 843.10541 1645.7314 5920844
-827.01282 833.1806 1626.3583 3683881
-809.00104 824.64185 1609.6907 2302228
-789.17609 814.02905 1588.9746 5788998
-776.44128 810.56171 1582.2065 5130813
-761.91791 805.11963 1571.5836 2564890
-745.1015 797.0899 1555.9098 6118479
-757.25568 820.23932 1601.0969 4670520
-745.23676 817.46002 1595.6719 5788230
-727.70673 808.48657 1578.1558 7369573
-716.35889 806.2373 1573.7653 2434842
-704.30206 803.1203 1567.6809 4473912
-705.85352 815.64496 1592.1289 4276789
-700.75488 820.72034 1602.036 3882287
-698.34082 829.12238 1618.4368 4342329
-682.78467 821.93787 1604.4126 4999227
-678.33563 828.11011 1616.4607 6578513
-666.16949 824.90308 1610.2007 3223071
-656.7934 825.10797 1610.6006 4144174
-648.26917 826.40485 1613.1321 2104592
-641.32404 829.78381 1619.7277 3288608
-630.42731 828.07477 1616.3917 3354656
-618.3902 824.79205 1609.9839 2762518
-611.43066 828.28479 1616.8018 2169866
-602.92816 829.76538 1619.6918 5656894
-592.22003 828.20923 1616.6543 3683103
-584.61487 831.01276 1622.1267 4275755
-579.84875 838.013 1635.7911 3355682
-574.62445 844.57788 1648.6056 2829086
-555.73572 830.93854 1621.9818 2630942
-542.0625 824.75476 1609.9111 9012859
-533.01062 825.50684 1611.3792 3683627
-526.29352 829.96844 1620.0881 4342070
-509.80688 818.90283 1598.4882 2237468
0 0 0 0
-485.70532 810.2912 1581.6785 5987921
-460.603 783.52936 1529.4397 3750961
0 0 0 0
-424.29474 751.32501 1466.5771 5790030
-421.36856 761.74164 1486.9103 3289640
-415.59674 767.34912 1497.856 3487019
-406.90738 767.69678 1498.5347 5658188
-430.1763 829.69916 1619.5626 4737085
-407.7536 804.39282 1570.1649 1644819
-399.04434 805.58942 1572.5007 3025959
-391.71976 809.70544 1580.535 4934213
-381.39688 807.67377 1576.5692 2631712
-368.67331 800.32843 1562.2313 3617839
-361.37918 804.69476 1570.7543 1446156
-351.07449 802.41107 1566.2965 4406838
-339.81311 797.75745 1557.2126 1380104
-329.53754 795.22284 1552.2653 1709065
-319.00827 791.91309 1545.8046 2959131
-309.00937 789.76312 1541.6079 1840136
-300.0686 790.26898 1542.5953 3024920
-291.47891 791.76031 1545.5063 5393468
-281.88043 790.5191 1543.0836 4801845
-273.53357 792.82263 1547.58 4209964
-266.86417 800.31653 1562.2079 4407344
-256.83084 797.89801 1557.4871 3092256
-246.95464 795.80566 1553.4028 7434082
-236.97063 793.19049 1548.298 4538160
-227.32451 791.54114 1545.0786 4078637
-218.13713 791.41797 1544.8381 4275506
-208.26237 788.68079 1539.4951 3749165
-198.39021 785.70319 1533.683 5262400
-188.70485 783.21509 1528.8262 2762270
-178.02245 776.12915 1514.9946 5328707
-168.49492 773.59326 1510.0446 4868410
-158.65021 769.23492 1501.5371 4933434
-150.08972 770.95557 1504.8958 4736827
-141.9355 775.11212 1513.0093 5263428
-133.29521 776.99561 1516.6858 5657673
-123.92017 774.55878 1511.9292 4604730
-115.54694 778.492 1519.6068 4275767
-106.81104 780.44 1523.4092 3091493
-98.383545 785.20886 1532.718 4407354
-89.608276 787.88971 1537.951 3881779
-79.750954 780.58649 1523.6952 2894627
-70.315384 776.07397 1514.8868 788740
-61.45797 777.55573 1517.7792 1841427
-52.696217 780.96307 1524.4303 5394247
-43.496239 777.94208 1518.5334 1907220
-33.719265 760.33502 1484.1647 3946284
-24.899395 759.50104 1482.5366 2104084
-15.854904 747.17242 1458.4714 2169616
-7.3574643 761.96924 1487.3545 3156255
1.4519919 760.93762 1485.3408 1708811
10.200111 757.12415 1477.8971 2169103
18.942024 756.58557 1476.8457 5195325
27.53578 752.33936 1468.5573 3090204
36.33934 754.48816 1472.7516 4208942
45.745441 765.89288 1495.0135 3880233
54.371223 762.65253 1488.6884 2499095
63.006592 760.43237 1484.3546 3683881
72.04155 762.98798 1489.3431 4934463
80.082565 755.60773 1474.9369 3092263
90.666565 771.31305 1505.5936 2434077
98.45134 762.52454 1488.4386 4144182
105.33494 748.77496 1461.5995 2894371
116.01264 762.03601 1487.4849 3289386
124.94821 762.78912 1488.955 4341814
134.08571 764.59442 1492.4789 2762526
141.16786 755.18127 1474.1045 3420457
151.20052 761.72906 1486.8857 4078389
160.33783 763.29376 1489.9399 4998982
168.21097 758.99091 1481.5409 5262412
180.3833 773.55145 1509.9629 1249547
186.15034 760.56561 1484.6147 5131079
194.94186 760.55133 1484.5868 6183764
203.6676 760.29266 1484.0819 3946803
211.76703 757.81409 1479.2438 1841427
221.47398 761.05658 1485.573 3420198
230.09785 760.47156 1484.4312 4867387
240.0284 764.08923 1491.4928 5196352
244.95822 752.09619 1468.0825 2762268
261.19305 774.44537 1511.7079 3420197
265.36298 760.72589 1484.9275 1841424
274.11359 760.59698 1484.676 1906961
276.94986 744.57562 1453.4023 2630940
278.62775 726.49988 1418.1188 4341301
300.41443 760.37976 1484.252 4998974
308.32077 758.19928 1479.9956 5393219
310.93591 743.48737 1451.2782 1973011
321.31924 747.64215 1459.3883 6183506
334.50073 757.91937 1479.4493 3025188
344.01096 759.56567 1482.6628 4209460
349.45853 752.38312 1468.6426 3486254
361.58414 759.57812 1482.6871 5262409
370.63879 760.13367 1483.7716 5459789
381.26303 763.80792 1490.9437 3092267
389.17599 762.00714 1487.4285 9079430
398.73407 763.43585 1490.2174 4079163
400.13202 749.51733 1463.0486 1841430
407.67212 747.45038 1459.0139 4342076
416.9324 748.5578 1461.1755 3289132
422.98486 743.97778 1452.2355 1381135
432.69437 745.88464 1455.9576 262914
436.90533 738.42365 1441.3939 5722959
444.71671 737.21722 1439.0389 3420461
449.65378 731.38098 1427.6466 460294
456.32861 728.53461 1422.0906 3353897
463.67526 726.84454 1418.7916 1314572
473.01166 728.2782 1421.5901 1643279
479.73816 725.71362 1416.584 2432794
493.29453 733.39142 1431.5709 2037519
499.19525 729.62012 1424.2095 3418914
510.00647 733.0321 1430.8696 2892569
519.367 734.28149 1433.3085 5985095
530.56134 738.04175 1440.6483 2761237
539.78296 738.98206 1442.4839 3089689
545.41193 735.05127 1434.811 1774088
552.68671 733.42529 1431.6371 4471598
549.29999 717.91418 1401.3596 2498580
551.68677 710.29828 1386.4935 9934221
580.30731 736.18652 1437.027 4210232
585.40326 731.91388 1428.6869 1709843
593.96002 732.02838 1428.9104 2038553
604.67883 734.76691 1434.2559 3683377
606.51038 726.77985 1418.6653 2762273
616.51782 728.67438 1422.3634 5460302
627.04028 731.11835 1427.134 5592402
624.34998 718.29633 1402.1056 2434082
632.02777 717.5827 1400.7125 2499875
634.18085 710.69623 1387.2703 3881785
640.79132 708.91724 1383.7977 6644062
647.02838 706.77533 1379.6167 3683632
650.07092 701.24084 1368.8135 3485740
642.13654 684.14764 1335.4478 1445642
663.0191 697.79913 1362.0953 2892830
671.23962 697.9563 1362.4021 3747625
681.67523 700.38562 1367.1442 2826266
690.8291 701.45648 1369.2344 2892055
698.55127 701.06561 1368.4714 2760728
707.05249 701.45654 1369.2345 3813160
713.09369 699.42578 1365.2705 2365970
720.26532 698.53693 1363.5354 2958106
730.27222 700.38696 1367.1467 5063738
741.62592 703.47394 1373.1725 2826260
745.44055 699.42035 1365.2599 4405804
750.50073 696.6098 1359.7738 4471602
758.27991 696.3559 1359.2782 5327167
767.18823 697.13348 1360.7959 3353898
779.38373 700.85071 1368.052 525571
793.11725 705.86035 1377.8307 1841175
803.97778 708.237 1382.4698 2236189
805.38568 702.32275 1370.9254 3157033
817.4314 705.71051 1377.5382 5328459
826.59509 706.56769 1379.2114 2235675
838.93365 710.09546 1386.0977 3617327
848.92535 711.58759 1389.0103 1775123
861.18774 714.93616 1395.5466 3419949
864.33173 710.72321 1387.3229 1380365
845.85541 688.979 1344.8785 2169883
878.17426 708.62909 1383.2352 3090982
881.72943 704.92004 1375.9952 3090982
891.49933 706.20184 1378.4973 2695454
894.5979 702.22369 1370.7321 4472633
899.73615 699.90381 1366.2036 4867134
913.06903 703.94305 1374.0881 5524807
913.90436 698.36084 1363.1918 2761757
917.25201 694.77948 1356.2009 4143411
940.03882 705.85669 1377.8236 3880497
936.95819 697.48712 1361.4862 5393993
943.04175 696.02411 1358.6305 2235932
950.38965 695.51111 1357.6292 9144450
955.19965 693.16516 1353.0498 2828326
987.71948 710.79919 1387.4712 6249305
1006.2844 718.1825 1401.8834 2170398
1002.2183 709.42548 1384.7898 4077625
1008.7933 708.28186 1382.5575 2695714
1017.2618 708.47546 1382.9353 2169371
1023.6085 707.19995 1380.4457 2301213
1019.2532 698.60944 1363.677 2498590
1024.845 696.91827 1360.3759 2630432
1029.7905 694.81744 1356.2751 2301468
1029.2103 689.04974 1345.0166 5657424
1049.3895 697.16205 1360.8518 1578001
1062.165 700.26959 1366.9176 1248779
1074.5389 703.06738 1372.3789 1906708
1072.3741 696.38196 1359.329 2301466
1082.7417 697.87378 1362.241 2762018
1090.0789 697.40479 1361.3256 1840918
1081.0115 686.52454 1340.0875 2959655
1081.7101 681.9599 1331.1774 4340796
1089.855 682.12183 1331.4934 2433052
1085.5679 674.5564 1316.7257 3946290
1092.7864 674.1972 1316.0247 1314569
1108.4553 679.01978 1325.4382 920071
1112.3226 676.59589 1320.7068 2630683
1118.9133 675.85089 1319.2526 2432531
1123.0325 673.63361 1314.9244 2629652
1138.5229 678.22076 1323.8787 2695188
1157.899 685.04413 1337.1978 3617061
1165.6649 684.95245 1337.0188 4538678
1178.1469 687.6145 1342.2151 4802627
1190.5408 690.18988 1347.2422 5855059
1197.6423 689.68323 1346.2532 4670528
1214.4913 694.7594 1356.1619 2828070
1225.6702 696.54657 1359.6503 788744
1242.6818 701.60333 1369.5211 723207
1238.9066 694.93481 1356.5042 986124
1242.6646 692.55048 1351.85 2302243
1251.871 693.21368 1353.1445 1710362
1250.3831 687.98425 1342.9368 5460307
1252.8278 684.97113 1337.0552 1578777
1253.4001 680.97858 1329.2617 4736582
1239.0956 669.0036 1305.8868 2631461
1261.9192 677.09888 1321.6887 5394256
0 0 0 0
0 0 0 0
0 0 0 0
0 0 0 0
0 0 0 0
0 0 0 0
0 0 0 0
0 0 0 0
0 0 0 0
0 0 0 0
0 0 0 0
0 0 0 0
0 0 0 0
0 0 0 0
-1377.8807 837.97632 1617.0203 5789255
-1370.3253 839.21588 1619.4122 6184783
-1357.5759 837.26978 1615.6567 6447955
-1357.2351 843.00311 1626.7203 5263680
-1357.8746 849.43176 1639.1255 7434848
-1351.1318 851.3017 1642.7338 6579541
-1338.8912 849.70947 1639.6614 7040093
-1322.2802 845.30023 1631.153 7829610
-1300.3881 837.42511 1615.9565 6382422
-1289.615 836.64673 1614.4546 5461319
-1265.631 827.22205 1596.2679 6053457
-1259.3901 829.33972 1600.3544 8290162
-1259.3793 835.62329 1612.4796 5592395
-1265.6334 846.19147 1632.8728 7105634
-1257.6696 847.34338 1635.0956 5000001
-1249.4314 848.3269 1636.9934 4210487
-1245.2618 852.10986 1644.2933 3815985
-1232.399 849.95697 1640.1389 4934210
-1212.0714 842.58057 1625.9049 5328964
-1196.9159 838.71021 1618.4364 2499607
-1190.7703 841.14185 1623.1287 3026209
-1183.0481 842.4903 1625.7308 8421747
-1176.7699 844.89777 1630.3763 1907987
-1170.6526 847.46149 1635.3235 1381645
-1164.7103 850.1958 1640.5997 1644307
-1167.1273 859.12933 1657.8386 394756
-1153.5458 856.33801 1652.4523 0
-1150.8333 861.6366 1662.6768 3421226
-1137.3419 858.88684 1657.3706 6052945
-1132.6963 862.82733 1664.9746 6842973
-1129.7999 868.18127 1675.3059 6316886
-1118.9449 867.46027 1673.9146 4802360
-1103.0123 862.7547 1664.8344 6184012
-1088.5355 859.11322 1657.8075 4210483
0 0 0 0
-1085.999 872.862 1684.3381 6315606
-1070.3855 868.29071 1675.5171 4605500
-1071.8503 877.61755 1693.5148 2500125
-1046.2128 864.71985 1668.6265 6381396
-1033.3734 862.25494 1663.87 5065535
-1010.3119 851.13098 1642.4044 4933948
-1009.4493 858.67383 1656.9597 5986378
-1003.1462 861.69165 1662.7831 5657412
-982.04095 851.92816 1643.9427 4604980
-984.37659 862.508 1664.3584 5131580
-975.24744 863.15497 1665.6067 6512980
-966.77496 864.40216 1668.0134 3289123
-938.28107 847.58893 1635.5695 2236435
-935.96027 854.31482 1648.5482 3552296
-922.72131 851.11176 1642.3673 2499094
-910.31543 848.61707 1637.5533 657668
-905.51038 853.23059 1646.4559 2433814
-887.91644 845.76282 1632.0455 4605239
-881.76019 849.1452 1638.5725 5329476
-865.55103 842.81415 1626.3556 6908507
-851.70343 838.66595 1618.351 6513750
-848.26135 844.78613 1630.161 5855562
-842.53625 848.74744 1637.8049 3947050
0 0 0 0
-810.24207 835.4577 1612.16 5591616
-791.3161 825.67542 1593.2834 2894362
-775.45367 818.89209 1580.194 5723716
-761.3078 813.77789 1570.3252 4144431
-743.09802 804.1394 1551.7261 8618357
-744.94617 816.237 1575.0704 4145203
-736.83997 817.59607 1577.693 4210481
-724.24255 813.94269 1570.6431 6973532
-707.42883 805.39404 1554.147 526083
-700.19647 807.67188 1558.5425 9342338
-699.56854 817.73059 1577.9525 4670778
-690.58472 818.16223 1578.7854 4736055
-682.51154 819.69934 1581.7516 5130556
-682.64001 831.26666 1604.0728 4998197
-674.69836 833.19464 1607.7932 3353885
-657.07068 823.04517 1588.2079 5393469
-649.64026 825.55945 1593.0597 986116
-640.01367 825.31573 1592.5894 2366993
-634.53302 830.49109 1602.5762 2301199
-622.11389 826.60449 1595.0764 2038027
-617.26941 832.81781 1607.0659 1248771
-607.40234 832.34308 1606.1498 4077863
-598.49341 833.18695 1607.7783 1381128
-587.17834 830.65448 1602.8914 4209961
-579.31561 833.00275 1607.4229 5592646
-569.75861 832.9527 1607.3262 7698528
-568.24017 844.85254 1630.2889 3553315
-552.6734 835.91583 1613.0441 7698538
-541.06128 832.75134 1606.9377 5066307
-526.70654 825.17657 1592.3209 3025699
-499.65536 797.07178 1538.0878 3814959
0 0 0 0
0 0 0 0
-476.02774 803.32977 1550.1638 3092010
-454.28125 781.71185 1508.4482 6382173
-442.4082 776.55719 1498.5015 5132103
-427.15833 765.14264 1476.4751 7369320
-415.23877 759.34106 1465.2799 4540220
-406.922 760.02063 1466.5912 4672063
-402.58224 768.31995 1482.6062 5460808
-399.38602 779.22058 1503.6409 2763298
-402.90213 804.01343 1551.4829 3815986
-396.55026 809.81201 1562.6722 3157543
-389.43872 814.29944 1571.3315 3485994
-380.97015 816.09955 1574.8052 1841169
-366.13156 804.00189 1551.4608 131072
-355.03973 799.72083 1543.1996 459776
-346.63931 801.43597 1546.5093 3025441
-339.85507 807.08234 1557.4049 2828062
-328.88812 802.83362 1549.2063 920839
-318.31937 799.34088 1542.4664 1380615
-308.56415 797.74493 1539.3867 920066
-299.6716 798.34991 1540.5543 3814695
-289.04343 794.22406 1532.5927 3682850
-281.48166 798.52954 1540.9008 3880484
-272.40829 798.69153 1541.2134 3156507
-266.60922 808.79785 1560.7153 4143401
-257.83575 810.28302 1563.5811 2762520
-244.72566 797.74249 1539.3821 4077866
-234.85999 795.21649 1534.5077 2038285
-224.45612 790.59143 1525.5828 3091229
-213.94049 785.16815 1515.1177 4143918
-205.60393 787.61725 1519.8438 3288609
-196.50406 787.23273 1519.1018 4670516
-186.57291 783.32129 1511.5538 4604725
-174.26266 768.52319 1482.9984 5591875
-166.69333 774.17206 1493.8988 5460034
-157.1624 770.83319 1487.4559 4012583
-148.46899 771.44958 1488.6454 4012586
-140.85518 778.1076 1501.4932 7960938
-132.73256 782.66302 1510.2837 8290417
-124.21542 785.38263 1515.5316 7040095
-115.22585 785.30615 1515.384 5723981
-106.60831 787.96655 1520.5177 328962
-97.524788 787.35583 1519.3394 4408121
-89.516335 796.18317 1536.373 4079155
-79.53067 787.43225 1519.4866 1118472
-70.579887 788.00159 1520.5853 2433562
-61.719791 789.89825 1524.2452 723203
-52.370281 785.10791 1515.0015 3223077
-42.842564 775.11188 1495.7124 2762267
-33.779408 770.49933 1486.8116 2499095
-24.823072 765.92889 1477.9922 2893853
-15.989386 762.22363 1470.8423 1906958
-7.262382 760.81964 1468.1331 2235927
1.4339286 760.16132 1466.8627 2827806
10.105571 758.78094 1464.199 2432788
18.747671 757.48206 1461.6926 3879978
27.45521 758.81268 1464.2603 3222047
36.385361 764.17969 1474.6168 4537907
45.379757 768.55652 1483.0626 5525057
54.164928 768.54474 1483.0399 3946025
62.999454 769.13885 1484.1864 4406835
71.11441 761.87836 1470.176 3946541
79.231178 756.2196 1459.2565 2433305
87.325081 751.47736 1450.1055 3223335
98.628822 772.73291 1491.1218 2038548
105.33475 757.43256 1461.597 3617581
114.05626 757.84894 1462.4005 4802109
122.58205 756.99792 1460.7584 4012332
132.97823 767.04797 1480.1517 2959647
141.58305 766.16095 1478.4401 4998456
149.62683 762.51807 1471.4104 5130557
158.82959 764.85748 1475.9247 3749169
167.18527 763.0863 1472.507 7696750
176.9521 767.61243 1481.2408 1052428
185.98233 768.66638 1483.2747 1117964
193.80942 764.87701 1475.9625 5197636
201.29491 760.125 1466.7926 7105634
209.90686 759.84381 1466.25 6908258
218.62717 759.96167 1466.4774 591877
229.0428 765.7384 1477.6246 7763053
238.77397 768.88574 1483.698 2959903
248.73709 772.52991 1490.7301 3157281
256.1947 768.40942 1482.7789 3091744
264.6702 767.51392 1481.0508 2368539
272.13202 763.83063 1473.9432 1184011
273.07007 742.63446 1433.0416 4670266
282.23499 744.41553 1436.4784 4407094
294.30179 753.52216 1454.0513 4735289
303.84116 755.82379 1458.4927 4735806
308.50317 746.20087 1439.9236 2104597
318.45691 749.5509 1446.3881 4209715
330.62347 757.79718 1462.3007 3552044
341.40106 762.52014 1471.4144 1907738
347.88635 757.65973 1462.0354 3091240
359.93497 764.85748 1475.9247 3025448
367.50916 762.43109 1471.2427 3552047
380.47482 771.04327 1487.8613 3815219
381.95728 756.52124 1459.8385 5065030
395.03421 765.09833 1476.3895 5460045
399.6832 757.33435 1461.4076 3157805
406.48532 753.89282 1454.7666 3749427
411.94968 748.16467 1443.7131 5789010
419.1109 745.68854 1438.9351 2236188
422.86349 737.36749 1422.8781 2301724
431.32654 737.42487 1422.9888 5854542
442.01596 741.21356 1430.2997 1117707
449.6514 739.83472 1427.639 2301465
455.10168 734.97791 1418.267 788485
464.38486 736.375 1420.9629 1183240
470.44272 732.69897 1413.8694 1052168
478.73907 732.57703 1413.634 2103568
487.13547 732.60956 1413.6969 2564120
495.65848 732.82843 1414.1191 2629654
505.53552 735.00848 1418.3259 3024668
516.33868 738.44177 1424.9512 3813926
519.05969 730.39191 1409.4175 6511696
535.85693 742.09064 1431.9922 4472627
543.39844 740.80652 1429.5143 2498838
546.25494 733.27283 1414.9767 3749160
550.90857 728.34277 1405.4633 5855307
551.08252 717.72522 1384.975 2828580
559.14752 717.54572 1384.6285 2631717
583.534 738.01361 1424.1249 4736835
593.5719 740.0097 1427.9767 2959397
601.40692 739.24182 1426.495 1972758
605.65265 734.14465 1416.6591 1117451
612.13196 731.85712 1412.2449 5788495
620.47839 731.83344 1412.1992 2630431
621.07153 722.78741 1394.7433 1182730
627.88544 721.12341 1391.5322 3287335
631.1405 715.46814 1380.6195 2760735
629.51257 704.49304 1359.4412 1577231
627.68762 693.57751 1338.3777 3353638
632.6264 690.3147 1332.0817 3156259
653.55206 704.36218 1359.1886 1050884
661.89374 704.67035 1359.7833 1576713
670.35394 705.09589 1360.6045 2102544
678.82812 705.52582 1361.4341 2826526
688.05438 706.71808 1363.7347 3023647
686.28217 696.71704 1344.436 2497303
702.52588 705.02545 1360.4685 2366232
709.78027 704.2265 1358.9268 2037009
721.69507 708.0174 1366.2421 1510920
727.09564 705.40442 1361.1998 2695195
737.68115 707.82379 1365.8684 2366228
744.04059 706.17969 1362.6958 3418661
751.08856 705.21729 1360.8387 3945519
756.2796 702.55042 1355.6925 6511704
762.59912 700.97687 1352.656 1117965
772.6908 702.86731 1356.304 5919825
788.01978 709.43384 1368.9752 2038552
794.77899 708.23004 1366.6523 3617327
803.49445 708.77618 1367.7062 4341050
809.68835 707.10925 1364.4896 4867651
824.02472 712.51593 1374.9227 1644051
829.99731 710.65558 1371.3329 1117451
847.70801 718.78418 1387.0184 2301467
855.31091 718.26849 1386.0232 3353901
859.97034 715.31421 1380.3225 3683378
858.06226 707.00427 1364.287 2630432
864.76709 705.87988 1362.1173 3156775
875.12762 707.73267 1365.6926 1906196
884.96552 709.13275 1368.3943 2958626
888.97272 705.87762 1362.1129 2564636
895.61029 704.75079 1359.9386 3682605
903.08209 704.29486 1359.0587 3222825
899.30969 695.15521 1341.4221 3617326
905.85779 694.08344 1339.354 4012341
927.19055 704.26013 1358.9917 4406843
931.94086 701.77466 1354.1956 4670015
937.46503 699.90936 1350.5962 5525067
949.50684 702.90057 1356.3682 5196361
954.08972 700.36615 1351.4775 4340796
958.84259 697.99762 1346.9071 4867396
987.60156 712.99951 1375.8558 2301726
998.38245 714.88269 1379.4897 986380
1004.0777 713.12329 1376.0947 1249038
1007.7209 709.94666 1369.9648 1775382
1015.0292 709.3822 1368.8756 3354413
1015.2768 703.93121 1358.3569 3025446
1025.0421 705.1131 1360.6376 2433310
1030.842 703.56995 1357.6599 1709330
1037.9349 702.92657 1356.4183 4604479
1048.5371 704.65125 1359.7465 985866
1042.3696 695.16589 1341.4427 1511951
1051.816 696.1582 1343.3577 1643537
1062.5385 697.97394 1346.8613 1380622
1069.9149 697.58099 1346.1031 985607
1067.2128 690.67126 1332.7697 1051400
1068.5096 686.43213 1324.5895 4933188
1069.2329 681.88898 1315.8226 920585
1084.2621 686.46887 1324.6604 2499360
1081.2584 679.64813 1311.4985 4143671
1082.2145 675.39587 1303.2931 328450
1102.0253 682.88751 1317.7495 788225
1110.2344 683.13519 1318.2274 1182983
1112.067 679.48328 1311.1804 2170386
1120.776 680.05426 1312.2823 3881261
1125.1816 678.02441 1308.3654 8289389
1140.8989 682.79199 1317.5652 3683877
1149.4142 683.21387 1318.3793 4736312
1161.0575 685.47668 1322.7458 4209972
1178.2595 690.96918 1333.3445 4078391
1192.1294 694.44727 1340.0562 5854033
1199.7389 694.25677 1339.6885 3419949
1210.1177 695.66071 1342.3976 4341307
1221.5907 697.67126 1346.2773 2499105
1234.2759 700.34344 1351.4338 1117967
1242.6045 700.52527 1351.7847 3749688
1240.755 695.00348 1341.1294 6184029
1245.8785 693.43298 1338.0989 2236449
1247.9336 690.1853 1331.8319 1973534
1235.9949 679.28766 1310.803 1973277
1233.2052 673.52289 1299.6788 3552052
1244.5256 675.48816 1303.4712 1775898
0 0 0 0
0 0 0 0
0 0 0 0
0 0 0 0
0 0 0 0
0 0 0 0
0 0 0 0
0 0 0 0
0 0 0 0
0 0 0 0
0 0 0 0
0 0 0 0
0 0 0 0
0 0 0 0
-1363.5542 838.74341 1600.2072 6118989
-1357.4675 840.84534 1604.2173 6052939
-1349.5986 841.86511 1606.163 6184010
-1345.5205 845.28082 1612.6797 5197370
-1350.9066 854.73358 1630.7141 4868404
-1341.3961 854.82928 1630.8969 4144174
-1331.9779 854.98566 1631.1951 6578771
-1309.248 846.53723 1615.0767 7566696
-1291.8599 841.44366 1605.3589 7172707
-1270.7042 833.80243 1590.7804 4606013
-1262.7131 834.74976 1592.5879 3487789
-1249.5559 832.27051 1587.8577 7829870
-1253.5913 841.29169 1605.0688 5921617
-1256.6851 849.81384 1621.3281 6710619
-1250.9066 852.42157 1626.3032 5525575
-1246.8112 856.22546 1633.5604 2104598
-1238.8409 857.40717 1635.8149 3025701
-1218.6343 850.07178 1621.8201 1578257
-1202.4956 845.47992 1613.0596 2170391
-1182.7268 838.24194 1599.2504 3881004
-1174.6227 839.22083 1601.118 2959649
-1167.7977 841.13708 1604.774 7170910
-1174.8473 853.16034 1627.7126 5987662
-1155.4069 845.98663 1614.0262 3750445
-1150.3732 849.32983 1620.4047 3749932
-1146.6797 853.72711 1628.7939 4934465
-1147.9784 861.94733 1644.4771 5723982
-1138.5162 862.15942 1644.8817 4868929
-1129.4244 862.65814 1645.8331 2960419
-1134.3943 873.99927 1667.4705 2631710
-1128.0293 876.72992 1672.6803 7762793
-1120.4965 878.59351 1676.2356 8552821
-1101.4117 871.35132 1662.4186 6447959
-1073.0941 856.60815 1634.2905 6908252
0 0 0 0
-1015.6158 825.62378 1575.1768 7632489
-1046.5389 858.65155 1638.1891 4212283
0 0 0 0
-1041.9861 871.07178 1661.8851 5592650
-1023.5549 863.82581 1648.0608 4999485
-1007.5462 858.50433 1637.9083 2368282
-1000.2821 860.60303 1641.9122 3025952
-987.49493 857.9444 1636.84 4209967
-987.8277 866.74469 1653.6298 1512457
-1003.755 889.54144 1697.1229 4604466
-978.1543 875.62451 1670.5712 4670517
-963.5094 871.33075 1662.3793 4736310
-947.47601 865.67963 1651.5978 4276016
-932.77338 861.13916 1642.9351 1907468
-920.49738 858.76678 1638.4089 2368277
-907.77283 855.9209 1632.9795 1775371
-899.68652 857.4342 1635.8666 1051907
-883.69489 851.36426 1624.286 920581
-866.72363 844.20667 1610.6302 5130555
-855.26038 842.31415 1607.0197 6710357
-848.60138 845.16388 1612.4565 7039322
-844.50922 850.664 1622.9501 6315342
-830.95343 846.64856 1615.2892 3157536
-816.68207 841.802 1606.0425 3025949
-801.33673 835.72095 1594.4408 4012846
-781.56555 824.82422 1573.6511 5262910
-765.32489 817.43512 1559.5538 3881259
-755.89282 817.22656 1559.1559 3025693
-748.5686 819.31995 1563.1498 5329220
-741.22223 821.4411 1567.1968 3750445
-727.96118 816.97821 1558.6821 4144688
-714.15527 811.78137 1548.7672 4407604
-706.38666 813.401 1551.8573 3881261
-703.02454 820.20447 1564.8374 3354660
-697.24292 824.32916 1572.7068 5854537
-680.99554 816.02478 1556.863 2630685
-676.36475 821.60327 1567.5061 5854535
-669.17426 824.18457 1572.4308 1578250
-654.58618 817.59888 1559.8662 3222556
-651.00787 824.77301 1573.5536 4143916
-651.38013 837.23334 1597.3262 3091226
-637.20239 831.08398 1585.594 2367759
-632.83258 837.73407 1598.2816 3289375
-616.71637 828.80048 1581.2374 4210219
-607.33929 828.7876 1581.2128 4210731
-600.26843 831.97058 1587.2855 5986631
-594.63617 837.28052 1597.4163 6907991
-582.04047 832.79895 1588.8658 5065532
-570.37122 829.51727 1582.605 3157538
-563.02673 832.52069 1588.3351 6053195
-551.36591 829.13544 1581.8765 5461051
-549.27289 840.26978 1603.1193 5855818
-537.69818 837.03589 1596.9493 4671547
-520.93561 825.46539 1574.8745 3947567
-503.0076 811.59253 1548.407 5395277
0 0 0 0
-466.02194 780.37982 1488.8574 6842980
-455.87268 778.11145 1484.5298 5790292
-448.64886 780.84552 1489.7458 3948088
-437.45273 776.6369 1481.7166 4869186
-427.64542 774.77209 1478.1587 4605758
-416.61414 770.56549 1470.1331 6447962
-405.8522 766.68817 1462.7357 2895140
-403.52734 778.92755 1486.0867 1710353
-395.8031 781.05811 1490.1516 3223336
-399.21616 805.76514 1537.2891 4210744
-393.33966 812.43823 1550.0204 3223849
-387.14886 818.76556 1562.0922 3355436
-375.05582 812.61475 1550.3573 1776660
-366.01642 812.93744 1550.9729 2170646
0 0 0 0
-341.1434 797.74591 1521.9896 2565148
-336.73715 808.81982 1543.1169 3354406
-324.93253 802.24518 1530.5736 2104338
-313.37729 795.92676 1518.5188 2630937
-304.14111 795.29889 1517.3209 2434076
-298.04419 803.09155 1532.1882 6447438
-287.29828 798.45343 1523.3394 6051909
-277.78647 797.05548 1520.6724 5460031
-270.60049 802.46106 1530.9854 5328190
-263.18661 807.5423 1540.6797 2498837
-250.75468 797.03839 1520.6396 3419937
0 0 0 0
-230.68076 789.99493 1507.2018 4208940
-222.52243 792.74054 1512.4399 526082
-212.25479 787.88672 1503.1797 5722951
-204.19778 791.17303 1509.4493 1709841
-193.74837 785.06622 1497.7985 4078128
-184.15363 782.00269 1491.9536 3749161
-173.64743 774.56451 1477.7627 4209196
-162.68481 764.19269 1457.9746 2103565
-155.5045 771.42078 1471.7648 3946020
-146.27927 768.76062 1466.6896 3880482
-138.78186 775.41846 1479.3918 5657409
-132.32857 789.20087 1505.6869 6512719
-123.7338 791.28094 1509.6553 5197117
-114.86046 791.76489 1510.5786 6316370
-105.89302 791.62714 1510.3158 4013615
-97.085617 792.77069 1512.4976 4342579
-88.800713 798.84717 1524.0907 3421223
-79.02774 791.39746 1509.8777 1315851
-70.579597 797.00653 1520.579 3091746
-62.130753 804.2478 1534.3943 1775886
0 0 0 0
-43.065548 788.05328 1503.4973 3025438
-33.658604 776.52063 1481.4946 3354404
-24.8976 777.01068 1482.4297 2564888
-15.877648 765.54968 1460.5636 3683113
-7.221827 765.22003 1459.9347 1381129
1.4152476 758.83484 1447.7526 6249810
10.079844 765.50128 1460.4713 2300948
18.734665 765.61005 1460.6787 2760983
27.367514 765.03571 1459.583 2102793
35.916325 762.95215 1455.6078 2300174
44.361538 759.90063 1449.786 5063990
53.007645 760.72223 1451.3534 6906453
61.022514 753.51978 1437.6122 4472627
70.403763 762.88757 1455.4846 1841164
78.219101 755.09436 1440.6163 3156255
87.041512 757.59998 1445.3967 5721927
96.006294 760.78497 1451.4731 1643020
104.1726 757.6391 1445.4713 854534
112.98703 759.32678 1448.6912 3420198
121.95164 761.71423 1453.2461 2565145
130.92776 763.85406 1457.3286 3814694
142.41481 779.47192 1487.1254 4472627
149.46616 770.4068 1469.8303 3223331
157.46741 766.96643 1463.2666 5196868
165.73611 765.11981 1459.7434 4210233
174.63777 766.23334 1461.8679 723207
182.69345 763.70532 1457.0448 3222824
190.51126 760.45587 1450.8453 3749682
198.02577 756.32861 1442.9711 6315352
207.22459 758.70966 1447.5138 3684144
217.16237 763.49945 1456.6521 5065798
226.02164 764.27631 1458.1342 7368298
234.53963 763.88446 1457.3866 2433824
241.29337 757.97827 1446.1184 6382173
249.21667 756.02515 1442.3921 2894111
260.23575 763.28156 1456.2363 2170385
267.58008 759.63995 1449.2887 2499096
273.82483 753.20026 1437.0026 3749163
282.40958 753.3913 1437.3671 4735802
290.09714 751.24774 1433.2775 3880749
294.0145 739.7403 1411.3229 4867388
309.36261 756.83386 1443.9349 2236187
319.91876 761.59973 1453.0276 4143924
330.2814 765.66718 1460.7877 4670266
327.81168 740.53821 1412.8452 5065029
345.69363 761.49103 1452.8202 5856085
355.96759 765.07416 1459.6564 4210745
361.79443 759.15588 1448.3651 3946802
362.48071 742.97528 1417.4948 2893862
378.85754 758.95996 1447.9913 4604480
396.16397 776.05792 1480.6119 8421243
393.70886 754.54224 1439.5629 3487025
403.483 756.87921 1444.0216 6052180
410.59525 754.22955 1438.9664 2959910
416.28107 749.12079 1429.2195 3485739
420.86911 742.27942 1416.1671 1051657
427.63672 739.47455 1410.8158 4012337
433.53973 735.31073 1402.8718 1643791
446.8114 743.56616 1418.6221 3354152
454.26083 742.00659 1415.6466 1907223
463.69742 743.69055 1418.8594 985604
468.71979 738.36096 1408.6913 2169877
476.89536 738.09808 1408.1897 1840396
484.14267 736.43237 1405.0117 1511430
492.37573 736.29688 1404.7533 1774859
503.30237 740.12708 1412.0607 3222304
514.56921 744.32404 1420.068 4143404
521.54053 742.27246 1416.1538 5130296
529.08801 741.09283 1413.9033 4012073
543.11835 748.8891 1428.7775 2367509
545.64917 740.83295 1413.4075 4209715
546.45709 730.71667 1394.1069 4933697
553.31354 728.86902 1390.5819 1644306
559.10693 725.69592 1384.5281 6842210
570.22974 729.43176 1391.6556 2170910
590.94745 745.16003 1421.663 3355184
590.85638 734.57599 1401.47 1578516
596.55377 731.3819 1395.3761 393987
604.56134 731.06873 1394.7787 3420464
620.84869 740.64142 1413.042 3551793
618.92255 728.52069 1389.9174 2038555
623.68451 724.4873 1382.2222 2696740
625.62018 717.31781 1368.5438 1578773
629.37579 712.39178 1359.1456 2762789
629.78339 703.84857 1342.8463 4867648
630.82715 696.22052 1328.2931 1906191
646.1969 704.39673 1343.8921 1774348
651.47479 701.50696 1338.3789 1313541
663.66779 706.04333 1347.0337 2102543
670.8576 705.21259 1345.4487 2431509
682.54871 709.07751 1352.8225 2826267
685.91815 704.30804 1343.7229 4405300
694.16986 704.60364 1344.2869 1314059
702.05725 704.52686 1344.1404 722178
714.8186 709.28815 1353.2242 2234388
722.15106 708.61658 1351.943 1313543
724.0965 702.73169 1340.7156 3813675
731.02557 701.75867 1338.8591 1774093
737.80359 700.66302 1336.7688 3879469
746.27954 701.18604 1337.7666 4669241
763.61523 709.935 1354.4584 3024419
768.38361 706.93951 1348.7435 2761247
772.54004 703.44867 1342.0834 3485485
785.66943 708.11603 1350.988 3156775
801.51624 715.11383 1364.3389 2762018
807.20416 712.99854 1360.3032 4012085
815.21094 712.95306 1360.2164 2301467
821.49817 711.41943 1357.2905 2367517
831.39056 713.00726 1360.3198 3880499
847.52386 719.86548 1373.4044 2893351
0 0 0 0
850.64612 708.90625 1352.4957 1446159
860.24896 710.21918 1355.0006 4932933
866.66821 708.90387 1352.4912 3683634
881.02289 714.04407 1362.298 1512208
882.59583 708.82574 1352.3422 2498075
883.23834 702.96075 1341.1526 2629405
891.38647 703.12079 1341.4578 3485224
899.40527 703.17682 1341.5647 3090725
905.04755 701.39014 1338.156 4077877
918.2345 705.43073 1345.8649 1775892
931.82648 709.71008 1354.0293 3946806
935.1593 706.16949 1347.2743 3354669
938.61108 702.77783 1340.8036 3222568
949.69495 705.10962 1345.2523 8157042
965.39685 710.8028 1356.114 5591373
976.10614 712.75635 1359.8412 2301725
997.69135 722.55457 1378.5348 2630947
998.05005 716.94568 1367.8339 1446160
1000.7567 713.10022 1360.4972 2828070
989.75305 699.62476 1334.788 2038554
1004.8054 704.63513 1344.347 1380880
1012.4544 704.41589 1343.9287 2038552
1014.5764 700.38464 1336.2375 4275514
1028.4535 704.46765 1344.0275 526085
1036.2136 704.3302 1343.7653 2630944
1033.1439 696.88989 1329.5701 1117705
1035.4971 693.19226 1322.5155 2038294
1047.2583 695.80078 1327.4923 2630432
1054.7957 695.58527 1327.0811 394242
1058.0845 692.5918 1321.37 590850
1061.9574 690.02179 1316.4668 788228
1061.826 684.90649 1306.7075 1511694
1068.1754 684.01526 1305.0071 854278
1074.8091 683.3175 1303.6759 1709330
1075.7794 679.05487 1295.5435 657157
1088.8622 682.44421 1302.0098 1971726
1097.3798 682.94464 1302.9646 1249031
1103.1603 681.74664 1300.6788 1577995
1107.9435 679.95319 1297.2572 2959645
1121.2601 683.38544 1303.8055 6972762
1125.0233 680.98792 1299.2313 6709848
1132.5718 680.89862 1299.061 5328453
1149.9862 686.70184 1310.1328 5131076
1156.6 686.02118 1308.8341 3617839
1176.6628 693.2735 1322.6705 6184281
1181.4791 691.50616 1319.2987 2960682
1193.3013 693.83557 1323.7429 5790039
1211.5089 699.82318 1335.1665 2894378
1211.6979 695.39221 1326.7128 1907484
1218.2224 694.63092 1325.2603 8815748
1225.3463 694.21881 1324.4741 5394516
1226.8373 690.64099 1317.6482 2433830
1244.0186 695.88538 1327.6537 2170658
1245.8785 692.54712 1321.2848 2565414
1240.5424 685.27557 1307.4116 3223344
1253.3121 688.03381 1312.674 2894379
0 0 0 0
0 0 0 0
0 0 0 0
0 0 0 0
0 0 0 0
0 0 0 0
0 0 0 0
0 0 0 0
0 0 0 0
0 0 0 0
0 0 0 0
0 0 0 0
0 0 0 0
-1373.158 848.29987 1600.3514 4934200
-1358.4545 845.05096 1594.2223 4341292
-1341.447 840.31348 1585.2847 4933686
-1342.4279 846.85687 1597.629 4078376
-1338.4564 850.34668 1604.2129 5459772
-1334.683 854.01331 1611.1301 5394235
-1322.1465 852.08527 1607.4927 4342318
-1330.2422 863.52246 1629.0695 5394497
-1318.8683 862.39594 1626.9441 5986892
-1290.317 849.93781 1603.4415 4737084
-1267.2869 840.9588 1586.5022 4539706
-1260.9747 843.0224 1590.3953 6052946
-1241.2128 836.05756 1577.2557 5526601
-1208.1121 819.93408 1546.8383 6842463
-1222.5354 836.06488 1577.2695 5723981
-1229.4088 847.24103 1598.3539 6250326
-1241.0023 861.86884 1625.9498 4276790
-1228.2892 859.71259 1621.882 4144946
-1208.0131 852.18707 1607.6848 5790027
-1190.0131 846.1604 1596.3152 2434583
-1171.4656 839.64484 1584.0233 6711127
-1163.3013 840.52606 1585.6859 6185042
-1166.2335 849.5047 1602.6244 3223589
-1157.8171 850.29645 1604.118 5065534
-1148.3837 850.34796 1604.2153 7171938
-1133.756 846.52216 1596.9977 3684907
-1136.8286 855.95917 1614.801 394499
-1121.9907 851.95642 1607.2496 3092004
-1137.6493 871.24023 1643.6293 5329221
-1125.0175 869.00421 1639.411 7435112
-1114.4545 868.34131 1638.1604 6513754
-1081.6001 850.14569 1603.8336 3553326
-1107.1166 877.91406 1656.2197 7039585
-1089.4874 871.65967 1644.4205 2894882
-1058.869 854.80634 1612.6261 6776924
-1041.9579 848.81268 1601.3188 5329476
-1019.3315 838.01019 1580.9396 4868669
-1014.4833 841.75867 1588.0112 6842204
-963.28845 806.76166 1521.9879 2303000
-958.72144 810.52338 1529.0846 7500644
-997.50281 851.35419 1606.1135 4210996
-1001.413 862.92273 1627.938 3092515
-984.51495 856.61127 1616.0312 4012844
-976.47815 857.96179 1618.579 3618085
-955.01111 847.42169 1598.6947 4078377
-991.83276 888.91052 1676.9651 4276013
-943.0484 853.74005 1610.6146 3683879
-955.22296 873.60065 1648.0824 1315077
-936.80188 865.60107 1632.991 2039055
-917.99524 857.07477 1616.9056 1512712
-906.83948 855.58704 1614.099 2039058
-897.6795 855.9707 1614.8228 1907214
-890.42029 858.19452 1619.0181 2038544
-878.49646 855.92212 1614.7311 2498836
-863.82599 850.89404 1605.2454 5724490
-851.93475 848.52209 1600.7708 6514005
-847.48322 853.59021 1610.3319 7566436
-840.32458 856.01599 1614.9082 4671028
-817.05182 841.89362 1588.2657 4671028
0 0 0 0
-796.44714 840.00977 1584.7118 3354914
-770.8385 822.69806 1552.0526 4802362
-757.06732 817.75476 1542.7268 2368025
-750.6004 820.67676 1548.2394 2894365
-749.42889 829.53253 1564.9462 3420710
-742.0954 831.70416 1569.043 7696742
-721.47864 818.85468 1544.8019 525825
-712.36475 818.89819 1544.884 2828315
-702.63269 818.22302 1543.6104 4341297
-694.19232 819.05402 1545.178 3682596
-684.33856 818.21741 1543.5996 3814435
-679.0379 822.87561 1552.3876 3749414
-671.52856 824.94843 1556.298 7368284
-672.46588 837.59985 1580.1654 6184267
-654.79956 827.10938 1560.3748 1908754
-646.27838 828.03546 1562.1218 3618086
-640.05273 831.97235 1569.5488 3815209
-634.46259 836.86353 1578.7764 1709321
-628.31982 841.16125 1586.8842 5591616
-613.68243 834.04468 1573.4585 4999479
-602.18604 831.04321 1567.7961 1907209
-594.3822 833.12347 1571.7206 3223071
-587.73932 836.92322 1578.8889 986629
-577.70929 835.94452 1577.0426 3157537
-565.84601 832.23743 1570.049 3026207
-558.22858 834.75543 1574.7993 3026719
-548.76355 834.54926 1574.4104 6711129
-540.19507 835.72302 1576.6246 6250320
0 0 0 0
0 0 0 0
-474.23569 773.81805 1459.8385 5920849
-490.98395 816.02802 1539.4692 7105637
-466.02438 789.20435 1488.8652 6184535
-455.00284 785.40466 1481.6971 6908002
-442.57599 778.98218 1469.5808 4408379
-436.4559 783.62518 1478.3401 6381656
-424.31839 777.43335 1466.6589 4342327
-411.4964 769.70221 1452.0737 8290163
-403.28174 770.44299 1453.4713 3816498
-401.336 783.45386 1478.0167 3092264
-392.21326 782.72211 1476.6364 4671295
-394.27994 804.79669 1518.2809 4671551
-387.84659 810.14673 1528.374 5000259
-382.04242 817.09827 1541.4884 3684401
-373.55365 818.50793 1544.1478 592134
-360.25705 809.18933 1526.5679 2500384
-344.13498 792.88104 1495.8015 1710610
-332.17953 785.56415 1481.9979 2631714
-324.92221 789.26208 1488.9742 2171159
-323.74011 808.33551 1524.957 3288866
-311.33121 799.66736 1508.6042 4736056
-300.19376 793.84918 1497.6281 1907475
-293.9202 800.93079 1510.9877 3617571
-284.94458 800.86261 1510.8593 6710613
-276.18332 801.41241 1511.8962 4473395
-266.30688 798.65436 1506.6932 2235660
-257.54654 799.1684 1507.663 4472621
-241.78049 777.19958 1466.218 2235152
-237.01942 790.28717 1490.9081 3617057
-228.43773 791.15558 1492.5465 4801331
-219.6727 791.43347 1493.0708 2696473
-210.9549 791.91217 1493.9738 3683625
-201.49976 789.54358 1489.5052 1906958
-192.61415 789.29181 1489.0303 3223074
-183.7666 789.17926 1488.818 3354403
-169.37344 764.03931 1441.3905 3288612
-157.55684 748.46973 1412.0179 3090457
-154.06781 772.93225 1458.1674 2761749
-145.89223 775.39258 1462.809 5327676
-138.06235 780.11719 1471.722 6446666
-130.94148 789.75488 1489.9041 4144681
