# .PCD v0.7 - Point Cloud Data file format
VERSION 0.7
FIELDS x y z rgb
SIZE 4 4 4 4
TYPE F F F U
COUNT 1 1 1 1
WIDTH 1326
HEIGHT 1
VIEWPOINT 0 0 0 1 0 0 0
POINTS 1326
DATA ascii
-3764.002 385.10846 7670.1592 6448995
-3692.5647 382.41608 7616.5352 6646375
-3612.3591 378.73776 7543.2744 7106669
-3676.6741 390.30933 7773.7437 6646120
-3665.8062 394.09189 7849.0811 6514534
-3701.5994 403.05246 8027.5479 6448740
-3615.5906 398.8111 7943.0728 6119772
-3472.062 388.02963 7728.3394 5790807
-3420.363 387.3598 7714.9985 5724500
-3324.7781 381.63437 7600.9658 5790294
-3321.7883 386.52625 7698.3965 5593173
-3326.0884 392.41428 7815.668 5462103
-3235.4502 387.10962 7710.0156 5988191
-3228.1086 391.76181 7802.6733 6646122
-3223.9788 396.94464 7905.8989 5461848
-3175.2397 396.70697 7901.165 5593435
-3120.6514 395.7204 7881.5156 5922401
-3084.1089 397.02692 7907.5381 6382950
-2999.9309 392.14697 7810.3442 6317158
-2972.1851 394.60638 7859.3276 5461849
-2949.7161 397.85587 7924.0469 6448999
-2872.8577 393.75574 7842.3853 5725277
-2764.4658 385.12778 7670.5435 6054242
-2659.0396 376.63147 7501.3237 5593178
-2667.9504 384.31659 7654.3872 5856608
-2622.1836 384.25494 7653.1597 5987938
-2543.6018 379.29785 7554.4297 6185317
-2448.8423 371.70758 7403.2554 6251110
-2358.4172 364.51041 7259.9097 5988194
-2239.6453 352.58322 7022.3574 5791070
-2220.4529 356.17792 7093.9531 6185315
0 0 0 0
0 0 0 0
0 0 0 0
0 0 0 0
0 0 0 0
0 0 0 0
0 0 0 0
-652.93384 123.42386 2458.2183 13
-635.82678 122.932 2448.4219 22
-622.72748 123.21014 2453.9614 3159377
-606.69678 122.90769 2447.9377 11582163
-591.37354 122.73727 2444.5435 2436156
-586.43909 124.76858 2485.0007 3226710
-567.08081 123.75673 2464.8479 12308949
-558.17566 125.03289 2490.2651 1646658
-541.54572 124.60104 2481.6638 8097198
-530.45898 125.45603 2498.6926 11520725
-520.53699 126.64352 2522.3438 798
-503.3678 126.08586 2511.2371 726834
-486.97806 125.69546 2503.4612 523
0 0 0 0
0 0 0 0
0 0 0 0
0 0 0 0
-1188.4536 361.85803 7207.083 4935503
-1129.5719 356.74631 7105.2734 5330261
-1097.6394 360.0795 7171.6602 5330517
-1049.2487 358.06467 7131.5312 5593434
-1022.1553 363.45355 7238.8608 5330005
-986.65472 366.19415 7293.4448 5988192
-965.43243 374.72784 7463.4092 5988192
-918.36011 373.56552 7440.2593 5856605
-847.5426 362.14005 7212.6997 4803916
-810.28418 364.60196 7261.7334 5198674
-747.53174 355.22522 7074.978 6054240
-693.46606 349.10767 6953.1353 5659482
-667.14331 357.06589 7111.6387 5988192
-626.86914 358.12665 7132.7656 5856605
-591.17542 362.14667 7212.832 5396311
-547.55298 361.55768 7201.1011 5264468
-501.28937 358.97778 7149.7178 5988192
-452.61557 354.03644 7051.3013 5395798
-413.91684 356.6861 7104.0742 5395541
-372.55371 357.37967 7117.8877 5264213
-328.55264 355.39679 7078.395 4540748
-286.15878 354.82657 7067.0386 4474956
-243.64848 353.89182 7048.4209 3751234
-199.88513 350.37396 6978.3564 3093819
-158.68533 350.6868 6984.5869 6318459
-117.70382 351.87292 7008.2109 6911115
-76.502296 353.33566 7037.3442 6451338
-34.492432 350.09732 6972.8467 6187912
6.8020077 349.36365 6958.2339 5924740
48.263123 351.10202 6992.8569 5529722
90.767197 355.31729 7076.812 5858171
131.39401 351.84207 7007.5962 4805224
174.52281 355.12674 7073.0166 5002343
216.26094 354.8576 7067.6562 5397100
258.42346 355.25916 7075.6543 6186616
297.95206 352.43314 7019.3687 5200235
345.25253 358.36642 7137.541 6319232
381.76163 353.02582 7031.1729 6977938
433.36414 361.32022 7196.3716 8491438
475.84918 361.20798 7194.1357 7570338
513.31976 357.6207 7122.6885 6057357
572.00433 368.23517 7334.0957 7767975
606.74713 363.02618 7230.3486 7833768
666.84161 372.67227 7422.4688 7834024
689.20581 361.34332 7196.8315 7176094
744.71167 367.69794 7323.3955 7439268
798.50757 372.55508 7420.1348 7899564
847.16693 374.63388 7461.5381 7965870
879.15942 369.50156 7359.3184 8097970
925.59741 370.63867 7381.9658 8032177
964.21497 368.68292 7343.0137 7966383
990.51868 362.3909 7217.6958 7570853
1033.0087 362.29645 7215.8149 8162989
1061.049 357.34314 7117.1602 6321300
1117.4525 361.95554 7209.0249 8097713
1161.0078 362.21994 7214.291 8229299
1195.5685 359.75897 7165.2764 7966642
1220.2913 354.60797 7062.6841 8032178
1263.5472 355.00552 7070.6025 7966129
1313.8789 357.30176 7116.3359 8097715
1349.6847 355.62781 7082.9966 7900079
1379.2255 352.4538 7019.7798 7900078
1422.5294 352.87979 7028.2646 7834541
1466.3094 353.39624 7038.5508 7900333
1518.5029 355.85587 7087.5386 7965871
1579.2155 360.12576 7172.582 7834541
1601.6947 355.68164 7084.0684 7571370
1659.7721 359.16772 7153.5005 7571369
1695.267 357.71509 7124.5688 7966128
1736.7758 357.57129 7121.7041 7834797
1777.5706 357.29068 7116.1157 7900080
1791.7489 351.79718 7006.7026 7900080
1822.9651 349.82199 6967.3628 7900337
1877.397 352.29062 7016.5298 8031923
1930.0641 354.32831 7057.1147 8031921
1953.245 350.98117 6990.4502 8162994
1990.8116 350.30441 6976.9707 8162994
0 0 0 0
2078.2554 351.11151 6993.0459 7965871
2118.375 350.89471 6988.728 7966127
2180.272 354.22433 7055.0439 8031664
2212.7446 352.73816 7025.4438 8097713
2238.8274 350.30704 6977.0234 7966384
2311.2759 355.08728 7072.231 8031920
2328.4951 351.36343 6998.0635 7966128
2343.45 347.43408 6919.8032 8031922
2412.0652 351.45871 6999.9609 7966128
2455.2517 351.70468 7004.8599 7966129
2483.3123 349.81177 6967.1592 8031922
2535.0874 351.26669 6996.1367 7900335
2574.0813 350.93228 6989.4761 8031152
2621.5244 351.74213 7005.606 8031408
2700.3857 356.67657 7103.8848 7899821
2814.2966 366.01804 7289.937 7833771
2978.4045 381.5069 7598.4268 4543609
2954.4998 372.81033 7425.2188 7834030
3025.9084 376.21951 7493.1191 7768236
3041.6926 372.71417 7423.3037 7768236
3042.6069 367.51266 7319.7056 7899822
3071.0686 365.73798 7284.3594 7834029
3118.4238 366.23135 7294.186 7768235
3136.0173 363.26373 7235.0806 7768236
3161.3882 361.26495 7195.271 7768236
3177.3879 358.2627 7135.4751 7768747
3196.5876 355.69534 7084.3418 7768490
3175.0256 348.71765 6945.3672 7768490
3204.2637 347.42648 6919.6514 7834283
3176.4841 340.0639 6773.0117 7702954
3246.3279 343.20578 6835.5884 7833770
3279.9746 342.49063 6821.3447 7833772
3289.2322 339.27722 6757.3438 7899309
3351.6526 341.55875 6802.7847 7899308
3356.3662 337.97522 6731.4116 7833515
3416.7769 340.01843 6772.1064 7833772
3471.7444 341.47891 6801.1943 7767723
3487.1411 339.05829 6752.9834 7767721
3533.6685 339.68515 6765.4688 7701928
3575.7512 339.87552 6769.2598 7701928
3639.6079 342.10834 6813.7305 7833514
3696.4758 343.6424 6844.2847 7636135
3732.5039 343.22687 6836.0083 7570599
3747.8345 340.93738 6790.4092 7570342
3795.1462 341.57498 6803.1079 7636135
3862.928 344.02209 6851.8472 7636135
3914.0945 344.9541 6870.4092 7636134
3966.8223 346.00302 6891.3008 7701927
3989.1167 344.40311 6859.4355 7636134
4001.4211 341.98169 6811.2085 7570341
4051.7434 342.82538 6828.0117 7570598
4118.3354 345.01538 6871.6299 7701927
4159.0312 345.01428 6871.6079 7702183
4195.1348 344.63593 6864.0723 7636648
4239.2769 344.91888 6869.708 7636648
4260.6543 343.36191 6838.6978 7833516
4292.1558 342.64243 6824.3677 7833516
4359.7651 344.79196 6867.1802 7833516
4385.7993 343.6442 6844.3198 7767721
4418.0552 343.00049 6831.4995 7636392
4455.0942 342.73642 6826.2402 7504806
4486.1431 342.02045 6811.9805 7570342
4531.5342 342.40094 6819.5581 7373222
4591.9102 343.89691 6849.3535 7438758
4625.8701 343.4057 6839.5698 7438757
4644.0122 341.75891 6806.7715 7438758
4749.1069 346.48438 6900.8882 7438756
4816.9268 348.43292 6939.6968 7438757
4896.7114 351.20663 6994.9399 7504549
4832.1245 343.66586 6844.752 7439013
4969.4297 350.48993 6980.666 7504549
5205.124 364.08344 7251.4062 7504806
5187.0156 359.84692 7167.0278 7372708
5211.188 358.58859 7141.9658 7109279
5250.8789 358.40976 7138.4043 6648729
5266.0244 356.57181 7101.7979 6253970
5274.4043 354.30847 7056.7192 7175584
5247.1147 349.70349 6965.0024 7636136
5257.7969 347.68134 6924.7275 7570343
5269.3081 345.7449 6886.1597 7636133
5303.3833 345.30734 6877.4448 7635877
5336.6006 344.82108 6867.7598 7635621
5365.2485 344.0491 6852.3843 7635365
5392.7485 343.2157 6835.7856 7635364
5535.6494 349.68448 6964.624 7569830
5578.9028 349.80948 6967.1133 7570085
5529.1895 344.14624 6854.3193 7570343
5541.9385 342.42499 6820.0371 7373220
5548.2905 340.33621 6778.4355 7438756
5480.7119 333.77515 6647.7593 7438499
5487.8789 331.82721 6608.9624 7438242
5462.854 327.97415 6532.2217 7372705
5462.853 325.66708 6486.272 7306657
5478.0439 324.2916 6458.8765 7306913
5502.9277 323.505 6443.2104 7372193
5483.5669 320.14615 6376.3125 7306913
5456.7656 316.40179 6301.7363 7372706
5443.5728 313.49203 6243.7832 7306914
5441.2886 311.24557 6199.0405 7372450
5478.3232 311.26318 6199.3911 7306913
5536.748 312.48779 6223.7822 7241121
5532.1968 310.16544 6177.5278 7372707
5579.6553 310.77039 6189.5767 7372707
5605.5493 310.17419 6177.7021 7241121
5653.5918 310.80334 6190.2329 7241121
5731.6699 313.06494 6235.2769 7109791
5787.1299 314.07007 6255.2959 7109535
5894.9985 317.88855 6331.3481 7109535
6127.6289 328.34402 6539.5884 7175327
6209.0942 330.61893 6584.8975 7043745
6251.813 330.81516 6588.8057 7044002
6263.1011 329.35611 6559.7461 7043742
0 0 0 0
0 0 0 0
0 0 0 0
0 0 0 0
-7038.188 433.50244 7722.7881 7106671
-6996.7832 433.77185 7727.5879 7304050
-6980.1553 435.59113 7759.9976 6317155
-6861.7148 431.03885 7678.8989 5856604
-6889.0952 435.64703 7760.9937 6843500
-6850.9409 436.14511 7769.8667 7172465
-6848.125 438.91483 7819.2085 6843502
-6784.6182 437.80591 7799.4541 6777708
-6703.6636 435.54825 7759.2334 6646122
-6597.3931 431.60321 7688.9536 6975088
-6607.3843 435.26205 7754.1353 6514534
-6566.3281 435.58588 7759.9038 6646120
-6589.4414 440.20099 7842.1216 6843499
-6610.1475 444.71967 7922.6216 6646120
-6529.2061 442.41547 7881.5728 6843499
-6236.7744 425.64435 7582.7979 7172465
-6359.7163 437.18378 7788.3706 6975086
-6291.4644 435.65271 7761.0942 6843499
-6232.2534 434.72961 7744.6499 7238257
-6141.4819 431.57507 7688.4521 6317155
-5799.6714 410.60052 7314.7935 6712170
-5749.2588 410.09564 7305.7988 7041135
-5604.5928 402.80896 7175.9883 7238257
-5420.8716 392.58261 6993.8062 6317156
-5643.9111 411.8833 7337.6465 5922654
-5525.9487 406.40479 7240.0469 6185826
-5687.9414 421.59085 7510.5845 6316899
-5414.7349 404.505 7206.2026 5988190
-5364.0449 403.90268 7195.4727 6119777
-5425.5005 411.80276 7336.2114 5593685
-5177.9902 396.19012 7058.0742 5396564
0 0 0 0
0 0 0 0
0 0 0 0
-3109.8008 245.88652 4380.4355 24
-3100.0698 247.17978 4403.4746 29
-3086.179 248.16046 4420.9458 31
-3068.1296 248.82072 4432.708 30
0 0 0 0
0 0 0 0
0 0 0 0
0 0 0 0
-4746.9282 402.1803 7164.7881 5460814
-4849.8008 414.60333 7386.103 6184793
-4707.5776 406.10895 7234.7769 6250842
-4627.2285 402.84521 7176.6338 6513502
-4619.6274 405.91309 7231.2876 6184793
-4580.252 406.22031 7236.7607 6053207
-4558.1265 408.07773 7269.8501 6053465
-4491.4756 405.94626 7231.8784 6316380
-4346.6602 396.64111 7066.1084 5855830
-4315.1714 397.59686 7083.1348 5592913
-4304.6162 400.51907 7135.1938 5197899
-4297.9795 403.86746 7194.8452 6250842
-4258.5361 404.16931 7200.2227 6316378
-4152.4355 398.08694 7091.8657 6513758
-4151.9619 402.11005 7163.5366 6842723
-4136.7153 404.77078 7210.937 5724242
-4049.9148 400.41245 7133.2939 5789779
-4073.8638 407.02744 7251.1396 5132105
-3942.9958 398.15048 7092.998 4474175
-3904.5564 398.51602 7099.5098 4869190
-3904.2988 402.82892 7176.3433 6514014
-3824.1494 398.9032 7106.4067 6185307
-3872.4863 408.44174 7276.3354 6250843
-3782.2913 403.41931 7186.8613 6580065
-3724.9065 401.8219 7158.4033 7303788
-3684.7314 402.06552 7162.7437 5790548
-3667.0364 404.79642 7211.394 6974567
-3610.2939 403.23047 7183.4966 6777699
-3561.8574 402.56589 7171.6577 6514271
-3571.8379 408.56735 7278.5732 5856084
-3524.7031 408.10254 7270.2925 6448221
-3473.3606 407.13297 7253.019 6250842
-3454.6533 410.01236 7304.3159 5132616
-3417.3997 410.73578 7317.2031 6250584
-3415.2527 415.75146 7406.5566 6118997
-3260.3945 402.06561 7162.7451 5526601
-3206.4919 400.63266 7137.2168 5460551
-3211.1584 406.577 7243.1147 5658444
-3163.3091 405.94312 7231.8223 5460810
-3253.825 423.2919 7540.8882 6579294
-3125.9497 412.3175 7345.3809 5922134
-3045.8164 407.41937 7258.1216 6053463
-3027.137 410.71896 7316.9038 6185562
-3017.9263 415.41785 7400.6138 5132619
-2898.0142 404.79257 7211.3252 5395535
-2834.0918 401.7869 7157.7803 5527378
-2864.2212 412.22617 7343.7544 6119257
-2774.2788 405.43985 7222.8569 4737091
-2734.2246 405.84592 7230.0908 4473920
-2649.9136 399.59125 7118.6646 5065800
-2581.5806 395.58258 7047.251 5460816
-2569.8398 400.2565 7130.5166 5855830
-2501.1643 396.07077 7055.9478 5329486
-2473.95 398.41986 7097.7969 5658451
-2411.6833 395.1076 7038.7891 5527121
-2358.6516 393.21838 7005.1328 5724758
-2336.3191 396.47107 7063.0791 5658710
-2271.5642 392.51205 6992.5503 6579811
-2220.425 390.80243 6962.0928 5724501
-2171.9766 389.51062 6939.0796 4803399
-2014.2521 368.19391 6559.3252 5132108
0 0 0 0
0 0 0 0
0 0 0 0
0 0 0 0
0 0 0 0
0 0 0 0
-647.13556 136.76152 2436.3884 11
-635.89124 137.45094 2448.6702 17
-621.48596 137.47333 2449.0688 3029072
-601.39258 136.2085 2426.5361 12636626
-593.64459 137.74626 2453.9314 7109265
-583.72852 138.84555 2473.5149 7701165
-565.53241 137.98126 2458.1177 4345451
-553.83643 138.69911 2470.906 11518422
-542.47827 139.54285 2485.9373 11585234
-529.70978 140.06076 2495.1638 12111576
-508.29459 138.25652 2463.0212 792
-504.49002 141.27727 2516.8357 726826
-488.13895 140.86151 2509.429 132104
0 0 0 0
0 0 0 0
0 0 0 0
-1137.441 373.76178 6658.5161 5461846
-1111.5765 378.38513 6740.8809 5395539
-1061.2723 374.72375 6675.6533 6053469
-1019.889 374.0506 6663.6616 5921882
-996.94141 380.35699 6776.0093 5198159
-972.91901 386.76529 6890.1719 5461332
-938.8833 389.5799 6940.314 3553335
-879.01465 381.44235 6795.3442 4474437
-858.4538 390.39963 6954.917 5790041
-813.82843 388.76453 6925.7881 5526871
-768.10071 386.40125 6883.6865 5724250
-728.95758 387.27115 6899.1836 5461078
-676.38324 380.68494 6781.8516 5263699
-635.62518 380.3374 6775.6602 5264469
-595.9259 380.61926 6780.6816 5264469
-561.48291 384.54175 6850.5596 5659226
-522.87195 385.99847 6876.5112 5000781
-467.88232 374.58853 6673.2446 3948091
-428.38733 374.62244 6673.8491 4408385
-398.78381 384.19293 6844.3457 5527124
-357.13019 383.00656 6823.2104 4869195
-317.64499 384.13977 6843.3984 3684923
-277.61032 384.84286 6855.9238 5132371
-233.14746 378.59619 6744.6406 4672333
-192.66365 377.56339 6726.2412 5659227
-151.7379 374.90002 6678.7939 5856606
-111.30333 371.99939 6627.1191 5922399
-71.869629 371.10532 6611.1914 6777708
-33.659546 381.9548 6804.4741 5922398
6.5376616 375.40649 6687.8169 5067089
46.088093 374.83957 6677.7168 5395541
86.4002 378.12979 6736.332 3882558
125.74944 376.45837 6706.5557 4803660
162.78094 370.31683 6597.145 5395797
208.58578 382.64801 6816.8232 4738125
247.71248 380.715 6782.3867 4080195
284.41708 376.11856 6700.502 4803918
323.83643 375.79831 6694.7969 5396055
364.97449 377.32486 6721.9917 5132883
397.53683 370.55731 6601.4292 5527383
439.46191 372.94775 6644.0142 4869710
491.20291 382.59064 6815.8008 4672331
525.44006 378.17065 6737.0596 3553594
572.66077 383.0596 6824.1558 3290680
622.77594 389.1123 6931.9839 5330006
656.4682 384.78979 6854.9785 5066576
700.86316 386.87885 6892.1948 5264214
743.12244 387.6239 6905.4683 5132885
777.36469 384.32758 6846.7446 5725538
805.43994 378.46048 6742.2231 4869718
863.10126 386.39285 6883.5371 5198941
895.14587 382.65881 6817.0156 5330267
933.56195 381.85324 6802.6646 3948357
972.50183 381.31973 6793.1597 5593179
1008.5945 379.75659 6765.313 5330008
1070.303 387.58917 6904.8491 5593441
1120.0303 390.66608 6959.6636 4606807
1117.2878 375.87286 6696.125 3488583
1164.5114 378.32706 6739.8462 5593962
1213.7397 381.24829 6791.8877 4738653
1259.4279 382.9057 6821.4141 2830655
1308.8617 385.56348 6868.7617 6449269
1319.001 376.83463 6713.2588 4080463
1367.0297 379.12479 6754.0576 3422277
1416.076 381.55896 6797.4219 4079949
1452.0099 380.42303 6777.1855 4212050
1489.042 379.62823 6763.0264 6185839
1529.615 379.75418 6765.27 4212820
1577.1399 381.55554 6797.3613 5528683
1591.7783 375.50916 6689.6455 4936547
1642.4534 378.05118 6734.9316 4541533
1698.5797 381.69769 6799.8936 2567228
1732.2623 380.24863 6774.0781 4870241
1760.4066 377.67694 6728.2642 6120821
1765.6309 370.41077 6598.8184 6120824
1799.2219 369.28156 6578.7017 4871272
1850.6561 371.78476 6623.2959 4410467
1902.1715 374.20004 6666.3237 4081245
1932.5056 372.43497 6634.8789 5660021
1966.3772 371.40839 6616.5908 5331313
2005.4041 371.37668 6616.0264 3818072
2035.5518 369.73337 6586.7505 4607845
2061.8745 367.47018 6546.4326 6318722
2089.7517 365.56253 6512.4478 6384773
2153.9656 369.96518 6590.8804 5529722
2172.5747 366.51746 6529.4595 6779795
2241.823 371.58386 6619.7168 7832998
2306.1147 375.66864 6692.4863 7439013
2330.3101 373.19394 6648.4004 7834285
2361.1768 371.85214 6624.4961 8032177
2404.5022 372.48425 6635.7573 8031920
2452.1262 373.75119 6658.3276 7834541
2508.502 376.29089 6703.5718 8031664
2560.8044 378.14984 6736.689 8031408
2599.4558 377.96692 6733.4302 8097202
2781.8889 398.3797 7097.0811 6452120
2818.9563 397.67752 7084.5723 7768235
2890.7415 401.82184 7158.4028 7768493
2877.2542 394.16455 7021.9893 7768750
2890.4688 390.33139 6953.7017 7768749
2891.1929 384.94293 6857.707 7702956
2925.0955 384.06009 6841.979 7768749
2926.5854 379.00378 6751.9019 7834285
2935.5583 375.03989 6681.2856 7768493
2961.9321 373.37497 6651.625 7768749
2985.6824 371.42737 6616.9292 7702956
3031.6646 372.26013 6631.7646 7768749
3077.9626 373.10989 6646.9028 7768749
3122.8718 373.77191 6658.6968 7768749
3150.0022 372.31607 6632.7612 7768749
3192.8865 372.7352 6640.228 7768749
3204.2544 369.50974 6582.7666 7702956
3241.2141 369.27753 6578.6299 7768239
3305.6956 372.14917 6629.7881 7768238
3330.7625 370.5683 6601.6245 7768239
3373.1733 370.9313 6608.0918 7768238
3424.7693 372.28448 6632.1982 7768495
3489.3042 374.9975 6680.5303 7898798
3527.3608 374.83597 6677.6523 7833262
3572.9268 375.4671 6688.896 7635883
3625.3484 376.79694 6712.5874 7701419
3663.0879 376.5885 6708.874 7439274
3628.533 369.03204 6574.2563 7439272
3684.7017 370.76486 6605.1265 7439271
3727.2043 371.10065 6611.1084 7439271
3746.1511 369.10849 6575.6182 7439528
3790.0796 369.59344 6584.2578 7505065
3846.0835 371.23404 6613.4849 7505064
3823.7837 365.35971 6508.8345 7505064
3852.9846 364.47443 6493.063 7439272
3958.8845 370.79025 6605.5786 7570858
4050.8833 375.69321 6692.9243 7505321
3976.5742 365.22668 6506.4644 7505322
4037.6152 367.27289 6542.9175 7505321
4084.3064 367.9873 6555.6445 7570857
4077.676 363.92935 6483.353 7636908
4111.3843 363.51379 6475.9497 7571114
4147.7754 363.34088 6472.8691 7571114
4159.6138 361.04001 6431.8794 7570858
4033.5261 346.91812 6180.3003 7505065
4309.0747 367.28378 6543.1113 7505065
4325.1313 365.36563 6508.9399 7373479
4338.6924 363.27249 6471.6509 7307942
4367.335 362.46768 6457.3135 7242149
4410.043 362.83405 6463.8403 7307942
4450.0029 362.97003 6466.2627 7307686
4468.4199 361.36148 6437.6064 7373479
4495.4146 360.46793 6421.688 7307942
4551.9287 361.93658 6447.8516 7307685
4605.1016 363.11734 6468.8872 7373478
4694.064 367.07733 6539.4341 7307685
4731.7612 366.9964 6537.9917 7373478
4804.9478 369.64694 6585.2109 7373221
4879.5581 372.36346 6633.6055 7439015
4988.6602 377.64761 6727.7422 7636137
5006.2612 375.97623 6697.9663 7241122
5145.9775 383.42996 6830.7539 6451349
5114.9482 378.14432 6736.5903 6582936
5053.5571 370.71326 6604.207 6846108
5066.6719 368.81989 6570.4771 7438500
5051.5156 364.91315 6500.8789 7570086
5061.8882 362.89572 6464.939 7635879
5098.2441 362.75742 6462.4751 7504293
5167.062 364.9137 6500.8892 7635623
5126.6411 359.38043 6402.3145 7570085
5145.8931 358.08081 6379.1616 7569829
5163.0298 356.65399 6353.7432 7504293
5209.5444 357.26254 6364.5845 7504293
5173.3833 352.23331 6274.9893 7439012
5177.6206 350.00674 6235.3237 7504805
4872.9517 327.07761 5826.8442 7438756
5178.4556 345.13843 6148.5952 7570343
5151.3433 340.93329 6073.6807 7504807
5044.437 331.54208 5906.3779 7504551
5048.6958 329.53613 5870.6421 7569830
5118.1045 331.78101 5910.6343 7504037
5081.209 327.15106 5828.1523 7504294
5083.2319 325.07239 5791.1211 7569830
5114.1978 324.86011 5787.3394 7635623
5161.8311 325.70233 5802.3433 7569574
5298.167 332.09332 5916.1982 7504037
5328.3242 331.78876 5910.772 7635367
5344.3062 330.61121 5889.7944 7569574
5390.1284 331.28296 5901.7617 7504294
5439.6694 332.17316 5917.6201 7504294
5413.0488 328.43091 5850.9526 7438501
5450.4175 328.59402 5853.8589 7372707
5356.2134 320.87305 5716.3105 7307171
5441.877 323.95667 5771.2446 7504294
5625.0459 332.77005 5928.2539 7372965
5663.186 332.94757 5931.4165 7307172
0 0 0 0
0 0 0 0
0 0 0 0
0 0 0 0
-6642.061 452.28033 7288.1299 7040364
-6663.5586 456.71304 7359.5591 6908778
-6819.3901 470.47183 7581.271 7040364
-6776.1313 470.58676 7583.1226 7237743
-6592.1709 460.86658 7426.4897 7566708
-6461.0278 454.73306 7327.6533 7698294
-6494.5654 460.18542 7415.5137 7566706
-6377.1689 454.94443 7331.0591 7171692
-6275.5664 450.76599 7263.7271 7237742
-6279.0918 454.13324 7317.9878 5987674
-6111.1509 445.05984 7171.7773 5921881
-6103.6201 447.62347 7213.0884 6711397
-6100.2271 450.52881 7259.9053 6514018
-6040.249 449.26675 7239.5679 6448225
-6114.5527 458.04565 7381.0337 6053466
-6065.1455 457.6171 7374.1274 7040362
-5889.0996 447.55807 7212.0342 5987674
-5988.835 458.46393 7387.7729 6448225
-5681.7285 438.15601 7060.5278 6316639
-5754.4209 447.05298 7203.895 6382432
-5692.7642 445.5675 7179.9575 5921882
-5395.1528 425.45267 6855.8232 5987674
-5348.7993 424.99673 6848.4766 5790295
-5160.7471 413.1889 6658.2031 5790295
-5320.4009 429.25226 6917.0508 6119259
-5049.0415 410.52075 6615.2075 6579811
-5249.5859 430.16519 6931.7622 6580579
-5296.1353 437.40118 7048.3643 6712165
-5261.9229 438.02917 7058.4839 6646371
0 0 0 0
0 0 0 0
0 0 0 0
0 0 0 0
-3145.5278 272.68469 4394.0923 18
-3127.77 273.40796 4405.7466 25
-3103.407 273.56113 4408.2148 29
-3088.4851 274.55618 4424.2495 32
-3067.4868 275.02347 4431.7793 29
-3057.2324 276.4704 4455.0957 26
-3046.5359 277.90222 4478.1685 197140
0 0 0 0
0 0 0 0
-4480.1382 419.63687 6762.1069 5263431
-4578.5742 432.72635 6973.0332 5855570
-4435.6333 423.03363 6816.8428 6184793
-4423.5532 425.7579 6860.7422 6052437
-4391.4106 426.58371 6874.0498 5855828
-4362.8179 427.77319 6893.2168 5855826
-4281.9858 423.81461 6829.4277 5855827
-4142.7627 413.94604 6670.4038 4408379
-4172.9434 420.97733 6783.707 5066052
-4100.8154 417.72385 6731.2798 5066052
-4073.7683 419.04361 6752.5474 5263431
-4047.6042 420.48141 6775.7153 5592397
-3987.2217 418.35751 6741.4912 5197896
-3976.8823 421.49457 6792.0425 6118997
-3968.3147 424.88547 6846.6836 5526860
-3961.8362 428.57242 6906.0957 5724240
-3880.783 424.18491 6835.395 5921621
-3762.803 415.62613 6697.4771 5329484
-3719.6072 415.23337 6691.1479 6316636
-3666.9866 413.76865 6667.5454 6053465
-3680.9365 419.86548 6765.79 5198156
-3643.938 420.22101 6771.52 5921879
-3627.4858 422.98035 6815.9844 4868934
-3557.1438 419.44727 6759.0513 5987414
-3516.7422 419.40436 6758.3599 7237482
-3430.5217 413.83325 6668.5864 6382172
-3594.1162 438.61929 7067.9932 7171945
-3451.0322 426.12201 6866.6094 5592653
-3373.4329 421.50888 6792.2725 5855569
-3374.7493 426.76385 6876.9526 5460811
-3260.8286 417.39658 6726.0068 5921362
-3183.2905 412.51221 6647.2988 5592653
-3195.7136 419.30933 6756.8286 6185046
-3180.8201 422.6492 6810.6479 3289896
-3188.8984 429.16644 6915.6685 5197893
-3115.5527 424.75262 6844.543 5592650
-3002.7051 414.76587 6683.6147 5198150
-3032.0583 424.41702 6839.1353 5527114
-2993.4331 424.68536 6843.4595 5658447
-2910.6987 418.61725 6745.6768 5658447
-2929.9502 427.25211 6884.8198 5724755
-2883.8992 426.47366 6872.2759 5001032
-2722.2822 408.33823 6580.0381 5658705
-2752.9973 418.94449 6750.9497 5329484
-2750.8464 424.7883 6845.1182 4605505
-2679.4673 419.9567 6767.2607 4539713
-2659.4663 423.15326 6818.7705 5329485
-2609.2205 421.56189 6793.1265 5329485
-2547.0752 417.9679 6735.2129 4671811
-2496.4966 416.18781 6706.5283 5066313
-2455.3416 415.94662 6702.6416 5526863
-2409.7468 414.93295 6686.3071 5855571
-2372.8833 415.414 6694.0586 5395277
-2307.2188 410.78357 6619.4429 5789777
-2313.2634 418.98105 6751.5386 5263944
-2311.8081 426.08475 6866.0088 5329735
-2254.1021 422.88968 6814.5234 5066307
-2243.2317 428.52521 6905.335 4144948
-2119.9258 412.4924 6646.9795 4408635
-2036.4883 403.75717 6506.2183 4803395
-1960.7661 396.24405 6385.1504 5198156
0 0 0 0
0 0 0 0
0 0 0 0
0 0 0 0
0 0 0 0
0 0 0 0
-647.00262 151.16418 2435.8879 11
-636.42432 152.08481 2450.7229 17
-619.49896 151.49625 2441.2388 1447714
-604.87408 151.45558 2440.5835 12570834
-596.49908 153.01616 2465.731 12308179
-579.30396 152.33572 2454.7664 12572893
-575.40771 155.20741 2501.0413 525
-550.8222 152.50279 2457.4583 12637144
-544.28784 154.78471 2494.2297 11849170
-534.23932 156.16672 2516.4998 11586511
-503.32379 151.35324 2438.9343 1251626
-501.02145 155.11372 2499.5315 660777
-490.44119 156.4624 2521.2644 782
0 0 0 0
0 0 0 0
0 0 0 0
-1117.8226 406.08133 6543.6704 4802888
-1083.8301 407.87781 6572.6191 5131851
-1039.2975 405.69385 6537.4258 4737349
-1003.2977 406.80048 6555.2588 5329743
-970.28137 409.25467 6594.8062 5461327
-930.01819 408.72992 6586.3501 4408896
-883.66034 405.36337 6532.1011 4672323
-855.88324 410.60239 6616.5234 4803398
-802.53107 403.48605 6501.8491 4671814
-776.55212 410.10831 6608.562 5198160
-727.10425 404.38147 6516.2783 5921883
-672.4931 394.97983 6364.7788 4343107
-657.40802 409.05536 6591.5942 4211264
-612.50757 405.18518 6529.23 5066317
-577.39893 407.70746 6569.874 4539972
-536.05878 405.8761 6540.3628 3619125
-493.70877 402.93524 6492.9736 3355441
-455.58035 403.23389 6497.7861 3026729
-414.10754 400.35431 6451.3843 3816503
-378.23071 402.84946 6491.5913 4540226
-340.80966 404.07846 6511.396 4737607
-303.36575 405.59073 6535.7642 4803402
-265.47037 406.85345 6556.1128 5066319
-227.42065 408.27206 6578.9722 5329748
-185.92516 402.81201 6490.9878 5395285
-148.20416 404.81445 6523.2554 2829614
-109.20361 403.50159 6502.0996 4737610
-70.515274 402.54007 6486.606 6053214
-31.611471 396.57257 6390.4443 4408645
6.3463268 402.88025 6492.0874 4343109
43.893398 394.66632 6359.7266 5658967
83.556557 404.27875 6514.623 4935502
123.9425 410.20917 6610.187 6185569
161.52608 406.24377 6546.2881 5132878
199.76392 405.14081 6528.5146 4672584
236.91603 402.55084 6486.7793 3948861
273.7308 400.19064 6448.7466 5132624
313.7431 402.51077 6486.1338 5067087
347.04712 396.65741 6391.811 5132624
385.30469 397.06033 6398.3047 5197903
425.25964 398.98364 6429.2969 4934988
461.2771 397.2002 6400.5581 5395283
512.21313 407.55811 6567.4673 5790297
552.05347 408.2482 6578.5879 5592918
582.02991 402.03381 6478.4482 5527125
621.65564 402.84122 6491.4585 4277058
645.33051 393.82034 6346.0942 5856347
694.14948 400.29248 6450.3872 5395540
732.3631 400.29248 6450.3872 5395540
789.2608 409.99835 6606.7896 6119008
816.38135 404.04953 6510.9297 5921884
855.16132 404.14771 6512.5117 5724505
899.78534 406.88013 6556.542 4277061
940.33929 407.62198 6568.4966 4474183
979.15955 407.58328 6567.873 5263699
1012.2068 405.23633 6530.0537 5066575
1043.2355 402.28375 6482.4756 5856348
1072.9147 399.03894 6430.188 5001296
1120.8309 402.5668 6487.0366 5395796
1158.3671 402.25623 6482.0312 5132367
1214.5132 408.22067 6578.1436 5132367
1254.926 408.6904 6585.7129 5263955
1265.6162 399.74393 6441.5483 4343110
1276.9899 391.53076 6309.2002 4343109
1304.0256 388.45023 6259.5591 4671817
1341.3396 388.51709 6260.6372 4671304
1424.2292 401.42612 6468.6558 4802890
1477.1661 405.43756 6533.2964 4671304
1519.6909 406.45926 6549.7603 4539717
1501.2417 391.52789 6309.1538 5527124
1566.4189 398.6022 6423.1504 4013629
1595.8427 396.45862 6388.6079 4408643
1635.4031 396.8743 6395.3062 5066061
1654.9059 392.51382 6325.041 3881786
1680.3148 389.71625 6279.9604 4144959
1716.0712 389.38782 6274.668 4605509
1782.1217 395.80148 6378.019 5000267
1794.3262 390.23813 6288.3701 3618356
1810.53 385.75323 6216.0996 4079164
1886.4698 393.92084 6347.7139 3289649
1941.0337 397.39279 6403.6616 4210751
1959.234 393.42957 6339.7974 4276801
1974.5698 389.05103 6269.2407 2763818
1997.1523 386.23566 6223.8735 3553335
2080.5283 395.06622 6366.1709 3224369
2148.3887 400.6886 6456.771 4671558
2170.3494 397.70343 6408.6675 4606023
2189.7224 394.35492 6354.7085 4408901
2211.8542 391.60803 6310.4443 3685180
2217.9236 386.15582 6222.5869 5067352
2182.5085 373.77731 6023.1172 5001823
2266.2151 381.86963 6153.5186 6253182
2337.0129 387.565 6245.2949 5727358
2349.23 383.51935 6180.1021 7174808
2505.981 402.83136 6491.2998 7372189
2557.0994 404.83606 6523.604 7701411
2748.967 428.73251 6908.6758 5596032
2712.0815 416.7746 6715.9834 5595516
2688.7073 407.20874 6561.8374 6187393
2715.9805 405.47681 6533.9292 6121342
2719.7017 400.32684 6450.9419 5857657
2708.9934 393.2251 6336.5029 5002352
2774.7512 397.26529 6401.6069 5923456
2783.1328 393.09259 6334.3672 6647951
2835.5857 395.17279 6367.8882 6385037
2892.3044 397.7851 6409.9829 6911896
2850.8064 386.99673 6236.1372 6846361
2948.1184 395.08679 6366.5024 6978461
2919.5334 386.31375 6225.1318 7504805
3005.3081 392.70294 6328.0884 7636391
2937.752 379.14584 6109.6265 7373477
3082.323 392.96262 6332.2729 7109534
3034.1555 382.17053 6158.3672 7504292
3099.4644 385.75812 6216.1782 7438499
3153.7944 387.91104 6250.8711 7504549
3207.5508 389.94434 6283.6357 7438757
3251.3472 390.73395 6296.3599 7767722
3343.0967 397.20312 6400.6055 7833515
3380.9006 397.18967 6400.3882 7701929
3312.1533 384.79767 6200.7012 7438756
3380.7559 388.45938 6259.707 7109533
3420.1594 388.72305 6263.9556 7373219
3430.1848 385.67783 6214.8843 7767721
3478.0476 386.90646 6234.6826 7636135
3593.2986 395.52689 6373.5942 7571112
3628.0876 395.20343 6368.3813 7636906
3611.5676 389.35504 6274.1401 7570599
3709.4565 395.83444 6378.5498 7438756
3712.1934 392.13184 6318.8857 7504549
3728.585 389.93124 6283.4243 7306913
3740.4194 387.30219 6241.0596 6846361
3800.0884 389.62918 6278.5576 6911897
3631.6699 368.75162 5942.1323 7570340
3827.9507 384.9501 6203.1577 7636133
3866.4707 385.12656 6206.001 7373220
3865.8994 381.44254 6146.6362 7767722
3901.6772 381.38037 6145.6343 7175840
3922.8794 379.90775 6121.9043 7504807
3996.446 383.48685 6179.5786 7439270
4010.3391 381.32684 6144.772 7570599
4089.9199 385.39554 6210.3354 7702185
4092.9832 382.24567 6159.5776 7636393
4114.4517 380.85513 6137.1704 7636650
4120.7231 378.09454 6092.686 7505064
4186.4209 380.7872 6136.0757 7439270
4225.3193 381.01685 6139.7764 7504807
4264.7222 381.28775 6144.1416 7439271
4294.6763 380.71634 6134.9341 7504807
4329.0088 380.53943 6132.0835 7439271
4387.9775 382.51315 6163.8882 7439528
4467.0835 386.19516 6223.2212 7372964
4419.5112 378.9548 6106.5483 7438757
4486.9858 381.61667 6149.4424 7438500
4572.4746 385.7554 6216.1348 7307685
4600.2148 384.99509 6203.8823 7439272
4640.8643 385.31851 6209.0947 7570343
4813.3237 396.49475 6389.1904 7504807
4896.8188 400.22531 6449.3052 7636137
4828.9937 391.62616 6310.7373 7570344
4963.0698 399.40741 6436.1255 6517142
4942.5356 394.72244 6360.6309 5596040
4897.1533 388.13892 6254.543 6912414
4892.7627 384.87885 6202.0093 7438758
4896.4707 382.29965 6160.4478 7438757
4899.5986 379.71368 6118.7769 7439014
4928.1792 379.12372 6109.2705 7504550
4928.5024 376.3844 6065.1284 7242149
4936.7354 374.28442 6031.2891 7373478
4912.4009 369.76328 5958.4341 7307686
4929.29 368.38739 5936.2632 7373478
4965.1899 368.44171 5937.1382 7373479
4944.3057 364.31122 5870.5791 7438757
4959.1987 362.85623 5847.1333 7438758
4983.3457 362.09384 5834.8477 7439014
4980.9209 359.4245 5791.8335 7504551
4969.2373 356.12814 5738.7153 7372965
4983.8091 354.74545 5716.4341 7438757
4992.4004 352.95859 5687.6406 7438757
4944.8394 347.25235 5595.6895 7504550
5009.1958 349.42923 5630.7681 7438757
4971.5806 344.51108 5551.5156 7372964
4993.6855 343.76871 5539.5532 7372965
5033.0132 344.21399 5546.728 7372964
5052.5254 343.30701 5532.1133 7372965
5049.7549 340.90744 5493.4463 7372964
5095.3389 341.7821 5507.5405 7438757
5058.4766 337.15054 5432.9067 7438758
4824.062 319.4938 5148.3828 7438757
5184.3086 341.19543 5498.0869 7438504
5426.6201 354.91287 5719.1323 7307686
5491.7021 356.9408 5751.8105 7242149
0 0 0 0
0 0 0 0
0 0 0 0
0 0 0 0
-6460.1118 481.88458 7088.4824 6908777
-6300.4316 473.04846 6958.5039 5790296
-6206.5166 469.06622 6899.9253 5987673
-6201 471.75638 6939.4971 6448225
-6203.1846 475.07217 6988.2725 6382432
-6243.5444 481.37582 7080.9985 6448225
-6167.7344 478.7475 7042.3364 6842983
-5927.0146 463.19577 6813.5713 6316639
-5721.2124 450.17819 6622.0845 5987674
-5662.8511 448.66248 6599.7881 6448225
-5748.3022 458.59906 6745.9546 6053467
-5644.8281 453.4968 6670.9004 6250846
-5808.146 469.90735 6912.2988 6382432
-5771.8003 470.28253 6917.8174 6579811
-5671.0063 465.3743 6845.6177 6382433
-5640.54 466.20819 6857.8838 6448225
-5496.4248 457.5925 6731.1484 5198158
-5396.7041 452.57391 6657.3252 5527124
-5299.2495 447.67294 6585.2319 5724499
-5207.3857 443.17502 6519.0679 5263949
-5187.3125 444.76526 6542.4604 5987672
-5111.2461 441.54245 6495.0527 6053723
-5065.3755 440.89896 6485.5874 5856345
-4998.9946 438.44681 6449.5161 6974569
-4960.6191 438.43198 6449.2983 7171947
-4910.0117 437.32755 6433.0518 6842983
-4933.3442 442.84299 6514.1841 5067342
-4667.1782 422.25366 6211.3169 6712164
-4572.624 416.98669 6133.8398 6646372
0 0 0 0
0 0 0 0
0 0 0 0
-3147.5762 296.45743 4360.8643 1975085
-3145.762 298.73856 4394.4194 15
-3128.6738 299.59515 4407.02 21
-3103.8757 299.72165 4408.8809 28
-3086.3005 300.55371 4421.1201 27
-3054.9951 300.05145 4413.7319 26
-3052.4915 302.39374 4448.187 21
-3038.6692 303.64581 4466.605 921365
0 0 0 0
0 0 0 0
-4164.4185 427.30185 6285.5752 5000004
-4270.0562 442.09424 6503.1694 5131334
-4196.6953 438.4548 6449.6343 5460553
-4162.7251 438.90176 6456.209 5526346
-4095.8933 435.86005 6411.4653 5197895
-4101.6235 440.55527 6480.5317 5460810
-4036.833 437.69302 6438.4282 5263688
-4014.1853 439.38907 6463.3774 5790032
-3985.3984 440.43939 6478.8267 5658446
-3986.6533 444.86237 6543.8887 5197895
-3952.3113 445.36105 6551.2246 5329224
-3894.0327 443.14563 6518.6357 5789775
-3837.7227 441.11206 6488.7222 4079157
-3811.9333 442.58093 6510.3291 4342328
-3779.8345 443.33975 6521.4912 4934723
-3704.9563 439.04486 6458.314 5592397
-3510.1111 420.29562 6182.5142 5921619
-3560.7393 430.85358 6337.8203 5592912
-3578.6748 437.63852 6437.6265 5263434
-3498.1252 432.39612 6360.5112 4934469
-3478.2524 434.62134 6393.2441 4802882
-3511.2729 443.57751 6524.9888 5921362
-3434.3462 438.6889 6453.0776 6183764
-3419.5144 441.71133 6497.5371 4933953
-3387.0715 442.50165 6509.1631 4933696
-3307.6021 437.09579 6429.6431 5789005
-3314.3979 443.09662 6517.9146 5065541
-3240.113 438.27151 6446.938 5197638
-3177.4673 434.92453 6397.7036 5592396
-3108.8218 430.66553 6335.0542 5066052
-3133.9604 439.45319 6464.3198 3684398
-3092.8669 439.05603 6458.478 5000258
-3071.7063 441.51404 6494.6353 6381911
-3133.9854 456.17981 6710.3677 5395016
-3062.8208 451.54898 6642.248 5197380
-2954.6765 441.27469 6491.1143 5526602
-2906.6826 439.83127 6469.8818 6052945
-2861.458 438.7739 6454.3276 5329480
-2881.9922 447.9079 6588.688 5723980
-2837.4456 447.03918 6575.9097 5592397
-2793.6765 446.27054 6564.603 4276537
-2774.5598 449.47382 6611.7227 5526347
-2737.3176 449.79044 6616.3804 7105636
-2687.4736 448.01553 6590.2715 4539709
-2659.5146 449.89041 6617.8511 4802881
-2584.6638 443.77032 6527.8252 5395018
-2556.1841 445.54694 6553.9585 5329225
-2534.2241 448.53229 6597.873 5526347
-2493.9543 448.31967 6594.7456 4934724
-2422.1299 442.33771 6506.7515 5461067
-2422.3257 449.52762 6612.5142 5395274
-2345.0488 442.34036 6506.79 5724240
-2313.1741 443.62009 6525.6152 5592653
-2270.6443 442.86517 6514.5103 5000517
-2208.2261 438.13806 6444.9746 5790032
-2186.3347 441.42706 6493.356 5197895
-2129.9905 437.75323 6439.314 5592656
-2103.0479 440.09808 6473.8066 5592656
-2023.7035 431.3605 6345.2773 5987414
-1954.9452 424.59128 6245.7031 5921620
-1880.9653 416.40497 6125.2827 4737348
0 0 0 0
0 0 0 0
0 0 0 0
0 0 0 0
0 0 0 0
0 0 0 0
-648.71783 166.03392 2442.3455 9
-637.37512 166.85233 2454.384 14
-624.82379 167.38518 2462.2222 1052959
-612.91241 168.11902 2473.0168 12243152
-594.36475 167.02393 2456.9082 11783885
-577.85736 166.46158 2448.6362 12441049
-572.88788 169.27956 2490.0884 271
-553.82336 167.97157 2470.8479 12899800
-544.80261 169.72144 2496.5884 11915985
-531.95819 170.34459 2505.7549 11324364
0 0 0 0
-504.88092 171.23045 2518.7859 265756
-488.03485 170.55798 2508.8938 262
0 0 0 0
0 0 0 0
0 0 0 0
-1066.465 424.4093 6243.0259 6842723
-1043.5509 430.21014 6328.356 4671554
-1002.8439 428.83478 6308.1245 4934469
-962.46356 427.49799 6288.4604 4671555
-939.01117 433.87524 6382.269 5066312
-897.37262 432.03201 6355.1558 4737604
-864.29419 434.32904 6388.9443 4868934
-827.7627 435.02173 6399.1338 3815989
-767.21777 422.55521 6215.7524 4803141
-724.31146 419.03613 6163.9868 4079419
-699.08362 425.91391 6265.1587 5921622
-660.9444 425.25574 6255.4766 5790036
-633.66205 431.91959 6353.502 6184794
-593.83801 430.33658 6330.2158 5197899
-559.60168 432.86234 6367.3696 4211004
-513.48267 425.89743 6264.916 6119000
-477.46347 426.87692 6279.3247 5197899
-428.08066 415.06467 6105.5674 3553074
-395.30756 418.66309 6158.4995 4803141
-357.77069 417.43506 6140.4351 4737348
-315.75961 410.11777 6032.7983 4737348
-290.83237 425.95367 6265.7432 4737349
-256.99985 431.47241 6346.9233 4869450
-210.93594 414.8284 6102.0918 5921623
-180.29579 427.90561 6294.4565 4803141
-143.66252 429.87009 6323.3535 3947832
-105.6907 427.80231 6292.937 4737093
-67.541267 422.37021 6213.0312 4802886
-30.803995 423.33395 6227.208 4342336
6.0151978 418.31323 6153.353 4473922
43.151012 425.03036 6252.1621 4474179
81.79023 433.5108 6376.9082 4540226
115.08379 417.25104 6137.728 4013882
152.41057 419.91104 6176.8569 3816504
193.89586 430.78006 6336.7393 4540227
232.71266 433.15613 6371.6909 4408640
259.29858 415.28052 6108.7422 3684917
305.14383 428.85068 6308.3579 3421488
338.29227 423.56232 6230.5669 4474175
380.5827 429.6348 6319.8921 4605763
412.53809 423.99734 6236.9658 3552562
447.18332 421.82404 6204.9966 5197644
500.69629 436.42679 6419.8018 5263438
541.45709 438.63708 6452.3149 4802886
580.80566 439.48724 6464.8213 3947320
600.54095 426.30933 6270.9746 3815991
641.98779 429.18137 6313.2227 3486513
665.91638 420.67065 6188.0308 3618352
712.53168 426.63187 6275.7197 3618095
739.94763 421.07623 6193.9966 4670784
766.35504 415.49875 6111.9521 4078904
816.6618 422.79758 6219.3174 5131593
841.44128 416.82086 6131.4009 4276285
886.92548 421.17084 6195.3882 4473664
933.82141 425.81885 6263.7603 3618355
955.84381 419.20279 6166.4385 4079161
1000.092 422.46255 6214.3892 2368288
1032.5913 420.70407 6188.522 4276285
1051.3698 413.66757 6085.0161 4079420
1086.7822 413.42548 6081.4546 5855575
1178.5122 433.93527 6383.1519 5066059
1221.5107 435.78445 6410.3535 5132109
1250.8186 432.7851 6366.2334 4868680
1235.212 414.87582 6102.7891 4210751
1270.1809 414.48895 6097.0986 4868680
1306.6874 414.61136 6098.8994 4737094
1348.1102 416.24524 6122.9336 4868680
1379.8556 414.8837 6102.9053 3947319
1418.3625 415.57281 6113.042 3289390
1457.8689 416.51315 6126.874 3815733
1490.4131 415.46704 6111.4858 4407870
1576.202 428.961 6309.981 4407870
1567.5316 416.71832 6129.8921 4802629
1615.4197 419.72531 6174.125 4078907
1627.9169 413.60736 6084.1299 3749942
1692.1682 420.61887 6187.2686 3355184
1712.3606 416.61359 6128.3516 3881528
1742.7253 415.19818 6107.5312 4473665
1779.2175 415.27045 6108.5942 4736836
1820.5098 416.4379 6125.7671 4144699
1842.382 413.20422 6078.2002 4144955
1872.696 411.95154 6059.7734 4079421
1910.4541 412.35272 6065.6743 3552819
1932.5481 409.42053 6022.5425 2500132
1971.6464 410.13177 6033.0049 3947578
2027.6981 414.28156 6094.0474 3881785
2013.616 404.20764 5945.8608 3750199
2073.0291 408.97971 6016.0576 3815736
2110.4043 409.31613 6021.0068 3749943
2168.6316 413.61847 6084.2935 3223855
2157.6528 404.79642 5954.522 4013371
2188.6643 404.00922 5942.9424 3420977
2232.969 405.6619 5967.2534 4210751
2302.9153 411.84882 6058.2622 4671302
2334.4775 411.08661 6047.0503 4013373
2511.5916 435.59085 6407.5059 4276289
2447.4709 418.15045 6150.959 1446932
2491.7046 419.46252 6170.2593 3487030
2462.8374 408.60852 6010.5977 3750458
2499.6145 408.79971 6013.4102 3355699
2518.3994 406.08432 5973.4673 5066574
2562.6038 407.48624 5994.0889 4935504
2623.3391 411.4425 6052.2852 4408391
2667.0283 412.65463 6070.1152 4737357
2684.8645 409.88763 6029.4131 4474441
2763.7859 416.39645 6125.1577 3882048
2706.7869 402.52402 5921.0947 2895154
2712.7603 398.25125 5858.2432 3421498
2774.177 402.12311 5915.1978 2697777
2867.6082 410.48102 6038.1421 3421500
2896.8723 409.561 6024.6089 5066326
2942.8896 411.0032 6045.8232 5132118
2939.1628 405.54694 5965.562 4211013
2984.2158 406.87103 5985.0396 3816512
2999.5642 404.16165 5945.1846 4342599
3078.0732 409.92661 6029.9868 3816514
3064.8262 403.4798 5935.1548 4409167
3095.5752 402.90552 5926.707 3487808
3156.7583 406.26086 5976.064 3947846
3205.7002 407.98389 6001.4092 3618881
3207.2432 403.70288 5938.436 4342858
3174.6318 395.2623 5814.2759 4408649
3251.2554 400.45746 5890.6963 4080458
3283.3662 400.11786 5885.7002 4212310
3309.4561 399.05936 5870.1299 6712960
3405.1504 406.32855 5977.0596 5462641
3420.4863 403.95789 5942.1875 4014932
3421.9175 400.0101 5884.1157 4079951
3416.9714 395.40396 5816.3599 3224126
3505.0601 401.54803 5906.7388 1447194
3451.1953 391.46899 5758.4766 1710882
3474.9187 390.30182 5741.3076 2960691
3585.385 398.80582 5866.4009 3882306
3620.8293 398.8819 5867.52 3750719
3650.7637 398.35529 5859.7734 4079175
3674.8979 397.21164 5842.9507 1908007
3703.7522 396.59482 5833.8774 2039853
3758.719 398.75967 5865.7217 3750987
3710.8801 390.07812 5738.0171 5198695
3736.6006 389.2164 5725.3413 5462127
3851.2124 397.54614 5847.8706 3422545
3916.3689 400.66772 5893.7891 4936041
3969.564 402.52124 5921.0542 5528179
3998.4539 401.89923 5911.9048 5725815
4023.1372 400.86896 5896.7495 4344675
4094.5093 404.46844 5949.6978 5397109
4147.4917 406.20544 5975.2485 5857661
4175.4331 405.48126 5964.5957 6581125
4212.3911 405.63745 5966.8936 6647175
4174.6484 398.65756 5864.2202 3686489
4222.6104 399.9097 5882.6387 6186623
4270.1904 401.10544 5900.2275 6186882
4328.3413 403.2666 5932.0186 6780048
4342.4243 401.32031 5903.3887 6912408
4400.6802 403.4549 5934.7881 6978461
4417.0366 401.74475 5909.6318 7701671
4511.3037 407.09201 5988.29 7504806
4541.0737 406.58112 5980.7749 7570085
4584.4282 407.28503 5991.1294 7504292
4599.1187 405.45108 5964.1523 7504034
4726.4927 413.50345 6082.6016 6451598
4803.0146 417.01874 6134.311 6318984
4789.8721 412.75458 6071.5859 6318985
4772.3335 408.17804 6004.2651 5727108
4560.6763 387.18909 5695.5195 6122125
4744.3838 399.82727 5881.4263 7569828
4738.3262 396.40558 5831.0933 7570086
4709.3428 391.1293 5753.48 7636393
4714.5444 388.74768 5718.4463 7505063
4706.3013 385.29932 5667.7212 7505064
4707.5161 382.66867 5629.0244 7439013
4730.9321 381.867 5617.2324 7570344
4753.1611 380.98141 5604.2051 7636393
4782.7026 380.69016 5599.9209 7570344
4791.9409 378.79794 5572.0864 7570343
4791.9873 376.21002 5534.0186 7701929
4839.2686 377.34036 5550.646 7767722
4821.8228 373.44244 5493.3076 7636136
4849.9453 373.10239 5488.3052 7635880
4848.6143 370.51605 5450.2607 7504551
4835.3096 367.05502 5399.3491 7504550
4851.6797 365.87729 5382.0249 7570343
4889.6562 366.33371 5388.7388 7307428
4904.02 365.02664 5369.5117 7044256
4905.1309 362.75629 5336.1147 7241635
4922.5103 361.71042 5320.7305 7241379
4943.3262 360.9288 5309.2329 7438758
4982.7256 361.50531 5317.7134 7439015
5086.2812 366.69998 5394.1265 7373481
5282.6675 378.48074 5567.4204 7439271
5331.2705 379.5929 5583.7803 7373478
0 0 0 0
0 0 0 0
0 0 0 0
0 0 0 0
-6022.3062 488.37479 6608.0918 6053466
-5934.2847 484.38547 6554.1133 5724502
-5880.4683 483.15396 6537.4502 5790295
-5802.5449 479.91235 6493.5884 5987673
-5693.0317 473.99734 6413.5537 6250846
-5637.1855 472.50116 6393.3086 5987158
-5626.7329 474.81522 6424.6196 5526864
-5620.6079 477.52847 6461.3325 5592657
-5580.0293 477.3317 6458.6699 6119001
-5523.2363 475.73563 6437.0742 6316637
-5497.2632 476.79044 6451.3462 6514272
-5436.1655 474.79227 6424.3091 6382942
-5487.2153 482.62982 6530.3579 6119512
-5367.9561 475.49274 6433.7876 5724755
-5259.9497 469.2576 6349.4209 5592656
-5270.7373 473.60681 6408.2695 5460813
-5211.2944 471.66287 6381.9663 4013367
-5218.1465 475.7345 6437.0586 4342333
-5119.1714 470.14688 6361.4536 4539455
-5023.5518 464.78683 6288.9282 5329485
-5052.8872 470.99408 6372.917 5855829
-4973.5977 467.09335 6320.1372 5658449
-4992.4561 472.4209 6392.2231 4934214
-4993.272 476.10953 6442.1328 4539710
-4859.2666 466.90067 6317.5303 4605501
-4697.3574 454.84702 6154.4346 4737089
-4658.7891 454.64124 6151.6504 5197383
-4622.1646 454.6235 6151.4102 5789777
-4280.0269 424.3172 5741.3423 4803139
0 0 0 0
0 0 0 0
-3145.769 319.48483 4322.8789 724492
-3187.7854 326.40933 4416.5728 2829875
-3218.1379 332.24423 4495.5234 15
-3135.9312 326.4588 4417.2422 19
-3109.3442 326.41495 4416.6484 24
-3091.2417 327.26852 4428.1982 27
-3070.6343 327.86926 4436.3267 22
-3052.698 328.7681 4448.4883 18
-3039.95 330.24615 4468.4878 2499113
0 0 0 0
0 0 0 0
0 0 0 0
-4095.5916 460.9834 6237.4648 5854797
-4060.0332 461.14172 6239.6069 5065538
-4037.6101 462.80856 6262.1606 5526088
-3908.2559 452.13571 6117.7485 5131844
-3819.6333 446.01935 6034.9897 5526602
-3731.2173 439.81174 5950.9956 6118739
-3735.9004 444.5643 6015.3013 6052946
-3726.7764 447.74954 6058.4004 6184534
-3698.3315 448.65289 6070.6235 5658190
-3673.2439 449.98526 6088.6514 6447963
-3633.9233 449.58319 6083.2109 5197640
-3703.012 462.7196 6260.957 4868931
-3668.6516 463.06427 6265.6206 5460555
-3536.3821 450.93146 6101.4541 5987412
-3558.5505 458.44406 6203.1055 6250327
-3536.4373 460.34921 6228.8838 6250584
-3448.4355 453.62714 6137.9287 4473918
-3448.8872 458.52151 6204.1533 5855315
-3437.2893 461.9021 6249.8955 5066056
-3416.4702 464.1037 6279.6846 5526606
-3319.3391 455.87314 6168.3188 4802882
-3326.4541 461.93576 6250.3506 5394505
-3296.2324 462.8916 6263.2842 5526091
-3310.4768 470.18478 6361.9663 5196870
-3177.531 456.49976 6176.7979 5197640
-3162.5901 459.64661 6219.377 5263432
-3084.9858 453.65289 6138.2773 6382170
-3045.8892 453.24634 6132.7764 7105893
-3029.7483 456.2872 6173.9214 5329740
-3008.1731 458.57388 6204.8623 6579293
-2954.1685 455.91238 6168.8501 6513498
-2938.6047 459.19104 6213.2129 5921360
-2920.9939 462.22897 6254.3184 5460809
-2856.0251 457.75455 6193.7759 5592394
-2882.624 468.03091 6332.8228 5066050
-2811.6023 462.5192 6258.2456 5592393
-2810.8743 468.5784 6340.231 5329222
-2765.8665 467.32019 6323.2061 5592396
-2775.2085 475.3364 6431.6719 5855568
-2691.9426 467.49319 6325.5474 4737088
-2653.6206 467.34387 6323.5269 6645085
-2660.6138 475.28522 6430.9795 6118741
-2663.8582 482.77789 6532.3613 6447963
-2568.2385 472.30997 6390.7222 5329225
-2501.9612 467.00568 6318.9512 5197639
-2400.927 454.95425 6155.8853 5987155
-2427.2161 467.02975 6319.2764 5131846
-2423.2715 473.57504 6407.8394 5658445
-2335.9783 463.78082 6275.3159 4934722
-2287.4446 461.48953 6244.313 5066565
-2232.5559 457.81967 6194.6572 6118998
-2193.3577 457.29852 6187.6055 5987412
-2156.4209 457.23914 6186.8018 5132103
-2131.4092 459.74994 6220.7754 5197896
-2068.4355 454.01663 6143.1987 6448476
-2055.25 459.20197 6213.3604 5790034
-2015.9524 458.63593 6205.7012 6316379
-1948.889 451.61459 6110.6978 5921620
-1914.1252 451.95398 6115.29 6316379
0 0 0 0
0 0 0 0
0 0 0 0
0 0 0 0
0 0 0 0
0 0 0 0
0 0 0 0
-650.51373 181.00266 2449.1069 9
-637.65973 181.47368 2455.4802 11
-627.36401 182.71175 2472.2324 855592
-607.02411 181.01385 2449.2585 12111588
-594.48071 181.61464 2457.3877 10268360
-578.39752 181.13704 2450.9253 6451105
-570.05957 183.12286 2477.7952 52
-558.20605 184.0545 2490.4009 1974867
