# .PCD v0.7 - Point Cloud Data file format
VERSION 0.7
FIELDS x y z rgb
SIZE 4 4 4 4
TYPE F F F U
COUNT 1 1 1 1
WIDTH 1299
HEIGHT 1
VIEWPOINT 0 0 0 1 0 0 0
POINTS 1299
DATA ascii
-2016.5992 1035.3542 4317.8638 5394247
-2001.0903 1040.5913 4339.7046 4144179
-1964.9905 1035.1178 4316.8779 3683629
-1925.8773 1027.8917 4286.7417 5657419
-1875.7263 1014.5026 4230.9033 6249556
-1836.275 1006.6161 4198.0137 6315348
-1816.4854 1009.4393 4209.7876 5986382
-1794.3358 1011.0114 4216.3438 7039070
-1751.4895 1000.8018 4173.7656 3881263
-1734.6681 1005.3834 4192.8726 6052430
-1707.9509 1004.2793 4188.2681 5921101
-1670.1455 996.52667 4155.9365 2696986
-1668.0134 1010.1458 4212.7339 5920843
-1615.1527 992.99066 4141.1899 4144432
-1592.1765 993.96277 4145.2441 5197120
-1577.0757 999.95886 4170.25 5262913
-1536.7449 989.8938 4128.2744 5065021
-1499.5958 981.58588 4093.6272 4604727
-1478.6863 983.80951 4102.9004 5591365
-1462.4315 989.25598 4125.6147 5789771
-1439.6249 990.38049 4130.3042 4736313
-1411.542 987.85114 4119.7559 5197377
-1381.8088 984.05768 4103.9355 6052686
-1339.9946 971.37067 4051.0254 5921100
-1321.1647 975.18622 4066.9377 5460806
-1307.208 982.8075 4098.7217 4407349
-1270.0349 972.93176 4057.5359 5855051
-1242.1801 969.95123 4045.1057 6315602
-1206.3988 960.54236 4005.8667 6315602
-1173.1591 952.82013 3973.6616 6578774
-1156.6174 958.62115 3997.8545 3947054
-1155.9922 978.13232 4079.2244 5394500
-1102.7173 952.97632 3974.3132 5591878
-1104.2352 975.10822 4066.6125 5460293
-1058.7283 955.77533 3985.9861 4539191
-1028.8898 950.02783 3962.0164 5920590
-1011.3182 955.60303 3985.2676 5591625
-991.65881 959.42493 4001.2063 5065281
-951.81598 943.42828 3934.4939 4538938
-933.59583 948.59888 3956.0571 4999487
-904.16266 942.34888 3929.9922 6973279
-886.82587 948.70911 3956.5171 5131075
-859.02899 943.92102 3936.5486 5065538
-836.55737 944.88037 3940.5496 6513496
-815.5957 947.64929 3952.0972 5592394
-794.53076 950.45825 3963.8118 6250324
-775.37292 955.78918 3986.0439 6579546
-735.7149 935.39105 3900.9751 5461065
-718.72516 943.42505 3934.4805 5131074
-693.70227 941.09961 3924.7822 4604730
-668.78625 938.76282 3915.0369 5459782
-644.63312 937.36755 3909.2178 3420455
-620.63269 936.09857 3903.9258 5986382
-591.34015 926.44031 3863.6467 5855051
-560.33063 913.20593 3808.4541 5394500
-543.90887 923.63318 3851.9397 5197122
-515.354 913.46765 3809.5454 6381140
-493.9725 915.66821 3818.7227 6249555
-475.62076 923.96576 3853.3269 5065282
-451.46524 921.25677 3842.0293 5262660
-432.27658 928.93359 3874.0447 4802109
-401.46912 911.10333 3799.6851 4275765
-375.28693 902.27502 3762.8674 4867645
-354.53354 906.20795 3779.2695 6249554
0 0 0 0
0 0 0 0
0 0 0 0
0 0 0 0
-168.75203 630.38934 2628.9893 3223593
0 0 0 0
0 0 0 0
-174.97017 903.88641 3769.5876 4473397
-152.52336 903.20593 3766.7495 4604984
-132.58701 919.7063 3835.563 5262916
-108.77523 910.58966 3797.5427 5920590
-85.711449 904.61304 3772.6179 5854799
-63.490669 906.45557 3780.302 4999488
-40.459629 892.43433 3721.8274 5591625
-18.435772 893.65045 3726.8994 4275767
3.6635449 898.63531 3747.6882 6316120
25.908686 900.12878 3753.9167 5000005
48.01498 897.64691 3743.5662 5526092
70.396049 900.24725 3754.4106 5855311
92.721382 901.05725 3757.7886 5986898
114.87119 900.17822 3754.1226 5658447
136.17166 894.00806 3728.3906 6381915
160.50157 906.67365 3781.2114 5854799
184.2379 913.29425 3808.822 6315607
208.03679 918.74652 3831.5603 5130820
228.83691 911.18542 3800.0273 5327941
250.1232 906.74103 3781.4927 3815217
272.66382 907.20081 3783.4102 3025446
292.19983 898.35339 3746.5125 3485996
308.62485 881.86572 3677.752 4604219
332.76984 888.15692 3703.9888 5525834
352.46759 882.53436 3680.5405 4604730
375.94833 886.4873 3697.0259 7433829
392.68066 874.96832 3648.9868 5723724
417.42477 881.57159 3676.5254 5921104
444.17844 891.55365 3718.1545 4013109
465.22128 889.67114 3710.304 5986641
480.29767 877.06335 3657.7241 4078390
501.67883 876.56006 3655.6252 5131332
525.83997 880.75488 3673.1191 4341047
552.65808 888.88959 3707.0444 5065024
564.32227 872.96075 3640.6143 5788747
588.18286 876.37689 3654.8611 6051663
616.01123 885.25238 3691.876 5722954
633.49097 879.15759 3666.4578 4538169
650.82507 873.27142 3641.9099 7170402
667.44177 866.83124 3615.0515 5460042
689.66022 867.84045 3619.2605 4999490
716.4892 874.41571 3646.6821 4933697
737.93457 874.22797 3645.8994 5789263
748.04865 861.00873 3590.7693 6644059
763.70892 854.72748 3564.574 4604475
798.57062 869.69604 3626.999 5393992
816.06445 865.46094 3609.3372 5130819
815.69635 842.98279 3515.5935 6446676
854.13873 860.73401 3589.6235 4604729
878.03052 863.31604 3600.3918 4604474
885.35443 849.87164 3544.3232 4144181
912.33502 855.48206 3567.7209 6973282
942.86627 864.09235 3603.6296 5986644
953.47101 854.46399 3563.4751 5855058
983.85681 862.59583 3597.3884 3946290
995.47125 854.27399 3562.6829 3814701
1016.5219 854.22736 3562.4883 3683374
1044.4357 859.83264 3585.8647 7828330
1041.2826 840.14856 3503.7737 2893857
1076.3694 851.48444 3551.0491 6051664
1097.7159 851.72437 3552.0498 5854286
1102.3788 839.25385 3500.0422 6381144
1114.7488 833.00305 3473.9739 4802111
1119.2317 821.19202 3424.7168 4933437
1150.413 829.04156 3457.4531 4078126
1164.0995 824.22961 3437.3853 5196608
1181.8937 822.44147 3429.9277 6446676
1205.3827 824.60962 3438.97 8353645
1224.6664 823.87671 3435.9131 4669494
1247.6406 825.60986 3443.1414 4669750
1275.4792 830.45441 3463.345 4867129
1296.5857 830.83173 3464.9185 5459523
1287.7964 812.33905 3387.7964 6051147
1308.4027 812.67212 3389.1855 5985610
1344.4028 822.41199 3429.8047 4143149
1378.5446 830.74194 3464.5442 2959391
1393.8707 827.65515 3451.6709 4274739
1390.6929 813.82904 3394.0103 6775128
1437.973 829.50403 3459.3818 3616807
1442.068 820.17712 3420.4844 4406324
1481.2003 830.75989 3464.6191 4406066
1476.6182 816.87042 3406.6943 5195840
1525.0304 832.27698 3470.9458 4603703
1524.8441 821.10394 3424.3496 2893086
1540.6702 818.73352 3414.4639 4932669
1566.1724 821.49994 3426.0012 3946544
1550.5695 802.91064 3348.4761 5722696
1579.1439 807.37787 3367.1064 5196355
1609.7339 812.75128 3389.5154 4406839
1618.9174 807.31726 3366.8535 3748652
1615.301 795.71021 3318.4473 3090465
1629.4189 793.01343 3307.2002 3880751
1659.866 798.2334 3328.9697 4472887
1684.9088 800.76227 3339.5164 3749163
1707.1694 801.9256 3344.3679 5525317
1708.7314 793.45081 3309.0244 6972762
1731.6158 794.95703 3315.3062 3683368
1757.5812 797.82806 3327.2795 5788232
1770.9863 794.99719 3315.4734 5262146
1794.5964 796.75909 3322.8213 4933182
1829.1078 803.2702 3349.9753 5787720
1826.0447 793.31738 3308.468 6577495
1845.4015 793.21277 3308.0317 2762009
1859.826 791.01257 3298.8562 3880489
1840.2229 774.53625 3230.1428 4801335
1859.0112 774.39142 3229.5386 4341038
1899.4941 783.19458 3266.2515 4275245
1873.9792 764.88245 3189.8823 6446159
1891.6871 764.40173 3187.8777 2564372
1938.7449 775.67316 3234.884 2235408
1950.1714 772.60767 3222.0999 3090460
1960.0947 769.01184 3207.1038 3551012
2004.3016 778.80658 3247.9519 3682341
2017.7666 776.58331 3238.6799 2169102
2041.7422 778.40906 3246.2942 2497812
2061.8757 778.74969 3247.7146 2432017
2089.7988 781.9989 3261.2649 2498069
2042.1066 757.15247 3157.645 2958621
2060.2612 756.94971 3156.7996 4603703
2096.7471 763.42493 3183.804 2958621
2090.6721 754.42657 3146.2769 4603702
2158.5913 772.05219 3219.7832 4077361
2170.7173 769.58862 3209.509 3287845
2168.6309 762.17297 3178.5825 1380621
2159.3274 752.37012 3137.7007 393728
2138.3296 738.69495 3080.6694 2037778
2214.0359 758.37524 3162.7446 985092
2250.0776 764.25299 3187.2573 2695449
2276.6567 766.84552 3198.0693 3616550
2268.8394 757.90527 3160.7847 3682599
2291.6846 759.27032 3166.4773 2300946
2330.9326 766.00354 3194.5576 4143150
2341.0757 763.14069 3182.6184 3485220
2368.7095 765.97968 3194.4583 4274479
2367.373 759.47968 3167.3506 4406578
2352.0901 748.64294 3122.1567 2498838
2355.0596 743.73944 3101.707 5788233
2373.2283 743.67474 3101.4373 4208944
2393.0974 744.13977 3103.3765 3485479
2417.0557 745.85956 3110.5488 1840397
2424.6562 742.54376 3096.7207 3484709
2447.6685 743.96216 3102.636 2300435
2480.4414 748.30408 3120.7434 4932155
2483.0901 743.56097 3100.9629 4010796
2480.7952 737.41809 3075.3442 4010797
2505.6304 739.37042 3083.4863 2695192
2512.3926 736 3069.4304 2760729
2531.8962 736.38385 3071.031 3155744
2538.803 733.12463 3057.4387 2760986
2547.1199 730.3158 3045.7249 2563607
2538.4766 722.71796 3014.0386 4208689
2577.9827 728.83887 3039.5654 3945515
2559.0339 718.46332 2996.2949 3748136
2553.6743 712.01959 2969.4219 3485219
2608.5242 722.33698 3012.4497 3616549
2635.7585 724.91895 3023.2178 4866873
2650.7759 724.12872 3019.9221 3550756
2658.2261 721.29572 3008.1072 2892316
2749.8552 741.18988 3091.0742 2234898
2730.6052 731.13245 3049.1306 1971470
2739.7893 728.77051 3039.2803 2234899
2710.1165 716.17114 2986.7356 2498070
2711.332 711.84473 2968.6926 4406067
2750.5723 717.49298 2992.2483 2366226
2782.9875 721.29993 3008.125 3747880
2775.7927 714.85767 2981.2578 3023899
2778.499 711.03046 2965.2969 2103309
2784.6443 708.12598 2953.1838 3155996
2779.0222 702.284 2928.8203 3089690
2832.5347 711.3656 2966.6946 2826519
0 0 0 0
0 0 0 0
0 0 0 0
0 0 0 0
0 0 0 0
0 0 0 0
-3959.6172 1081.6063 4401.9966 4275248
-3917.7676 1077.2698 4384.3472 5130814
-3900.0137 1079.545 4393.6074 6446671
-3896.1699 1085.7273 4418.7681 6249292
-3842.3132 1077.9619 4387.1641 5196861
-3806.4121 1075.1626 4375.771 4736566
0 0 0 0
0 0 0 0
0 0 0 0
0 0 0 0
-3698.687 1081.5637 4401.8228 5328704
-3675.3884 1082.382 4405.1533 5460291
-3605.5918 1069.4208 4352.4028 5591876
-3576.1951 1068.3417 4348.0107 6118220
-3541.5886 1065.6793 4337.1758 6249808
-3515.0022 1065.4089 4336.0752 6118222
-3484.9773 1064.0846 4330.6855 6184014
-3472.9717 1068.2834 4347.7744 6315599
-3462.2212 1072.9341 4366.7012 5986633
-3416.865 1066.8496 4341.9385 5526083
-3369.387 1060.0054 4314.0835 5920842
-3326.8081 1054.6096 4292.1235 5921099
-3343.1997 1067.9686 4346.4927 6184014
-3329.7573 1071.9305 4362.6172 4539189
-3318.094 1076.5317 4381.3433 4012844
-3285.677 1074.4191 4372.7451 6315342
-3260.6272 1074.7008 4373.8921 3552293
-3181.1492 1056.9042 4301.4619 3222561
-3152.9272 1055.9868 4297.728 2893851
-3156.2375 1065.7012 4337.2646 5064764
-3119.0029 1061.7728 4321.2769 4603956
-3114.2981 1068.9449 4350.4663 5525570
-3092.6663 1070.3783 4356.2998 6117708
-3047.3208 1063.5594 4328.5479 6315087
-3012.0413 1060.1676 4314.7437 5525828
-2958.2573 1050.149 4273.9692 5328449
-2994.1211 1072.056 4363.1279 6184016
-2940.2886 1061.9489 4321.9932 5591621
-2925.0322 1065.7192 4337.3379 3486503
-2910.6804 1069.8888 4354.3076 5394499
-2816.4448 1044.5072 4251.0078 4868155
-2804.4714 1049.4507 4271.127 6052429
-2786.2207 1052.1136 4281.9653 5920587
-2715.76 1034.9294 4212.0278 6908508
-2669.0847 1026.5747 4178.0249 6184530
-2633.3132 1022.2965 4160.6133 8224113
-2600.9402 1019.2693 4148.293 7697770
-2541.9951 1005.672 4092.9536 7566185
-2539.6731 1014.4298 4128.5967 6184532
-2553.7002 1029.9518 4191.769 5723981
-2491.6609 1014.7985 4130.0972 5197380
-2486.0581 1022.5579 4161.6772 4276277
-2440.4233 1013.842 4126.2046 4144433
-2436.157 1022.3096 4160.6665 3947054
-2413.6174 1023.2037 4164.3057 5131328
-2403.957 1029.6327 4190.4702 5263429
-2398.9861 1038.2251 4225.4404 4473912
-2353.9788 1029.4893 4189.8867 4211253
-2307.8433 1020.0687 4151.5459 5461320
-2246.4927 1003.6475 4084.7141 5066562
-2190.6365 989.35016 4026.5259 6514267
-2238.1384 1021.9312 4159.1265 5790804
-2220.5806 1025.2008 4172.4331 5263948
-2175.5234 1015.705 4133.7866 6185307
-2181.8833 1030.2719 4193.0718 6184536
-2134.7998 1019.6479 4149.834 6842721
-2100.4917 1014.9496 4130.7124 5987410
-2050.2646 1002.3578 4079.4653 6316373
-2056.7808 1017.5379 4141.2461 6579289
-2031.3442 1017.0858 4139.4062 4079411
-2025.9823 1026.7968 4178.9287 4078899
-2023.9286 1038.4454 4226.3374 5196867
-1982.2625 1029.8069 4191.1792 3880752
-1963.2892 1032.8877 4203.7183 2762527
-1944.115 1035.9408 4216.144 3880751
-1935.6046 1044.8297 4252.3203 3157028
-1882.79 1029.7223 4190.8354 3880494
-1851.4382 1026.1064 4176.1191 5065025
-1828.5778 1027.1624 4180.4165 4670266
-1780.7241 1014.0152 4126.9092 3485734
-1762.8113 1017.7888 4142.2676 5657415
-1748.0181 1023.4955 4165.4932 4670776
-1678.0211 996.5802 4055.9512 6380883
-1659.939 1000.163 4070.5325 6446932
-1616.5034 988.34998 4022.4553 5197378
-1627.4059 1009.9035 4110.1753 4999486
-1609.4156 1013.9099 4126.4805 3618090
-1566.3379 1001.9911 4077.9729 3025952
-1551.2975 1007.9156 4102.085 2038801
-1504.9241 993.34686 4042.792 1907731
-1500.1436 1006.2048 4095.1223 6052430
-1460.536 995.7417 4052.5388 6776409
-1410.7052 977.84253 3979.6914 6118994
-1386.7443 977.57166 3978.5889 5395014
-1383.501 992.1485 4037.9148 5921358
-1359.3452 991.97754 4037.219 6513495
-1327.6469 986.19781 4013.696 5526600
-1300.9517 983.99127 4004.7161 4802876
-1266.8574 976.00269 3972.2034 4802877
-1224.9072 961.54468 3913.3613 4868413
-1225.049 980.20813 3989.3191 5723465
-1174.3308 958.11047 3899.3845 5789258
-1159.1127 964.6709 3926.0845 6907482
-1111.7275 944.18079 3842.6924 5197121
-1112.8167 964.86334 3926.8679 4407606
-1084.908 960.74994 3910.1267 5262660
-1058.1085 957.46069 3896.74 4670267
-1013.0835 937.16492 3814.1389 5460041
-994.57336 941.03076 3829.8721 5394249
-995.79492 964.18225 3924.0959 5525834
-969.7265 961.38531 3912.7124 6183763
-949.77832 964.6676 3926.071 4144180
-930.46924 968.78003 3942.8081 4538682
-904.26373 965.73901 3930.4319 4736316
-860.10492 942.85669 3837.3035 5920590
-849.82422 956.87781 3894.3674 5459782
-808.13629 935.33075 3806.6738 4407094
-786.0874 935.92926 3809.1099 5262403
-766.44153 939.50885 3823.6782 5854797
-742.27112 937.59131 3815.874 5723210
-719.8288 937.80463 3816.7424 6315604
-699.15637 940.41241 3827.3557 4736831
-682.78473 949.17389 3863.0137 5789262
-644.1571 926.53082 3770.8594 6052178
-623.57684 929.15204 3781.5273 4736574
-597.73242 923.83252 3759.8777 4407610
-579.58893 930.46417 3786.8677 5986640
-544.20801 908.84283 3698.8716 4473144
-526.573 916.28693 3729.168 5460039
-509.88562 926.10413 3769.1226 5525832
-485.33817 921.89044 3751.9736 5328453
-463.50925 922.68396 3755.2031 4934209
-438.93832 917.82397 3735.4236 5328196
-418.18085 920.84515 3747.7195 4078131
-393.78174 915.73651 3726.9282 2630682
-370.35989 912.42877 3713.4658 3025440
-344.47598 902.25439 3672.0576 6052176
-319.77017 894.00214 3638.4719 5262659
0 0 0 0
0 0 0 0
0 0 0 0
-167.01765 639.32507 2601.9695 3816244
0 0 0 0
0 0 0 0
-172.85728 915.03369 3724.0674 5986637
-147.80161 896.86908 3650.1401 5526085
-127.59551 906.9494 3691.1655 5525830
-105.49516 904.95026 3683.0295 4802108
-81.779572 884.43988 3599.5547 6446934
-61.56559 900.68762 3665.6809 5460038
-39.477718 892.28973 3631.5027 7039070
-17.900726 889.15308 3618.7368 4144180
3.5133109 883.07593 3594.0037 5065281
24.969822 888.94354 3617.8843 6512729
47.078064 901.87604 3670.5178 5920592
67.617149 886.07367 3606.2041 5657420
89.06308 886.88989 3609.5261 5986128
111.51201 895.44409 3644.3406 4999746
132.62485 892.23468 3631.2786 5526091
154.69656 895.47168 3644.4526 7302245
176.94246 898.80054 3658.0007 7302499
198.68953 899.14557 3659.4048 5526090
217.1523 886.02222 3605.9944 5854794
238.69644 886.69604 3608.7371 4736571
263.91022 899.77039 3661.9478 5657419
284.45703 896.15558 3647.2361 5196869
301.46262 882.6825 3592.4023 4933697
324.32498 887.00415 3609.991 4867904
343.90228 882.36243 3591.0999 4604730
362.82211 876.67291 3567.9443 5328196
382.69174 873.77856 3556.1646 6775899
410.58643 888.55322 3616.2954 5460038
430.19876 884.82751 3601.1323 4801853
449.06955 880.00079 3581.4883 3025959
471.87439 882.97095 3593.5764 6841951
490.62808 878.43134 3575.1008 6118227
514.31775 882.73926 3592.6335 4933697
540.48083 890.78137 3625.3638 3157288
554.38873 878.78253 3576.53 4406838
579.03467 884.06171 3598.0159 5328194
596.14825 877.87415 3572.8333 5460035
615.87115 875.82159 3564.4795 5789005
639.03253 878.63281 3575.9207 7104865
656.09753 873.15039 3553.6082 7828587
668.75665 862.3277 3509.561 4604731
695.02252 869.17389 3537.4241 5460041
715.37372 868.43896 3534.4333 5327942
722.84802 852.55847 3469.8015 5459528
752.23743 862.68896 3511.0315 5591369
766.52405 855.42004 3481.4478 5722699
783.42773 851.37622 3464.9897 5525576
801.21729 848.47675 3453.1897 6183507
825.79163 852.72797 3470.4912 1314829
870.78156 877.34198 3570.6672 5985357
884.2323 869.76538 3539.8313 3617067
893.8501 858.85681 3495.4351 4736059
922.32605 866.15186 3525.125 4209459
930.17755 854.18445 3476.4192 4736059
947.90454 851.6076 3465.9319 4735548
974.21686 856.68988 3486.6157 4406839
1005.7861 866.08783 3524.8643 3683371
1002.1929 845.44067 3440.833 4143411
1025.0245 847.46399 3449.0679 3090981
1039.709 842.80414 3430.1028 2827809
1056.8843 840.30328 3419.9246 2762016
1065.6439 831.3313 3383.4097 4078389
1075.7723 823.73865 3352.5088 4999489
1113.5752 837.22803 3407.4087 3551530
1132.3668 836.19824 3403.2175 3419942
1140.5895 827.53619 3367.9641 5459782
1166.6769 831.91064 3385.7676 3880494
1200.6282 841.65002 3425.4055 5261633
1187.2701 818.45239 3330.9944 4340530
1204.3755 816.67035 3323.7415 4537908
1236.3794 824.8855 3357.176 5129788
1245.3016 817.68475 3327.8701 3616806
1270.4519 821.198 3342.1685 6577491
1280.5389 815.01624 3317.0095 4603701
1299.4441 814.54883 3315.1072 4406065
1327.121 819.51202 3335.3069 5853512
1345.7069 818.79816 3332.4016 6183760
1357.0771 813.77808 3311.9705 5854539
1360.5601 804.23877 3273.147 5525060
1400.7448 816.35742 3322.4683 5261635
1422.6129 817.61328 3327.5793 5064255
1455.5074 825.08539 3357.9897 5787723
1410.9124 789.02161 3211.2146 4406069
1477.882 815.47742 3318.8865 5064256
1496.0189 814.64703 3315.5071 5656908
1507.0306 810.00854 3296.6289 3683117
1528.5515 811.06488 3300.928 5327944
1549.2446 811.66095 3303.354 5854286
1575.9891 815.37292 3318.4612 5130564
1589.3192 812.13867 3305.2983 4998978
1598.3177 806.79669 3283.5571 4472633
1600.3253 798.09674 3248.1494 5525322
1652.5801 814.3645 3314.3572 4736060
1628.2976 792.97687 3227.3123 4932924
1666.0327 801.93744 3263.7805 6577748
1697.4845 807.7027 3287.2444 4274991
1717.9353 808.16205 3289.1138 5854022
1742.2451 810.40613 3298.2471 4471859
1761.434 810.24469 3297.5901 5261631
1771.7196 806.0365 3280.4634 5524803
1811.9705 815.40424 3318.5886 4735287
1818.5647 809.58765 3294.9158 3089948
1827.584 804.96259 3276.0925 2761241
1824.9812 795.36969 3237.0505 3419426
1811.5048 781.2865 3179.7339 3222046
1842.4668 786.46185 3200.7971 4471857
1836.9076 776.10144 3158.6316 4142892
1853.7722 775.32855 3155.4861 2498067
1879.6328 778.29614 3167.5635 3814440
1926.7374 789.91449 3214.8489 3287838
1927.3789 782.44318 3184.4417 3551010
1931.0027 776.31567 3159.5034 3221533
1946.0286 774.8457 3153.5208 3287070
1971.8376 777.65643 3164.9602 4471859
1991.4833 778.00635 3166.3843 2695704
2013.4446 779.24597 3171.4292 3551013
1990.3831 763.19897 3106.1201 4340274
2003.228 761.08789 3097.5283 3880235
2000.074 752.99182 3064.5784 4736057
2049.5337 764.67145 3112.1128 5064766
2091.5457 773.38879 3147.5913 5919306
2112.3162 774.16699 3150.7585 3024414
2142.946 778.51349 3168.4482 3287074
2096.1047 754.88422 3072.28 459008
2094.3489 747.75885 3043.2808 393216
2105.8296 745.4408 3033.8467 722436
2133.7808 748.94305 3048.1003 3813932
2208.9565 768.82288 3129.0085 2563865
2241.4028 773.62372 3148.5476 2695707
2263.4944 774.8009 3153.3384 1708813
2239.1296 760.18677 3093.8608 1774863
2287.1321 770.1792 3134.5286 722947
2316.9084 773.92261 3149.7639 2695964
2307.0247 764.46429 3111.2698 2761501
2333.9307 767.25006 3122.6074 3945774
2344.1685 764.55566 3111.6416 1578509
2345.343 758.97034 3088.9102 3157026
2368.7227 760.60162 3095.5491 6249298
2376.7129 757.3042 3082.1292 2893085
2391.1694 756.10181 3077.2354 3288099
2409.6572 756.18256 3077.5642 393472
2412.4717 751.38055 3058.0208 2498329
2432.7029 752.03442 3060.6819 1248263
2448.9661 751.46088 3058.3477 3945773
2456.0635 748.104 3044.6855 3617065
2476.3 748.76898 3047.3918 4801082
2482.0801 745.08466 3032.3972 3879981
2477.261 738.29443 3004.762 4274996
2488.0022 736.20551 2996.2603 5393734
2490.0447 731.59039 2977.4773 3420199
2485.2502 725.04559 2950.8408 4406837
2476.0281 717.30951 2919.356 4340530
2453.0635 705.72717 2872.2173 3747879
2512.8699 717.95288 2921.9744 4668980
2566.8167 728.34869 2964.2839 4866360
2615.8013 737.20477 3000.3269 3945001
2609.1089 730.35571 2972.4524 3813928
2605.5569 724.4718 2948.5056 3222307
2637.3804 728.43683 2964.6428 4274739
2665.991 731.46796 2976.979 2300949
2688.2446 732.7265 2982.1011 2827294
2721.2405 736.87744 2998.9949 2498329
2696.9353 725.55878 2952.9294 2498329
2703.9128 722.7478 2941.4893 2695964
2744.8528 728.99274 2966.9053 3090464
2729.9897 720.43213 2932.0645 3222050
2711.8359 711.1167 2894.1521 3287843
2720.1875 708.8252 2884.8259 2431764
2732.3711 707.55457 2879.6545 3089950
2774.731 714.06543 2906.1531 2629142
0 0 0 0
0 0 0 0
0 0 0 0
0 0 0 0
0 0 0 0
0 0 0 0
-3949.1045 1104.7439 4390.3091 5723203
-3828.6941 1078.1605 4284.6655 5788997
-3817.8113 1082.2711 4301.0015 3289119
-3793.7505 1082.6761 4302.6108 3486498
-3743.1624 1075.4651 4273.9536 3749414
-3728.8787 1078.6575 4286.6406 3814954
-3643.8254 1061.2817 4217.5884 3749416
0 0 0 0
0 0 0 0
0 0 0 0
-3540.8381 1060.3704 4213.9663 4407346
-3529.7551 1064.5569 4230.604 4604723
-3553.6704 1079.4341 4289.7271 4933688
-3480.6958 1064.8832 4231.9009 5131068
-3448.7876 1062.7762 4223.5273 5526340
-3495.9141 1085.1718 4312.5283 5591876
-3460.6924 1082.1469 4300.5073 5525826
-3390.7124 1068.1277 4244.7949 3683881
-3392.407 1076.6466 4278.6489 4341552
-3362.0969 1075.0597 4272.3428 5394239
-3322.562 1070.4768 4254.1299 6117963
-3340.9507 1084.6284 4310.3696 6183756
-3294.0598 1077.6421 4282.6055 5262654
-3276.8018 1080.3169 4293.2354 6775893
-3204.0281 1064.5878 4230.7266 5855047
-3139.7126 1051.4429 4178.4883 6250060
-3228.6733 1089.8269 4331.0283 5723459
-3120.1187 1061.6213 4218.938 4078122
-3112.4873 1067.5767 4242.605 6446925
-3093.1897 1069.5948 4250.625 5196859
-3044.2693 1061.3188 4217.7358 6315599
-3011.2922 1058.5103 4206.5742 6512980
-3053.8875 1082.4409 4301.6763 5131327
-3004.3621 1073.848 4267.5273 5525829
-2956.2544 1065.62 4234.8291 5657414
-2890.5703 1050.8615 4176.1777 5393985
-2902.2114 1064.2021 4229.1943 5459522
-2848.4041 1053.5671 4186.9302 4735799
-2837.022 1058.5753 4206.833 5657671
-2827.5205 1064.3802 4229.9023 6052429
-2795.2529 1061.6425 4219.022 5920843
-2745.2832 1052.0712 4180.9854 3486502
-2724.7183 1053.6969 4187.4463 6447187
-2685.2791 1047.9867 4164.7529 4671545
-2601.8528 1024.8442 4072.7839 5855565
-2588.1387 1028.9846 4089.238 7368804
-2559.4265 1027.1841 4082.0825 7697770
-2516.5369 1019.6049 4051.9624 6513751
-2514.3169 1028.5162 4087.3765 6447957
-2519.5979 1040.6991 4135.792 6053455
-2491.0349 1039.005 4129.0596 6842201
-2448.863 1031.5449 4099.4126 4999484
-2419.1897 1029.2527 4090.3032 4736568
-2421.491 1040.6555 4135.6187 4802361
-2365.0754 1026.7996 4080.5544 4604982
-2318.623 1017.0276 4041.72 4276016
-2341.5432 1037.7982 4124.2637 3881004
-2321.9712 1039.9755 4132.916 5329475
-2283.5649 1033.6736 4107.8721 5329475
-2219.8796 1015.6699 4036.3247 6053456
-2229.8259 1031.33 4098.5586 6053456
-2208.3958 1032.663 4103.856 5921614
-2131.1362 1007.6288 4004.3687 6513495
-2148.3035 1027.1797 4082.0649 5592136
-2094.6152 1012.9116 4025.3633 5723465
-2077.3315 1016.1222 4038.1221 5460292
-2078.3352 1028.4569 4087.1406 5986636
-2050.0325 1026.4094 4079.0039 5920843
-2022.895 1024.9033 4073.0186 7105632
-2012.959 1032.1812 4101.9414 4144946
-2005.3489 1040.8444 4136.3691 7434599
-2006.0413 1054.0842 4188.9854 5197637
-1971.0956 1048.6952 4167.5688 3815726
-1934.0803 1042.0542 4141.1772 4539194
-1931.2496 1053.8976 4188.2432 4670524
-1873.3657 1035.6151 4115.5879 6973792
-1852.2198 1037.4275 4122.7905 6381656
-1789.2601 1015.5555 4035.8699 5460039
-1762.1042 1013.6878 4028.4478 5788746
-1770.6166 1032.5696 4103.4849 3683881
-1704.9862 1008.1373 4006.3899 4736570
-1725.853 1034.882 4112.6743 6118222
-1669.0812 1015.171 4034.342 5592393
-1647.6178 1016.6749 4040.3186 6184786
-1605.9073 1005.5451 3996.0884 6513751
-1597.1986 1015.0557 4033.8838 5986894
-1610.3298 1038.9459 4128.8247 6118738
-1563.1671 1024.0726 4069.7178 5000256
-1517.7576 1009.9003 4013.3958 5658188
-1465.4891 990.64001 3936.8547 4934464
-1443.1866 991.34094 3939.6401 5591880
-1418.3885 990.32245 3935.5925 6907995
-1405.4078 997.65869 3964.7473 6250323
-1366.6476 986.63312 3920.9309 6579288
-1357.4454 996.93433 3961.8687 5658441
-1338.3263 1000.1866 3974.7935 4868669
-1295.4329 985.46979 3916.3079 5855051
-1278.9301 990.65826 3936.927 5131328
-1235.8262 975.05157 3874.9053 4473398
-1186.0145 953.46161 3789.106 4802363
-1175.8949 963.56354 3829.2512 5789001
-1166.7474 974.87512 3874.2041 5460293
-1139.0419 970.82312 3858.1013 5065534
-1096.2805 953.51044 3789.2996 5920843
-1078.4305 957.59381 3805.5273 5920842
-1045.8677 948.50842 3769.4214 6184014
-1018.4734 943.81616 3750.7742 5723465
-1006.8207 953.82776 3790.5605 4604985
-985.28674 954.72125 3794.1116 7433828
-963.32776 955.23511 3796.1536 5196868
-949.58087 964.11115 3831.4277 4209972
-922.20105 959.24164 3812.0757 1314824
-904.05164 963.96967 3830.8652 4078385
-882.31342 965.01611 3835.0237 2893854
-851.0188 955.38934 3796.7666 4012335
-821.68665 947.50287 3765.4253 4671294
-801.62091 950.15973 3775.9836 5328968
-783.74164 955.63501 3797.7429 4538937
-756.30133 949.43158 3773.0901 5591625
-734.01495 949.51727 3773.4307 5525575
-707.79401 944.35876 3752.9304 5459524
-690.409 951.03717 3779.4707 2893596
-665.20392 947.02997 3763.5461 4604472
-630.47369 928.71399 3690.7576 4736060
-618.53333 943.85846 3750.9421 3946801
-593.99548 940.19189 3736.3713 4999233
-565.00604 928.92273 3691.5872 3157285
-539.85461 923.31018 3669.2825 5657418
-511.42108 911.37787 3621.8628 3420199
-491.23724 913.74561 3631.2722 4999488
-479.27725 932.32788 3705.1191 5131074
-454.33093 926.21936 3680.8435 5394501
-430.4837 921.84851 3663.4736 6907484
-416.78546 939.90082 3735.2144 5328452
-387.82687 923.63391 3670.5688 4867902
-364.78839 920.37115 3657.6023 4867645
-342.21762 917.95081 3647.9839 2367771
-314.99216 901.87701 3584.1057 4735800
0 0 0 0
0 0 0 0
0 0 0 0
-167.62732 657.12964 2611.4673 1512721
0 0 0 0
0 0 0 0
-164.00996 889.13269 3533.4592 4604984
-145.76649 905.84644 3599.8804 5131071
-125.19286 911.32684 3621.6602 4802106
-103.87287 912.51764 3626.3923 5789003
-82.235512 910.81433 3619.623 4802108
-60.630714 908.39716 3610.0173 4868157
-39.053917 903.99371 3592.5176 6183762
-17.681534 899.44122 3574.4258 4933696
3.4741778 894.29437 3553.9719 5591626
24.271595 884.9201 3516.7183 6117969
44.729031 877.53552 3487.3716 6380886
65.893066 884.30017 3514.2546 5591370
85.312874 870.02863 3457.5386 5196868
109.65027 901.72382 3583.4968 4407608
131.07199 903.0484 3588.7612 6841950
151.63881 898.93542 3572.416 6578262
173.789 904.06683 3592.8081 6315090
194.11032 899.60236 3575.0664 5393987
215.35611 899.87939 3576.1672 5920072
236.60637 900.12378 3577.1384 4867642
252.70419 882.33777 3506.4558 5723211
268.73001 867.02155 3445.5884 6315348
292.58508 877.3446 3486.6125 5986125
317.60324 889.56384 3535.1726 4143922
335.19397 880.755 3500.1658 4340788
362.20264 896.2774 3561.8525 4077616
375.62778 878.32849 3490.5227 6446932
388.74658 861.57355 3423.938 5920074
426.92123 899.25763 3573.6965 4800823
443.26959 889.57867 3535.2314 4603957
466.80612 894.54773 3554.9788 7301473
478.5444 877.45453 3487.0498 4933437
497.51144 874.48218 3475.2373 5723211
518.75983 875.59668 3479.6665 5789002
540.81866 877.94165 3488.9854 4538679
564.61859 882.83624 3508.437 4077871
583.38788 879.79675 3496.3577 3946285
597.9021 870.76868 3460.4797 4736057
634.19965 893.01215 3548.8765 5525575
642.336 875.44696 3479.0715 6512213
663.57275 876.27362 3482.3567 4670265
679.75085 870.57159 3459.6965 4604730
694.83325 863.84113 3432.9495 5065027
714.30334 862.7934 3428.7856 6117970
740.73218 869.9765 3457.3315 2894111
755.52258 863.47162 3431.481 4604472
767.93756 854.66394 3396.4788 6380883
780.25043 846.19537 3362.824 5591112
812.63574 859.37537 3415.2021 4933439
845.8266 872.74628 3468.3386 4867902
874.30463 880.73535 3500.0879 4341302
895.43707 881.12616 3501.6409 2367256
901.14569 866.66559 3444.1738 5327940
915.46936 860.94733 3421.4492 4538425
937.28711 862.37183 3427.1104 3946288
954.52972 859.61578 3416.1577 4736062
977.07697 861.65216 3424.2502 4933441
990.57758 855.79004 3400.9539 3749424
999.27405 846.09393 3362.4209 4933697
1016.7958 844.10321 3354.5098 3551788
1034.0166 841.94373 3345.928 4933440
1058.7523 845.86945 3361.5291 4209460
1071.2477 840.05157 3338.4082 2038551
1092.5397 841.21765 3343.0425 3683117
1118.4517 845.83624 3361.3967 2038293
1130.2968 839.84088 3337.5713 3222567
1144.7941 835.98877 3322.2625 4275254
1159.2811 832.2594 3307.4417 2893085
1176.2513 830.40704 3300.0803 2300691
1186.9883 824.28668 3275.7578 4406066
1221.8086 834.81848 3317.6118 3418914
1229.7068 826.91315 3286.1953 3089949
1256.205 831.56671 3304.6892 3418658
1237.5723 806.66077 3205.7117 3879209
1257.3661 807.17603 3207.759 4734774
1291.6696 816.85168 3246.2107 4734774
1292.5077 805.3905 3200.6633 4274736
1313.2612 806.49103 3205.0369 5327424
1326.6096 803.07739 3191.4709 4669495
1364.0776 814.1557 3235.4966 3616807
1412.3544 831.2887 3303.5842 5985354
1392.557 808.43359 3212.7571 4077359
1400.724 802.21057 3188.0264 4932667
1427.3998 806.61218 3205.5186 5261377
1475.6781 822.94531 3270.4272 3617581
1495.3232 823.09424 3271.0188 3880497
1513.7285 822.56537 3268.9175 4472889
1523.6462 817.49622 3248.7722 5788750
1568.5757 831.10425 3302.8511 7170405
1552.3114 812.35315 3228.3333 3946548
1562.8781 807.92877 3210.7505 5262150
1598.1637 816.23553 3243.7622 5328199
1601.0144 807.97607 3210.9387 5064770
1613.0209 804.47699 3197.0332 5986125
1638.3916 807.64709 3209.6311 5985868
1695.8573 826.38409 3284.0933 5261631
1678.4761 808.63727 3213.5662 5590595
1723.5157 821.02362 3262.7903 6577234
1748.0649 823.48254 3272.5623 4867130
1782.9708 830.71289 3301.2959 2696734
1777.7328 819.28552 3255.8828 3683371
1811.0045 825.66064 3281.2178 3091237
1793.5951 809.03943 3215.1646 7696746
1827.881 815.84094 3242.1938 3485993
1814.4972 801.44562 3184.9863 3683371
1797.683 785.84711 3122.9971 3748392
1817.5437 786.43536 3125.3347 3682085
1840.7939 788.46344 3133.3945 2827032
1844.5421 782.18121 3108.4287 2958618
1866.1816 783.5351 3113.8088 3287582
1907.3737 792.99139 3151.3887 3747877
1899.0557 781.88 3107.2317 3089690
1925.5491 785.17706 3120.334 3550497
1937.3773 782.48816 3109.6484 3813927
1963.0901 785.40503 3121.2402 4274478
1970.3008 780.93408 3103.4724 4208430
1993.7224 782.91168 3111.3315 5393217
1988.5417 773.72406 3074.8193 2433559
1997.7916 770.26715 3061.0815 3945771
2018.2515 771.15558 3064.6123 5130047
2053.4124 777.59534 3090.2039 2695194
2083.0488 781.84766 3107.103 2892316
2096.8484 780.13342 3100.2905 2760988
2105.7837 776.65485 3086.4666 1840657
2085.6633 762.61218 3030.6602 459778
2095.2407 759.57532 3018.5916 328193
2102.9705 755.92578 3004.0881 3879980
2142.9868 763.84564 3035.562 4998462
2171.5181 767.57404 3050.3789 3879979
2223.7146 779.53693 3097.9199 3682601
2230.709 775.58777 3082.2258 2958879
2256.7808 778.2818 3092.9321 1906706
2269.8901 776.49829 3085.8442 1446155
2299.4395 780.32214 3101.0405 1840657
2291.748 771.54779 3066.1707 3814446
2315.7368 773.4931 3073.9016 2827808
2319.6609 768.75842 3055.0857 3222310
2342.0662 770.17456 3060.7134 3683116
2361.792 770.69446 3062.7798 4801600
2378.321 770.17126 3060.7004 3946290
2381.4302 765.3432 3041.5134 1709073
2396.5063 764.4046 3037.7834 3748399
2410.4319 763.11584 3032.6619 459779
2430.3423 763.72675 3035.0896 3485741
2434.0872 759.28613 3017.4424 1643537
2462.8652 762.66211 3030.8586 1248266
2434.5044 748.4234 2974.2734 2958882
2446.3179 746.651 2967.2297 2827807
2457.592 744.74066 2959.6377 3156515
2469.7205 743.11432 2953.1746 4998462
2466.9446 737.0578 2929.1057 5064255
2467.1169 731.96063 2908.8494 5130047
2462.6833 725.57709 2883.481 4340531
2497.4509 730.75171 2904.0452 3353380
2541.0596 738.4248 2934.5383 3287074
2565.8286 740.55603 2943.0081 3089951
2581.9019 740.16565 2941.4565 3551015
2573.4062 732.78442 2912.1233 3945519
2601.9712 735.98438 2924.8398 3156773
2589.9797 727.74622 2892.1011 4012082
2657.0781 741.6933 2947.5276 5262149
2677.3379 742.4693 2950.6113 3025188
2673.5847 736.61908 2927.3623 4143669
2675.0364 732.26923 2910.0757 3025189
2655.0598 722.14673 2869.8484 4801597
2689.2666 726.79651 2888.3269 4209718
2694.7458 723.67285 2875.9133 4011566
2695.7239 719.38715 2858.8818 4472117
2719.2158 721.12555 2865.7903 2958878
2733.8625 720.51123 2863.3489 3287330
0 0 0 0
0 0 0 0
0 0 0 0
0 0 0 0
0 0 0 0
0 0 0 0
-3742.1021 1071.4817 4160.1797 6447440
-3672.6719 1058.5735 4110.062 5328702
-3721.2302 1079.7279 4192.1968 3815462
-3688.9014 1077.5389 4183.6982 5394750
-3659.0994 1076.0637 4177.9702 7368540
-3631.1648 1075.1212 4174.3105 5065785
-3580.7461 1067.4629 4144.5762 4999737
0 0 0 0
0 0 0 0
0 0 0 0
-3492.2249 1070.4338 4156.1113 4473135
-3447.3701 1064.1881 4131.8613 4603695
-3407.0093 1059.25 4112.6885 4538159
-3362.219 1052.8539 4087.8545 5393468
-3375.7886 1064.7723 4134.1299 4538161
-3366.3643 1069.5596 4152.7168 4011559
-3376.7471 1080.7566 4196.1909 4735539
-3351.8884 1080.7567 4196.1914 3748643
-3283.8887 1066.7429 4141.7808 4735796
-3259.0505 1066.6443 4141.3979 5525826
-3260.405 1075.1816 4174.5454 4144173
-3265.1292 1084.9692 4212.5474 5394240
-3191.0334 1068.515 4148.6611 5196861
-3149.7349 1062.8726 4126.7534 4275502
-3148.5671 1070.7897 4157.4932 3815210
-3094.9543 1060.8555 4118.9219 5657410
-3043.2947 1051.4379 4082.3567 6841684
-3056.2446 1064.3705 4132.5693 5525826
-3019.7017 1060.1362 4116.1294 6118220
-3003.8318 1063.15 4127.8306 6249806
-2969.1458 1059.4989 4113.6548 6710358
-2871.9614 1033.3011 4011.9382 6512980
-2932.3823 1063.844 4130.5254 6907482
-2874.665 1051.6808 4083.2998 5394499
-2822.2559 1041.2695 4042.8765 6249808
-2841.3667 1057.2931 4105.0903 5197120
-2844.2693 1067.51 4144.7593 5196350
-2766.6382 1047.4159 4066.7407 5328193
-2764.1018 1055.6483 4098.7046 4539190
-2701.6877 1040.9559 4041.6594 6184015
-2697.7603 1048.7372 4071.8708 5921614
-2688.5144 1054.5726 4094.5278 5592649
-2655.2502 1051.0073 4080.6853 5723721
-2574.845 1028.5457 3993.4744 5987406
-2561.3647 1032.649 4009.4065 6514007
-2576.6326 1048.528 4071.0586 7171422
-2530.5637 1039.5109 4036.0483 7237213
-2507.4348 1039.835 4037.3069 6907736
-2479.8723 1038.3091 4031.3821 5460033
-2500.7385 1057.2274 4104.8354 6381646
-2432.8333 1038.6191 4032.5864 6776405
-2380.7944 1026.4828 3985.4651 5986889
-2352.1987 1024.312 3977.0364 6447440
-2338.9517 1028.8488 3994.6516 6447439
-2303.6885 1023.6949 3974.6409 6315855
-2244.873 1007.8605 3913.1619 5855047
-2249.1013 1020.2953 3961.4414 4473649
-2242.5366 1028.0446 3991.5291 4341807
-2185.9158 1012.7672 3932.2124 4670515
-2192.5212 1026.7699 3986.5801 5656899
-2153.7246 1019.5839 3958.6792 4406577
-2126.9097 1017.9745 3952.4307 3814954
-2086.8455 1009.9172 3921.147 5722950
-2091.1653 1023.3997 3973.4946 6315600
-2026.7839 1003.1847 3895.0071 6184785
-2034.2166 1018.4588 3954.3108 5065535
-2012.5004 1019.3249 3957.6736 6578774
-1983.8319 1016.6487 3947.2827 6118223
-1968.3314 1020.7371 3963.1567 6908253
-1951.3727 1024.1591 3976.4429 6579289
-1926.3928 1023.4033 3973.5088 6381653
-1880.6359 1011.4545 3927.1155 5066050
-1833.3159 998.35516 3876.2554 5329224
-1841.7587 1015.6749 3943.502 5329222
-1821.1486 1017.2122 3949.4705 4473400
-1822.9948 1031.4956 4004.9282 6315347
-1777.2092 1018.8492 3955.8267 3749676
-1763.007 1024.2131 3976.6528 5657417
-1721.8486 1013.85 3936.4167 4933950
-1696.6664 1012.7387 3932.1018 5921357
-1695.8707 1026.3552 3984.9697 6513751
-1645.37 1009.8497 3920.8848 6514009
-1619.5232 1008.2195 3914.5554 6118995
-1588.5641 1003.313 3895.5054 7369318
-1578.4475 1011.6199 3927.7581 6448217
-1565.3483 1018.2352 3953.4426 6184789
-1538.0839 1015.6972 3943.5884 8092786
-1526.7264 1023.7473 3974.8442 7171430
-1467.8816 999.70819 3881.509 6974307
-1454.8262 1006.5852 3908.21 6645085
-1415.1938 994.99908 3863.2251 6184534
-1345.9913 961.89978 3734.7124 5987154
-1354.2643 983.98669 3820.468 7039840
-1335.4852 986.83466 3831.5256 6908254
-1310.6582 985.23492 3825.3145 6908255
-1270.9211 972.17365 3774.6023 4605499
-1262.3638 982.92206 3816.3345 5921357
-1226.782 972.63672 3776.3999 5591879
-1223.0537 987.69281 3834.8577 4999485
-1189.6501 978.9007 3800.7209 5986637
-1143.7196 959.26276 3724.4736 5920843
-1131.499 967.68164 3757.1611 5394242
-1109.786 968.15723 3759.0078 5526084
-1079.3875 960.92017 3730.9087 5263169
-1049.7174 954.0426 3704.2056 5262914
-1020.1698 946.98486 3676.8032 3815213
-998.54266 947.13196 3677.3743 7104865
-989.26581 959.26135 3724.4683 6776671
-969.02533 961.0705 3731.4924 7697773
-928.97125 942.85437 3660.7659 7500394
-916.69794 952.63733 3698.7495 4144950
-906.88867 965.52289 3748.7795 4210742
-882.98743 963.67548 3741.6067 5855311
-865.21039 968.58905 3760.6843 2959905
-845.15076 971.1394 3770.5867 3815215
-818.05542 965.52429 3748.7849 5131076
-792.46179 961.4176 3732.8401 5591626
-769.7981 960.73169 3730.1772 4144180
-725.51825 932.23053 3619.5171 4867904
-721.11633 954.79346 3707.1211 4341816
-706.5556 964.90076 3746.364 5854798
-658.80731 928.8714 3606.4749 5723469
-639.75317 932.23956 3619.5525 5986897
-619.09125 933.4173 3624.1252 6117970
-596.47656 931.62964 3617.1843 5789004
-571.75458 926.2948 3596.4709 5131074
-551.5752 928.1911 3603.8337 4538937
-524.09235 917.45502 3562.1494 6249556
-506.94696 924.67377 3590.1772 6250326
-485.8407 924.9837 3591.3804 6447705
-467.01279 929.85822 3610.3066 6512983
-445.19589 928.96393 3606.8342 5065535
-425.57382 932.79004 3621.6899 6118222
-405.15927 935.19324 3631.0205 5591878
-390.45566 951.78711 3695.4487 4275765
-363.54767 938.83545 3645.1619 3420199
-338.70419 929.91608 3610.5312 4802112
-311.67679 913.39404 3546.3821 5263174
0 0 0 0
0 0 0 0
0 0 0 0
-168.1964 674.88403 2620.333 921100
0 0 0 0
0 0 0 0
-160.18892 888.86334 3451.1379 2828319
-144.44043 918.73828 3567.1318 4999488
-123.78722 922.30927 3580.9968 5328452
-101.05006 908.61914 3527.8428 4209715
-80.610527 913.83636 3548.0991 4077872
-58.53735 897.68164 3485.3762 4603959
-38.009594 900.53412 3496.4517 5327681
-17.248154 898.05225 3486.8152 3880238
3.3628757 886.02386 3440.1133 4011822
23.793367 887.90778 3447.4277 5657418
44.098667 885.53735 3438.2244 4209457
63.870136 877.33197 3406.366 5591366
84.595406 883.02277 3428.4612 5065275
104.86368 882.66327 3427.0654 3946794
127.09959 896.29602 3479.9966 5328192
146.53374 889.12317 3452.147 6315345
167.06892 889.56989 3453.8813 4933695
189.48151 898.82465 3489.8142 6117712
210.16583 898.86694 3489.9785 5393989
229.72858 894.53436 3473.1565 5722697
248.21513 887.06793 3444.167 3946543
268.14615 885.50586 3438.1021 5328454
285.24963 875.48621 3399.1995 5723211
306.16074 877.70355 3407.8086 5657673
325.94635 876.61963 3403.6001 4144175
349.5275 885.27527 3437.207 6117710
374.89932 897.26361 3483.7534 4012078
389.13858 882.74713 3427.3909 6643283
413.42343 891.32837 3460.7087 4932666
439.1535 902.0672 3502.4041 4208943
461.8884 905.96246 3517.5278 4208944
476.95935 895.13782 3475.4998 4471860
498.02994 896.00311 3478.8591 3419429
512.79614 885.90814 3439.6641 5590855
534.39478 887.93738 3447.543 5064509
554.91516 888.09167 3448.1418 4669751
566.02228 873.70471 3392.2825 4669494
591.24518 881.34619 3421.9517 3551525
608.67285 877.24622 3406.0327 4406837
627.18085 874.91638 3396.9871 2696220
654.70068 884.91211 3435.7969 4735547
669.06976 877.06604 3405.3335 4604474
683.27283 869.46802 3375.833 5722955
705.25458 871.91913 3385.3496 5130817
727.33075 874.34814 3394.7808 4078902
752.78162 880.59412 3419.0317 2695962
762.66376 868.77789 3373.1536 4538423
778.96057 864.68573 3357.2651 3420200
797.57043 863.3009 3351.8884 5789003
833.24689 880.00781 3416.7551 7565160
840.25299 866.36108 3363.7698 6973024
868.81927 875.06152 3397.5508 6709854
872.8576 859.22339 3336.0569 4406841
903.09802 869.30829 3375.2129 5459528
918.01978 864.53009 3356.6609 3288357
940.61273 867.02557 3366.3501 4275765
957.74762 864.49097 3356.5088 5460041
969.08392 856.93195 3327.1597 4736318
990.62396 858.51709 3333.3145 5130819
1003.5352 852.70844 3310.7615 4538939
1019.1916 849.4104 3297.9563 5789006
1047.5522 856.62518 3325.9688 3420714
1069.9948 858.82343 3334.5037 4473146
1086.6223 856.35919 3324.936 2169878
1105.0718 855.39294 3321.1846 2038292
1118.6685 850.76996 3303.2351 2301207
1131.4825 845.72095 3283.6316 2103571
1140.4207 837.99451 3253.6326 3814189
1169.291 844.92786 3280.5525 1775120
1176.99 836.5863 3248.165 2169362
1186.8604 830.03156 3222.7156 2760987
1193.42 821.40582 3189.2246 2826777
1208.1088 818.5567 3178.1628 2563605
1219.7968 813.79309 3159.6672 4011051
1245.6581 818.48645 3177.8899 4405552
1259.8767 815.50378 3166.3093 4668724
1252.7623 799.00262 3102.2412 3550243
1284.6504 807.49445 3135.2119 3352609
1286.2832 796.99762 3094.4565 5392447
1306.3169 798.03705 3098.4922 4537140
1347.1211 811.56067 3150.9995 4405811
1378.3302 819.01318 3179.9348 5195583
1398.3777 819.72174 3182.686 4669753
1390.9492 804.51947 3123.6611 5130560
1431.7719 817.25842 3173.1216 4998204
1440.504 811.58704 3151.1018 2498328
1461.5513 812.9104 3156.24 3813929
1490.2581 818.4068 3177.5806 2958621
1483.5234 804.54547 3123.762 4603447
1506.7112 807.05328 3133.4988 2958877
1533.6052 811.46118 3150.613 2432536
1557.6929 814.29584 3161.6191 5261890
1564.2803 808.02356 3137.2661 4801853
1563.6267 798.20221 3099.1333 5657162
1588.1807 801.32739 3111.2673 4867904
1621.6893 808.84729 3140.4644 7894640
1663.4923 820.2865 3184.8789 6183763
1690.2616 824.13904 3199.8367 6051917
1708.558 823.82068 3198.6008 4670265
1737.8718 828.76343 3217.7917 4736057
1747.7971 824.45319 3201.0564 5591369
1756.3486 819.5943 3182.1912 5393991
1731.0648 799.21716 3103.0742 6446421
1745.8302 797.56439 3096.657 3814701
1779.3513 804.42511 3123.2949 3551785
1757.2777 786.26959 3052.8035 5525574
1769.6145 783.72375 3042.9187 5130558
1789.2765 784.44049 3045.7017 3682852
1809.2887 785.29504 3049.0195 3946026
1825.5555 784.52307 3046.0222 4142890
1828.4541 778.07758 3020.9968 3024409
1865.3672 786.09125 3052.1106 3944997
1890.0363 788.8407 3062.7859 3484704
1909.441 789.36169 3064.8086 4602928
1932.5459 791.38806 3072.6763 4931895
1952.5515 792.1192 3075.5151 4537138
1955.6633 786.04669 3051.9377 4142637
1969.733 784.4494 3045.7361 1840142
1977.6091 780.43695 3030.1572 3287329
1997.0201 781.00787 3032.3738 4076845
2013.0847 780.27142 3029.5144 2958365
2040.512 783.91327 3043.6545 3418916
2055.248 782.65839 3038.7822 3221794
2046.4562 772.54352 2999.5098 3879467
2072.1653 775.51483 3011.0464 4997691
2073.2397 769.29443 2986.8948 3221539
2086.5171 767.66913 2980.5845 3616551
2126.7063 775.88934 3012.5005 3221791
2112.1191 764.15491 2966.9399 4274478
2162.801 776.03333 3013.0596 3748134
2194.7778 781.06061 3032.5786 3156255
2220.459 783.78412 3043.1531 4932666
2225.7974 779.34082 3025.9014 3420456
2229.3064 774.33319 3006.4585 3354664
2217.241 764.03802 2966.4861 4078388
2252.8198 770.19348 2990.3855 4604475
2265.1729 768.37439 2983.3228 4670267
2302.4634 774.97717 3008.9587 4077874
2303.938 769.51587 2987.7546 3683372
2292.6626 759.9118 2950.4653 5919821
2300.9622 756.89215 2938.7412 5064512
2313.6814 755.36084 2932.7957 5392964
2361.1013 765.0968 2970.5969 3813933
2379.0144 765.19806 2970.99 3550761
2397.6069 765.51465 2972.2192 2629661
2394.9463 759.09039 2947.2761 2498075
2388.3994 751.53625 2917.946 1050887
2399.6067 749.63708 2910.5723 1445644
2412.7268 748.35828 2905.6072 2433050
2449.6384 754.4248 2929.1614 2235670
2447.1323 748.35175 2905.5818 3616554
2431.1309 738.26532 2866.4199 4011824
2460.9951 742.15039 2881.5042 3749163
2456.9824 735.83618 2856.9885 4406837
2484.707 739.04822 2869.4597 3156257
2511.6228 741.97766 2880.8337 3616808
2525.175 740.94653 2876.8301 3024927
2531.5505 737.83746 2864.7585 5459785
2534.1855 733.68677 2848.6431 3617324
2548.5498 732.96442 2845.8384 4406841
2585.0122 738.56519 2867.5842 3748911
2598.3098 737.51764 2863.5168 2893602
2626.376 740.64844 2875.6726 3222567
2648.6057 742.10358 2881.3225 3880241
2640.8926 735.20422 2854.5349 2433049
2641.3335 730.64832 2836.8459 4867645
2625.7214 721.73749 2802.2483 4340532
2654.856 725.16089 2815.54 4406324
2644.3479 717.78101 2786.8867 4669496
2668.2874 719.7851 2794.6677 4471606
0 0 0 0
0 0 0 0
0 0 0 0
0 0 0 0
0 0 0 0
0 0 0 0
-3628.3071 1062.795 4033.6716 7039579
-3535.9177 1042.5992 3957.0217 8026731
-3492.041 1036.5337 3934.001 8026730
-3480.1396 1039.9417 3946.9351 7039578
-3477.3279 1046.1304 3970.4231 5197374
-3572.5251 1082.0892 4106.8994 4341809
-3555.6428 1084.3606 4115.5205 5657666
0 0 0 0
0 0 0 0
0 0 0 0
-3358.4902 1053.1205 3996.9531 5131064
-3323.0918 1049.4194 3982.9065 5196344
-3351.3625 1065.9159 4045.5159 5525822
-3288.8083 1053.5544 3998.6003 5460285
-3286.907 1060.5845 4025.2817 4670515
-3252.1013 1057.0227 4011.7632 4999481
-3251.9934 1064.7688 4041.1626 5196858
-3244.3855 1070.1562 4061.6099 5394239
-3212.5664 1067.5785 4051.8264 5328445
-3148.5457 1054.1803 4000.9753 5657409
-3133.1611 1056.9863 4011.6257 5657669
-3110.6941 1057.428 4013.3013 5262654
-3057.0732 1047.2043 3974.4995 4604726
-3053.8767 1054.2292 4001.1611 4012843
-3024.4131 1052.2252 3993.5554 7039065
-2978.2783 1044.344 3963.6433 6841940
-2967.0237 1048.6654 3980.0449 5394752
-2976.1343 1060.3118 4024.2463 6315596
-2936.6038 1054.6766 4002.8594 6447439
-2913.3169 1054.8313 4003.4463 6118475
-2845.7229 1038.8143 3942.6565 6710611
-2855.3489 1050.9542 3988.7314 5723460
-2816.3821 1045.2623 3967.1289 6973785
-2827.4097 1058.1854 4016.1763 6579028
-2804.1685 1058.3936 4016.9663 6052428
-2774.9365 1056.325 4009.115 4012847
-2714.5706 1042.2664 3955.7581 5855050
-2689.7993 1041.7488 3953.7937 5854793
-2646.0305 1033.7998 3923.6245 5131327
-2613.6536 1030.2002 3909.9626 6249809
-2614.7183 1039.8353 3946.5312 5131327
-2630.8542 1055.6921 4006.7134 6249809
-2567.6619 1039.7153 3946.0762 5855050
-2544.5151 1039.8097 3946.4341 5657670
-2547.4917 1050.6799 3987.6904 6052427
-2542.8555 1058.5845 4017.6909 5592133
-2513.1433 1056.1008 4008.2644 6315342
-2444.312 1036.9736 3935.6707 6644308
-2438.5115 1044.476 3964.1443 5591620
-2399.4526 1037.74 3938.5793 5131327
-2361.314 1031.274 3914.0383 4472881
-2319.323 1022.9804 3882.5613 3354143
-2270.0222 1011.2643 3838.0947 5064505
-2261.1843 1017.5192 3861.8342 6512721
-2217.5598 1008.0881 3826.0398 7696992
-2173.6956 998.35211 3789.0884 5262650
-2176.1375 1009.9028 3832.9275 4933172
-2194.1592 1029.0035 3905.4214 4538413
-2177.9651 1032.2941 3917.9102 4604466
-2137.5806 1024.0665 3886.6833 5328702
-2116.7478 1025.1285 3890.7139 1183751
-2047.8448 1002.6774 3805.5046 5526085
-2005.0394 992.64679 3767.4348 3683880
-1971.8929 987.22601 3746.8613 6907737
-1956.5403 990.69189 3760.0151 6446928
-1946.8422 997.13367 3784.4639 5131067
-1931.6886 1000.8987 3798.7534 5788997
-1909.8351 1001.2401 3800.0491 4538929
-1893.0558 1004.2814 3811.5923 6447183
-1883.8003 1011.4359 3838.7461 7236701
-1891.0999 1027.7625 3900.7109 6710359
-1846.4882 1015.9317 3855.8088 6381394
-1775.6171 989.17566 3754.2605 5920587
-1767.3331 997.04962 3784.145 5657414
-1785.7697 1020.394 3872.7451 5131327
-1791.9196 1037.2341 3936.6592 4210224
-1723.4452 1010.7534 3836.1553 6578516
-1673.3319 994.47711 3774.3813 5789000
-1656.5825 997.85669 3787.2083 4933692
-1633.1307 997.23669 3784.855 5460290
-1636.9403 1013.4777 3846.4951 5394238
-1596.1195 1002.1551 3803.522 4407086
-1575.3906 1003.3039 3807.8823 4801845
-1537.6932 993.52264 3770.759 6183503
-1517.7258 995.07758 3776.6604 6512981
-1490.3082 991.72113 3763.9216 5986638
-1478.5903 998.86877 3791.0493 6052944
-1441.2882 988.68683 3752.4053 6118738
-1419.3777 988.90942 3753.2502 6710876
-1404.6309 994.20966 3773.3665 6776668
-1374.1226 988.34485 3751.1077 6118996
-1337.6017 977.89154 3711.4338 6579033
