# .PCD v0.7 - Point Cloud Data file format
VERSION 0.7
FIELDS x y z rgb
SIZE 4 4 4 4
TYPE F F F U
COUNT 1 1 1 1
WIDTH 1304
HEIGHT 1
VIEWPOINT 0 0 0 1 0 0 0
POINTS 1304
DATA ascii
1241.8387 796.38873 5492.4766 4341046
1257.6061 785.90784 5420.1929 3485737
1263.7384 770.0777 5311.0166 3420201
1309.8148 778.76593 5370.937 4144181
1348.3047 782.63831 5397.644 3617580
1355.2463 768.44299 5299.7427 3749422
1418.8984 786.31799 5423.0215 3617835
1487.7323 806.20959 5560.2085 3683371
1492.8821 791.47607 5458.5957 4209972
1514.9653 786.15472 5421.8955 3617578
1555.5144 790.43768 5451.4341 3617578
1590.9221 791.98694 5462.1187 3157027
1626.3445 793.48169 5472.4277 3682858
1660.2963 794.21436 5477.481 2498840
1660.9869 779.31348 5374.7134 3024927
1712.873 788.54144 5438.356 3222562
1755.314 793.16089 5470.2148 3485224
1745.614 774.47931 5341.373 3814443
1803.2366 785.80017 5419.4502 3946030
1839.8043 787.71051 5432.625 3946028
1838.2615 773.51855 5334.7476 4537651
1867.9331 772.71912 5329.2339 3484962
1899.4067 772.6792 5328.9585 2958362
1912.2268 765.17639 5277.2139 3090461
1963.5555 773.07642 5331.6982 3287585
2037.3799 789.44293 5444.5732 2958619
2030.2258 774.41077 5340.9004 2827292
2061.0413 774.10071 5338.7622 4077359
2096.5168 775.52399 5348.5781 3222051
2110.9172 769.22498 5305.1357 4932670
2152.2603 772.78479 5329.6865 3156259
2186.2239 773.63025 5335.5176 3945774
2211.9915 771.59271 5321.4653 3221537
2290.8274 787.86377 5433.6821 3484451
2289.5781 776.52252 5355.4648 2826777
2285.9502 764.69562 5273.8979 3484451
2335.7061 770.80481 5316.0312 3748134
2347.8213 764.49493 5272.5137 3550756
2420.2117 777.71973 5363.7217 4209199
2472.1145 784.10358 5407.749 3945771
2500.0857 782.83057 5398.9697 4274737
2484.2637 768.05035 5297.0347 4143153
2529.1694 772.17957 5325.5127 4801082
2582.2554 778.67383 5370.3018 3551015
2591.4158 771.9256 5323.7612 3945773
2655.7163 781.56714 5390.2563 3682601
2628.5078 764.36877 5271.6436 3485222
2662.3364 765.11554 5276.7939 3551015
2689.7229 764.01495 5269.2036 3748394
2708.2373 760.44843 5244.6064 3222050
2762.397 766.85822 5288.813 3551015
2840.5215 779.70239 5377.3955 3353636
2839.2253 770.70306 5315.3296 3090464
2949.0588 791.73621 5460.3892 2629913
2972.553 789.38483 5444.1729 2695706
2981.7432 783.32617 5402.3882 3090207
2988.0669 776.65118 5356.3521 2695706
2993.6301 769.92084 5309.9351 3353636
3048.8613 775.97162 5351.6655 3616808
3149.6365 793.37 5471.6572 3156257
3125.1646 779.18646 5373.8374 3616807
3199.1758 789.59589 5445.6284 4208944
3202.1724 782.44525 5396.312 3287843
3203.4868 775.02881 5345.1631 3353636
3256.1809 780.06647 5379.9062 3155744
3325.6819 788.99371 5441.4751 3221536
3289.8508 773.00024 5331.1724 2826779
3298.7795 767.72778 5294.8101 3090465
3361.7771 775.01965 5345.1001 2958879
3502.969 800.03424 5517.6187 2564120
3516.9492 795.80115 5488.4243 4998463
3571.6995 800.78638 5522.8062 2893087
3519.0811 781.82733 5392.0508 2893086
3532.6646 777.78491 5364.1714 2629915
3495.4976 762.74054 5260.4146 3090465
3509.2405 758.97284 5234.4297 2893085
3573.1899 766.03448 5283.1318 2826779
3614.8438 768.23517 5298.3096 2892315
3662.3533 771.63184 5321.7354 2431765
3717.3699 776.5387 5355.5762 1906190
3724.0823 771.35742 5319.8423 2695705
3761.7881 772.62872 5328.6104 2761499
3838.3865 781.80042 5391.8652 2893085
3793.8574 766.35333 5285.3306 2761499
3838.8865 769.1015 5304.2842 2629912
3874.156 769.86572 5309.5547 2629656
3888.6599 766.52441 5286.5107 2300690
3899.8496 762.58832 5259.3647 2300691
3920.9248 760.63245 5245.875 2103571
3949.8264 760.21362 5242.9868 2761501
3993.6619 762.65314 5259.8115 2366487
4023.2661 762.35828 5257.7778 2234899
4037.1492 759.11182 5235.3882 2103313
4088.1619 762.84332 5261.123 1971728
4088.5029 757.13458 5221.7515 2300693
4133.7256 759.76056 5239.8623 2300949
4150.8838 757.22772 5222.394 3485736
4155.8452 752.52393 5189.9531 2433305
4171.5752 749.82477 5171.3379 2038547
4241.436 756.82391 5219.6089 3815215
4303.9795 762.42548 5258.2412 2038550
4325.1353 760.6676 5246.1177 2367772
4334.9951 756.96234 5220.5635 2433564
4420.9072 766.49548 5286.311 2959653
4423.0737 761.47681 5251.6987 2893602
4505.1929 770.1969 5311.8389 3222566
4484.5552 761.35071 5250.8291 2827293
4492.2827 757.40887 5223.6431 3090466
4545.1206 761.07458 5248.9248 2892828
4583.27 762.24768 5257.0151 2760986
4611.0933 761.69922 5253.2324 2629398
4521.8374 741.94763 5117.0112 2563605
4467.8843 728.21295 5022.2871 3353121
4480.5537 725.44696 5003.2104 3090206
4538.2959 729.9671 5034.3848 2761499
4580.6733 731.97296 5048.2188 2629913
4716.4863 748.78644 5164.1768 3551528
4775.7163 753.30353 5195.3296 3288356
4753.4521 744.99036 5137.9961 3025185
4715.7241 734.37482 5064.7837 2762014
4762.8218 737.01978 5083.0254 2696221
4720.5029 725.88184 5006.21 2630428
4680.2153 715.1933 4932.4941 2433050
4661.7607 707.95306 4882.5601 2038292
0 0 0 0
0 0 0 0
0 0 0 0
0 0 0 0
0 0 0 0
-4859.0537 809.92633 5366.5757 5526602
-4732.6938 794.05975 5261.4434 5855566
-4547.7446 768.0874 5089.3506 5328449
-4705.2588 799.99438 5300.7661 4737083
-4668.3335 799.04907 5294.5029 5328964
-4730.98 815.24945 5401.8467 5197122
-4633.6675 803.91833 5326.7666 5460551
-4595.2144 802.71368 5318.7847 6184273
-4559.3691 801.95111 5313.7314 5789774
-4480.1533 793.49634 5257.7104 5658189
-4397.9907 784.39771 5197.4229 6250325
-4356.0815 782.4007 5184.1904 5197379
-4425.0522 800.43213 5303.6665 4671291
-4382.0796 798.32733 5289.7207 5131588
-4364.7383 800.89557 5306.7378 4737084
-4346.1377 803.26831 5322.4595 6381909
-4394.0259 818.05426 5420.4312 6316116
-4449.6631 834.51105 5529.4741 5460807
-4310.2271 814.35571 5395.9248 5263428
-4347.3232 827.50177 5483.0303 4013361
-4207.1309 806.84509 5346.1592 5987151
-4114.2114 795.00989 5267.7393 5197635
-4100.9097 798.4964 5290.8403 6118736
-4052.8362 795.21381 5269.0903 4868669
-4121.5073 814.96478 5399.9604 5986637
-4054.8914 808.06464 5354.2402 5066305
-4010.353 805.48999 5337.1807 5131328
-4024.1321 814.68073 5398.0781 4539191
-4032.2432 822.86206 5452.2876 5526086
-3923.5654 807.14984 5348.1782 5724236
-3991.7737 827.86676 5485.4487 5855567
-3975.8049 831.32269 5508.3481 5921360
-3931.9001 828.94635 5492.6021 5395016
-3895.1399 828.04907 5486.6567 5395015
-3796.8123 813.93817 5393.1577 6381911
-3814.1384 824.59137 5463.7461 5329223
-3815.8745 832.02765 5513.019 5460811
-3768.3115 828.75018 5491.3027 5329223
-3687.1135 817.9541 5419.7676 5131844
-3705.1204 829.16925 5494.0791 5789776
-3657.1016 825.67645 5470.9355 6052948
-3626.4229 826.07104 5473.5503 5723983
-3580.4282 822.95239 5452.8862 5395018
-3563.7576 826.57849 5476.9126 5329225
-3556.9973 832.59082 5516.7505 5132102
-3467.9307 819.27051 5428.4902 4474173
-3454.6233 823.76587 5458.2764 4803138
-3430.2847 825.69086 5471.0317 5855827
-3424.2317 832.09607 5513.4727 5592654
-3402.5134 834.78131 5531.2651 4605759
-3271.4851 810.43964 5369.9766 5855826
-3343.6062 836.43982 5542.2544 4671553
-3306.1675 835.27637 5534.5449 4605759
-3279.668 836.8811 5545.1777 4341559
-3227.0459 831.78497 5511.4106 5065539
-3192.3452 831.25116 5507.874 4276022
-3087.2644 812.19098 5381.5811 5132102
-3142.2625 835.28564 5534.6064 6118996
-3139.6497 843.39154 5588.3159 5921363
-3113.9814 845.41089 5601.6963 4934724
-3098.2883 850.21106 5633.5024 5658446
-3028.5063 840.11145 5566.5825 4079414
-3024.3503 848.1947 5620.1421 6316376
-2906.3787 824.18231 5461.0361 5527116
-2870.8723 823.27789 5455.043 5592908
-2858.7695 829.14075 5493.8901 5395529
-2887.5957 847.146 5613.1934 5066311
-2841.2778 843.26862 5587.502 5263688
0 0 0 0
-2692.8813 818.29248 5422.0093 5131846
0 0 0 0
0 0 0 0
0 0 0 0
0 0 0 0
0 0 0 0
-1175.4039 384.70593 2549.0632 657681
-1174.0165 389.25287 2579.1912 3815233
-1158.2874 389.10184 2578.1907 8289167
0 0 0 0
-1143.4779 394.53198 2614.1707 10198177
-1153.0281 403.28906 2672.1951 7369329
-1129.9572 400.72147 2655.1821 4277311
0 0 0 0
0 0 0 0
0 0 0 0
0 0 0 0
0 0 0 0
-2082.2222 805.72516 5338.7383 4736572
-2051.6794 806.15161 5341.564 4934206
-2054.8145 820.03131 5433.5312 4539191
-2061.1067 835.63293 5536.9077 4604983
-2034.6074 838.22949 5554.1123 5328707
-1946.9979 815.32111 5402.3213 4210486
-1960.0551 834.50641 5529.4434 5526345
-1931.4877 836.3208 5541.4653 4605243
-1906.9862 839.98889 5565.77 4737084
-1822.0574 816.70068 5411.4624 5065793
-1761.0283 803.48273 5323.8799 4604730
-1734.6487 805.88 5339.7642 4538936
-1731.9775 819.58551 5430.5771 4736316
-1720.425 829.52747 5496.4526 5131073
-1662.8739 817.24615 5415.0771 4604730
-1667.6638 835.72308 5537.5049 5460295
-1619.1984 827.7179 5484.4624 5920590
-1583.0507 825.81036 5471.8232 3354407
-1540.72 820.53033 5436.8379 2762525
-1474.6737 802.12512 5314.8848 2762269
-1441.5582 801.21979 5308.8857 2104598
-1431.786 813.5376 5390.5039 4867645
-1375.7974 799.55841 5297.8774 4144435
-1345.142 799.9928 5300.7559 4473143
-1330.5436 810.22577 5368.5596 4209972
-1287.5751 803.26111 5322.4116 4407352
-1263.2458 807.86694 5352.9297 3683374
-1221.2831 801.14246 5308.3735 3552044
-1197.3696 806.21576 5341.9888 4670525
-1173.3096 811.46295 5376.7568 3815216
-1158.6179 823.66302 5457.5952 3815216
-1104.8367 807.97705 5353.6597 4209974
-1064.1133 801.19531 5308.7236 4473144
-1045.2693 810.97583 5373.5298 5394245
-997.88416 798.53143 5291.0732 4209715
-978.11548 808.09601 5354.4478 3880750
-944.30762 806.31403 5342.6401 3815213
-908.72131 802.83728 5319.6035 3946540
-885.66217 810.57587 5370.8794 4670266
-862.76337 819.04333 5426.9849 5130819
-825.72345 814.22223 5395.04 4538938
-787.61163 807.91321 5353.2368 3749165
-751.1983 802.89038 5319.9551 5394246
-705.67889 787.26855 5216.4448 3025698
-683.95905 797.98322 5287.4399 3354662
-655.77386 801.82098 5312.8691 4407352
-612.56165 786.74579 5212.981 4473145
-592.24774 801.04071 5307.6997 3749422
-552.81482 789.62964 5232.0894 2433560
-526.62042 796.89551 5280.2334 3420455
-497.00958 799.58301 5298.0405 4670009
-469.58725 806.39093 5343.1499 3814956
-438.82245 808.02826 5353.999 3946542
-404.64322 803.14374 5321.6343 4867645
-375.47 808.20953 5355.1997 3881007
-349.44394 821.60974 5443.9897 4078387
-312.67477 809.90765 5366.4517 3749936
-280.60916 809.1189 5361.2256 4144183
-253.86559 825.43317 5469.3242 5066054
-216.43239 806.67938 5345.061 4868675
-189.2964 826.45416 5476.0889 4868418
-155.61707 819.93256 5432.877 4012597
-122.7334 815.29535 5402.1509 4210231
-89.946182 808.2536 5355.4917 4538939
-58.876183 817.37671 5415.9414 4867904
-26.551064 810.05878 5367.4531 4670783
5.2223911 806.26831 5342.3374 3223849
37.178837 812.98657 5386.8525 3618606
69.578384 818.7124 5424.792 3158312
104.13651 838.1944 5553.8799 4473918
136.05962 832.20428 5514.1895 3684146
166.27444 820.10815 5434.04 2960166
198.72122 821.15887 5441.0024 3486253
235.14554 836.05853 5539.7275 2959910
263.65994 822.62933 5450.7456 2960165
295.76459 822.11005 5447.3047 3485739
327.97858 821.96698 5446.3564 3486252
360.87146 823.39856 5455.8428 4012339
392.47046 821.88519 5445.8154 3946290
423.0477 818.62469 5424.2109 2696479
444.35858 799.1593 5295.2334 2696222
481.89188 809.51257 5363.834 2696222
520.08466 819.62408 5430.833 4604475
536.62976 796.42944 5277.1455 5130819
581.96234 816.16113 5407.8872 3288873
602.20984 800.4892 5304.0449 2235928
629.89624 795.76935 5272.7715 2433307
662.25891 797.12415 5281.7485 1973012
715.87518 822.78442 5451.7729 3749423
756.35889 831.78693 5511.4238 3420202
761.34656 802.6239 5318.1895 3223078
781.99268 791.63 5245.3438 3880239
817.28369 795.73523 5272.5449 3682863
855.1925 801.99316 5314.0103 262657
873.97546 790.50745 5237.9062 5327944
911.81702 796.45679 5277.3262 2367259
947.81659 800.45599 5303.8252 3814446
987.63397 807.3194 5349.3022 2695962
1015.7891 804.51935 5330.749 1774346
1051.9811 808.06152 5354.2192 2629911
1086.6166 810.23578 5368.626 3156255
1101.5389 798.00531 5287.5869 4406323
1141.7208 804.24426 5328.9263 4209458
1195.3722 819.38037 5429.2183 4669496
1205.4403 804.63135 5331.4912 3419686
1243.1095 808.58893 5357.7139 3091234
1277.4756 810.25439 5368.749 3025184
1288.8284 797.59698 5284.8813 2695961
1318.0106 796.31207 5276.3677 2827803
1342.2607 792.17609 5248.9619 3157025
1383.835 798.21997 5289.0093 3420197
1414.6838 797.94678 5287.1992 4209715
1435.9448 792.39453 5250.4097 3617578
1498.2657 809.25531 5362.1294 3683371
1497.2654 791.92456 5247.2954 3749164
1517.4929 786.29803 5210.0142 3880750
1583.5482 804.16846 5328.4238 3354406
1581.8835 787.62244 5218.79 3420199
1628.921 795.49493 5270.9526 3551785
1684.4207 807.12592 5348.02 4143922
1684.1327 792.08929 5248.3872 3551015
1703.2811 786.57349 5211.8394 3616806
1738.6737 788.62201 5225.4131 3551013
1789.3838 797.42511 5283.7422 3485219
1795.5391 786.41125 5210.7642 3089949
1815.8099 781.84753 5180.5254 4143151
1874.8578 793.85468 5260.0845 4077356
1865.4764 776.96838 5148.1963 3485220
1916.2534 785.27832 5203.2573 4472115
1924.4497 776.15179 5142.7852 3551013
1964.2485 779.85675 5167.334 3353635
1981.7584 774.73456 5133.3945 3551013
2006.4988 772.55096 5118.9263 4801080
2053.1824 778.75543 5160.0371 3748392
2101.876 785.52899 5204.9185 2695705
2126.2698 783.15649 5189.1987 2235154
2124.3218 771.2876 5110.5552 2958620
2218.2307 794.06653 5261.4883 4143152
2269.0488 801.00244 5307.4453 4077358
2227.2273 775.49274 5138.4185 4932666
2268.2725 779.13519 5162.5532 3747879
2271.3455 769.81097 5100.771 3024410
2312.9304 773.61298 5125.9629 2432017
2395.626 790.88849 5240.4307 3287583
2398.0447 781.55865 5178.6108 2892570
2423.6807 779.93567 5167.8574 4209202
2469.7546 784.84808 5200.4067 4077359
2505.9128 786.52728 5211.5332 2958878
2528.2429 783.87817 5193.98 4472117
2551.699 781.63757 5179.1343 3089951
2611.7307 790.52106 5237.9961 3551014
2617.3408 782.91705 5187.6118 3287841
2653.4038 784.49292 5198.0537 4143152
2677.063 782.40759 5184.2363 3419429
2709.6626 782.95288 5187.8491 2761499
2736.3645 781.80078 5180.2158 3024671
2765.6753 781.41156 5177.6362 3222051
2821.4497 788.42572 5224.1123 3353636
2840.9746 785.26807 5203.1895 3024672
2880.5737 787.66724 5219.0869 3222053
2902.4165 785.21173 5202.8169 5130306
2972.3044 795.66943 5272.1089 3090980
2967.1404 786.02734 5208.2207 4012339
3004.5999 787.75897 5219.6948 4669498
3034.0806 787.38483 5217.2153 3156002
3084.9185 792.50476 5251.1401 3814187
3137.4653 797.95715 5287.2676 4735546
3172.8953 798.99133 5294.1201 3485223
3140.0039 782.96918 5187.957 3551015
3135.0435 774.15479 5129.5532 3221537
3195.7925 781.57983 5178.7515 3682344
3216.887 779.25793 5163.3662 2695450
3293.738 790.35883 5236.9209 3090209
3302.1326 784.97925 5201.2759 2498329
3367.7378 793.17334 5255.5703 2629916
3465.8918 808.81311 5359.1997 3353638
3552.2639 821.4444 5442.8945 2958880
3443.342 789.09399 5228.54 2827291
3476.3418 789.55377 5231.5869 3419428
3474.9961 782.2738 5183.3496 3551015
3506.0542 782.35205 5183.8682 1971985
3522.2754 779.14703 5162.6313 3879979
3599.2556 789.32159 5230.0483 3353636
3596.2131 781.92328 5181.0269 3090721
3666.9297 790.55182 5238.1997 2432533
3669.4216 784.45038 5197.772 2366484
3724.3833 789.57428 5231.7227 2300691
3727.5024 783.71356 5192.8896 2169362
3767.9248 785.7276 5206.2349 2498327
3819.9995 790.11926 5235.3335 3945773
3847.0063 789.29681 5229.8838 2893599
3917.9282 797.4256 5283.7456 3156771
3900.5762 787.60144 5218.6504 3090467
3863.2158 773.9234 5128.02 3024671
3927.8594 780.73395 5173.147 3090465
3941.4509 777.37024 5150.8584 2761501
3977.707 778.4939 5158.3037 2629915
4010.562 778.93976 5161.2583 3090466
4005.0886 771.99109 5115.2163 2958878
4062.9407 777.26117 5150.1362 2695706
4070.7522 772.95111 5121.5776 2893085
4135.5532 779.44592 5164.6118 2695706
4051.8765 758.06653 5022.9521 2629913
4093.3716 760.24658 5037.397 2564119
4156.7412 766.42828 5078.3574 2432534
4186.6523 766.39648 5078.1465 2432534
4189.5146 761.44891 5045.3638 2564120
4262.8975 769.29779 5097.3706 3419429
4270.2358 765.20148 5070.2285 3024673
4372.6343 778.07758 5155.5459 3616807
4375.4741 773.18231 5123.1094 2826779
4307.8857 755.99493 5009.2256 2695193
4361.4082 760.15118 5036.7651 2563863
4374.7734 757.29944 5017.8696 2300948
4381.8052 753.39728 4992.0137 3024415
4386.3716 749.12634 4963.7148 2038033
4328.6235 734.34082 4865.7456 2564120
4362.5576 735.20178 4871.4502 2893342
4386.6157 734.39795 4866.124 2695706
4434.0518 737.49292 4886.6313 3222049
4376.3574 723.17535 4791.7632 3024670
4510.9468 740.61163 4907.2959 2366741
4567.4722 745.09015 4936.9707 2498327
4518.4092 732.39661 4852.8633 2169362
4604.4365 741.62225 4913.9922 2629912
4546.7988 727.73755 4821.9922 2037778
4630.7236 736.5426 4880.3345 1643277
4583.27 724.47162 4800.3521 1774863
0 0 0 0
0 0 0 0
0 0 0 0
0 0 0 0
0 0 0 0
-4690.2568 812.479 5180.1484 5658444
-4561.1514 795.31824 5070.7358 5329220
-4568.1323 801.81635 5112.166 4604727
-4607.437 814.11255 5190.5635 5131842
-4575.2285 813.85315 5188.9097 4803134
-4513.062 808.22522 5153.0273 5592393
-4511.9453 813.5282 5186.8374 5065792
-4531.8296 822.71637 5245.4189 5263171
-4447.853 813.04626 5183.7651 5855308
-4448.5718 818.83118 5220.6479 4342326
-4349.0942 806.12531 5139.6387 5000256
-4294.7861 801.67157 5111.2427 5855565
-4275.1777 803.67773 5124.0337 5987152
-4271.8931 808.80316 5156.7119 6776668
-4275.2051 815.26044 5197.8818 5000257
-4289.2866 823.87982 5252.8369 6908253
-4330.0034 837.77881 5341.4531 5789772
-4297.9429 837.69763 5340.9355 5987151
-4240.4385 832.61938 5308.5576 5789772
-4159.8633 822.90112 5246.5972 4013361
-4113.981 819.95142 5227.7905 5197378
-4021.2197 807.5426 5148.6748 5921359
-3948.7585 799.05188 5094.5405 5658187
-3989.4421 813.50214 5186.6719 5394759
-4013.5042 824.76117 5258.4561 5262914
-4046.5549 838.05792 5343.2324 5460293
-3931.9797 820.74933 5232.8774 4539191
-3840.2227 807.96637 5151.377 4867899
-3808.1575 807.63831 5149.2852 5591879
-3836.2205 820.15979 5229.1191 4933948
-3839.9561 827.64191 5276.8228 5263171
-3780.9219 821.60675 5238.3442 5131585
-3771.1169 826.25787 5267.9985 5789515
-3729.0979 823.86957 5252.7715 5328966
-3681.7314 820.24976 5229.6924 6118994
-3632.8125 816.2196 5203.9976 6513496
-3668.3628 831.26154 5299.9004 5131842
-3616.1047 826.49371 5269.5024 4934206
-3623.3191 835.35413 5325.9941 5460550
-3517.7107 818.13068 5216.1816 5591879
-3506.561 822.76526 5245.7305 5855564
-3501.6387 828.95691 5285.207 5658443
-3454.3064 825.12982 5260.8066 5921615
-3438.5608 828.8468 5284.5054 6514264
-3388.3286 824.24304 5255.1528 6119252
-3234.2803 794.06543 5062.748 5527115
-3298.4702 817.40521 5211.5562 5461322
-3288.6824 822.68005 5245.1875 5395272
-3251.2258 821.06812 5234.9102 5395272
-3243.8123 827.08539 5273.2744 6316375
-3236.8447 833.33435 5313.1162 5592651
-3213.1982 835.36987 5326.0942 6711389
-3134.5254 822.99823 5247.2158 6053458
-3110.0903 824.76178 5258.46 6250068
-3064.2349 820.82318 5233.3486 6119252
-3035.4385 821.42053 5237.1572 6118998
-2945.8574 805.41132 5135.0864 6184791
-2992.991 826.83649 5271.6875 6710877
-2945.0208 822.16327 5241.8926 6710878
-2973.2166 838.88043 5348.4766 6052946
-2928.2561 835.0946 5324.3394 5197637
-2939.0051 847.2868 5402.0737 5526602
-2925.593 852.70557 5436.6216 6053202
-2842.6177 837.74384 5341.23 6579546
-2763.1279 823.48419 5250.3145 6118995
-2773.2866 835.92145 5329.6113 4868670
-2805.0503 855.2326 5452.7334 5329222
-2748.3977 847.72217 5404.8491 5592394
-2656.1064 828.91266 5284.9248 5263430
-2594.9983 819.50208 5224.9258 5066051
0 0 0 0
0 0 0 0
0 0 0 0
0 0 0 0
0 0 0 0
0 0 0 0
0 0 0 0
0 0 0 0
0 0 0 0
0 0 0 0
0 0 0 0
0 0 0 0
0 0 0 0
0 0 0 0
0 0 0 0
0 0 0 0
-2042.2048 808.97241 5157.7915 4276535
-2029.2137 816.03595 5202.8267 4670267
-2014.4653 822.59991 5244.6768 4999743
-2021.4891 838.39929 5345.4092 4802363
-1985.8884 836.74207 5334.8428 4736826
-1952.9314 836.16315 5331.1519 3157538
-1906.7178 829.7959 5290.5562 5460293
-1874.2395 829.2934 5287.3521 4802363
-1832.098 824.42529 5256.3149 3157538
-1791.6744 820.17542 5229.2188 3025697
-1772.7688 825.79944 5265.0762 3552299
-1729.2528 819.95557 5227.8169 4736317
-1687.9824 814.98285 5196.1118 5065795
-1677.6796 825.05469 5260.3271 4604989
-1645.9703 824.78107 5258.583 5328455
-1614.0371 824.38263 5256.0425 5723470
-1585.8276 825.90778 5265.7666 5131076
-1564.7692 831.29315 5300.1025 4341560
-1508.9327 818.04486 5215.6343 3881007
-1480.6976 819.51898 5225.0332 4341558
-1443.9043 816.21826 5203.9883 5657418
-1404.8328 811.45758 5173.6357 4999745
-1368.6351 808.18146 5152.7485 4999488
-1338.1056 808.17944 5152.7354 4736573
-1315.0619 812.80402 5182.2202 4407094
-1257.1084 795.55713 5072.2588 4341299
-1257.0841 815.02356 5196.3716 4801851
-1221.7649 812.0097 5177.1562 4209713
-1163.9387 793.49689 5059.1235 3683626
-1145.4675 801.54419 5110.4307 3486247
-1128.5057 811.11328 5171.4409 4144180
-1102.4065 814.46558 5192.8145 2696477
-1063.3672 808.1759 5152.7129 3091493
-1044.7164 817.46777 5211.9556 4012595
-995.02173 802.2948 5115.2168 4209972
-958.28027 796.94092 5081.0815 4209458
-941.16083 808.0874 5152.1484 3288611
-907.01587 804.87286 5131.6538 3486247
-890.41724 817.54572 5212.4521 4604473
-849.57874 808.07355 5152.0601 4472887
-823.69794 812.6524 5181.2539 3683370
-805.55988 825.52045 5263.2969 3420199
-750.1217 799.66119 5098.4258 3749163
-735.28754 816.7337 5207.2754 4802109
-686.16351 795.54565 5072.1855 3420455
-659.5838 799.75183 5099.0034 3749420
-639.2417 812.28809 5178.9312 3617836
-601.23322 802.50781 5116.5747 3617837
-570.96014 802.56213 5116.9209 4538939
-546.99921 811.99268 5177.0479 4538941
-519.62708 817.17896 5210.1143 4473148
-488.49115 816.72754 5207.2358 3749423
-456.21017 814.17169 5190.9404 2959905
-422.88724 809.25238 5159.5762 1380617
-394.93915 814.6535 5194.0122 3156512
-366.37732 819.5943 5225.5137 1380875
-330.96326 808.70392 5156.0791 2104082
-302.32202 813.83087 5188.7671 1577995
-269.70151 808.19385 5152.8276 2433305
-238.62866 806.34772 5141.0571 3486251
-209.40265 811.11517 5171.4526 2301978
-178.39601 809.43732 5160.7554 4604732
-148.52472 813.28241 5185.2705 4209975
-117.83616 813.49048 5186.5972 3420459
-86.332306 806.23181 5140.3179 3025700
-56.73138 818.51685 5218.644 4143668
-25.75606 816.64948 5206.7383 4209718
5.1194401 821.39935 5237.022 3552302
36.000229 818.1153 5216.0835 3420974
67.654938 827.32892 5274.8271 3947318
99.27832 830.45831 5294.7798 3157802
129.69162 824.39313 5256.1094 4210234
162.82576 834.62305 5321.333 5460814
192.98297 828.75012 5283.8887 3157802
224.74904 830.46149 5294.7993 3091496
251.73387 816.25024 5204.1929 2433308
284.97021 823.19922 5248.4971 2301208
318.46597 829.45648 5288.3921 2367256
343.76935 815.16669 5197.2842 3287843
376.02789 818.36292 5217.6626 2498326
405.80728 816.08801 5203.1582 3879723
439.1088 820.71741 5232.6738 2695449
466.08597 813.69507 5187.9014 2959134
498.47998 816.41339 5205.2329 2959392
536.54962 827.56897 5276.3579 2630685
561.90997 818.97284 5221.5508 2828322
595.20831 822.23938 5242.3779 2236444
624.18402 819.50684 5224.9556 1579027
652.49512 816.20099 5203.8789 5328201
695.38922 830.61237 5295.7617 2104600
717.55206 820.08575 5228.647 2959906
754.00836 826.09033 5266.9302 3025442
770.43188 810.54187 5167.7979 3222821
809.698 819.29529 5223.6074 3485993
835.13367 813.92511 5189.3682 2498842
870.95361 818.69751 5219.7959 2498328
896.61664 813.92242 5189.3511 2630170
923.79272 810.79193 5169.3921 3221793
947.54785 804.95618 5132.1846 2761498
996.09589 819.89044 5227.4014 2564118
1008.5018 805.07227 5132.9248 3287840
1050.2284 813.84277 5188.8438 3090462
1073.7855 808.43512 5154.3652 2958876
1108.989 811.85223 5176.1523 3748392
1151.7397 820.46191 5231.0454 3551013
1197.9539 831.02307 5298.3799 3551272
1221.0569 825.422 5262.6689 2630683
1222.4133 805.76532 5137.3433 4538679
1231.545 792.06421 5049.9893 3815214
1250.9451 785.46057 5007.8857 3223333
1304.5724 800.15601 5101.5801 4143922
1329.2733 796.84583 5080.4751 2433304
1369.1012 802.54938 5116.8398 3156769
1415.8776 811.99084 5177.0356 2893086
1413.7688 793.59113 5059.7241 3419172
1453.6626 799.04327 5094.4854 2827292
1494.1646 804.60107 5129.9209 2629656
1515.4688 799.80554 5099.3457 4274737
1549.8019 801.93927 5112.9497 3616807
1583.8026 803.82245 5124.9561 4143407
1586.8794 790.23523 5038.3276 3682600
1616.6697 790.20679 5038.147 3551015
1642.9849 788.51184 5027.3398 3945770
1661.8756 783.37738 4994.604 3090464
1744.481 807.93109 5151.1519 3946285
1727.4344 786.28162 5013.1206 4932667
1786.5762 799.45667 5097.1211 3616550
1807.527 795.38818 5071.1816 3551014
1822.3979 788.82111 5029.3115 3682600
1851.0679 788.34198 5026.2568 3748393
1879.4409 787.75372 5022.5063 3748393
1901.9066 784.74622 5003.3315 4274994
1910.9841 776.39178 4950.0659 4077614
1967.8871 787.4267 5020.4214 4406837
1953.96 770.21313 4910.6724 3025182
2049.5684 796.04791 5075.3882 3090205
2065.6108 790.67938 5041.1597 3879978
2086.8486 787.42407 5020.4048 2761241
2100.0706 781.27814 4981.2202 2300689
2180.6074 799.99841 5100.5757 2102797
2137.7039 773.53943 4931.8799 4010794
2165.989 773.2066 4929.7578 2892571
2225.6543 783.93549 4998.1621 2497815
2256.9663 784.52704 5001.9341 3353380
2254.3057 773.44727 4931.2925 2893342
2294.0779 777.02338 4954.0928 2498327
2329.0056 778.88904 4965.9878 2103569
2381.9617 786.66217 5015.5469 4669496
2394.6499 781.10876 4980.1401 2301205
2457.0037 791.69366 5047.627 4011309
2507.7524 798.32983 5089.937 2300433
2502.7134 787.2594 5019.355 2234640
2531.1921 786.86859 5016.8633 2958363
2549.1077 783.24133 4993.7363 2892570
2578.7502 783.25909 4993.8496 3485221
2588.1382 777.19415 4955.1816 3814187
2653.5181 787.89062 5023.3794 3616807
2645.2783 776.73279 4952.2402 3156001
2754.0029 799.78741 5099.23 3156000
2749.5281 789.82416 5035.707 2432534
2776.7302 789.0766 5030.9409 3024672
2785.8381 783.25769 4993.8408 3419431
2848.179 792.37054 5051.9419 3682346
2897.8035 797.79285 5086.5137 3419430
2915.5925 794.42932 5065.0684 3550759
2929.9519 790.20923 5038.1621 3748394
2996.8447 800.09973 5101.2212 3353636
2975.4155 786.44781 5014.1802 3287587
3003.2642 785.96191 5011.0825 3353123
3044.1201 788.85638 5029.5366 3484707
3110.6157 798.2746 5089.5845 3024156
3092.4023 785.98181 5011.209 2760984
3131.8853 788.44769 5026.9312 4274223
3136.5298 782.17938 4986.9658 2366228
3201.209 790.8595 5042.3081 2498327
3251.7637 795.922 5074.5854 2366741
3252.2388 788.74622 5028.8345 2893085
3305.0232 794.27185 5064.0645 3287843
3282.9836 781.87793 4985.0439 3551015
3324.7954 784.77625 5003.5229 2761499
3356.3103 785.21442 5006.3169 3287843
3448.6306 799.74585 5098.9648 2366741
3519.5518 809.10547 5158.6392 2366741
3508.4353 799.60669 5098.0781 2103572
3489.113 788.41602 5026.729 3090466
3519.0659 788.45483 5026.9766 3222052
3601.522 800.15778 5101.5913 1576971
3654.75 805.22638 5133.9072 1642762
3626.26 792.35547 5051.8457 2168850
3688.2659 799.30725 5096.1685 2563607
3693.1331 793.86371 5061.4619 2168593
3703.1775 789.61182 5034.353 2037263
3692.5439 781.05408 4979.791 1971985
3723.8201 781.42645 4982.1655 2300950
3738.7925 778.39862 4962.8608 2564122
3828.7407 790.90594 5042.604 2761500
3868.7107 792.97534 5055.7983 3024929
3859.9966 785.11084 5005.6562 2760729
3893.1267 785.81232 5010.1289 3024415
3918.5081 784.95099 5004.6372 2498840
3941.3359 783.59497 4995.9917 3024927
3953.0129 780.05872 4973.4453 3288100
3983.3767 780.23505 4974.5693 3287843
3962.469 770.43976 4912.1172 2235155
4015.1133 774.98407 4941.0908 2761499
3995.717 765.65826 4881.6318 2695706
4015.1936 763.86176 4870.1777 3090464
4088.2378 772.20898 4923.3975 2827292
4105.9038 770.052 4909.645 3287844
4157.3027 774.20734 4936.1382 3221793
4182.3647 773.43414 4931.2085 3748138
4201.4844 771.58051 4919.3901 3024158
4217.0503 769.10413 4903.6016 3155744
4229.9868 766.18549 4884.9932 2760986
4231.3882 761.23132 4853.4067 2695705
4257.7358 760.80151 4850.6665 2432021
4254.9619 755.2088 4815.0088 2893085
4211.0664 742.44049 4733.6016 3287843
4226.2188 740.1828 4719.207 3353636
4257.8071 740.81464 4723.2354 3484709
4269.1494 737.93842 4704.8975 2432021
4309.7656 740.12689 4718.8506 2432021
4348.6138 741.98547 4730.7002 2694936
4381.6865 742.84106 4736.1553 2497814
4386.5986 738.94196 4711.2959 2169362
4371.7607 731.78638 4665.6738 2958878
4406.6509 732.99219 4673.3618 2695706
4428.8604 732.08698 4667.5903 2761758
4461.6108 732.92456 4672.9302 2366743
0 0 0 0
0 0 0 0
0 0 0 0
0 0 0 0
0 0 0 0
-4432.7969 796.88379 4895.7969 5723721
-4477.5952 810.23865 4977.8447 4210481
-4437.8784 808.37567 4966.3994 4802363
-4468.332 819.3551 5033.8535 5131328
-4402.9072 812.78271 4993.4746 5065535
-4480.7266 832.74341 5116.1064 5394500
-4418.5273 826.77625 5079.4463 5394500
-4325.1885 814.86047 5006.2397 5460293
-4262.2192 808.54138 4967.4175 5460296
-4258.6777 813.48627 4997.7969 5460549
-4196.2407 807.17126 4959 5328707
-4134.4741 800.89734 4920.4551 6118223
-4122.0552 804.16132 4940.5078 5394500
-4156.3765 816.6557 5017.269 4736569
-4174.6084 826.14587 5075.5737 5065534
-4107.8232 818.82721 5030.6099 6841690
-4152.4077 833.76331 5122.3726 3881261
-4165.4888 842.54724 5176.3384 3091745
-4133.1284 842.20197 5174.2173 4144433
-4042.6069 829.9115 5098.7085 4604471
-3994.4773 826.20435 5075.9326 4801849
-3939.9468 821.10675 5044.6147 5591878
-3974.2583 834.58807 5127.4395 5723465
-3855.2539 815.83289 5012.2139 4868156
-3854.4819 822.00067 5050.1064 4802363
-3944.1562 847.70422 5208.021 4473654
-3847.4263 833.43396 5120.3491 4341811
-3782.1487 825.80426 5073.4751 5723207
-3762.5002 828.09503 5087.5483 4604470
-3680.8655 816.66986 5017.356 4472884
-3712.8943 830.48248 5102.2163 5394242
-3665.8286 826.68506 5078.8862 5526085
-3644.9766 828.78516 5091.7886 5592135
-3584.3357 821.79785 5048.8608 5986892
-3524.6777 814.9201 5006.606 5986381
-3513.8188 819.30402 5033.5396 5131070
-3595.4163 845.50513 5194.5103 5526083
-3525.429 836.20386 5137.3667 4868153
-3494.3245 836.04364 5136.3823 4605239
-3365.6533 812.33197 4990.7056 4868155
-3401.2891 828.20862 5088.2461 5328450
-3443.4624 845.97516 5197.3984 4342582
-3421.2695 848.10638 5210.4922 4539706
-3360.1147 840.53021 5163.9468 4144947
-3347.5852 845.09021 5191.9614 5263428
-3244.7087 826.71533 5079.0723 5197637
-3243.1514 834.05304 5124.1528 6184532
-3174.3774 824.07965 5062.8799 5329221
-3223.6084 844.84296 5190.4424 4802877
-3161.5251 836.55194 5139.5049 5065792
-3115.6208 832.42218 5114.1333 3684139
-3057.6062 824.94409 5068.1899 4736570
-3036.2891 827.31671 5082.7671 3947311
-3002.3926 826.27515 5076.3677 6183761
-2939.823 817.24158 5020.8682 5329222
-2904.7363 815.74146 5011.6519 5197379
-2898.3508 822.35358 5052.2754 5789515
-2939.04 842.59985 5176.6616 5000001
-2929.8018 848.80835 5214.8042 6118225
-2900.4011 849.24542 5217.4897 6579290
-2891.8489 855.86224 5258.1411 5657932
-2821.51 844.13782 5186.1104 5855567
-2800.9548 847.2135 5205.0063 5789774
-2740.9253 838.28485 5150.1519 5395016
-2691.6118 832.46948 5114.4238 5592651
-2711.6313 848.20935 5211.1245 5066308
-2680.344 848.07788 5210.3169 4341556
-2634.6799 843.34155 5181.2183 3551783
-2568.627 831.89014 5110.8647 4604728
-2563.46 840.11969 5161.4243 5591623
-2467.4758 818.42529 5028.1406 5262913
0 0 0 0
0 0 0 0
0 0 0 0
0 0 0 0
0 0 0 0
0 0 0 0
-1176.9751 426.42001 2619.7871 5065799
0 0 0 0
0 0 0 0
0 0 0 0
0 0 0 0
-2041.295 791.76794 4864.3667 3288871
-2068.6133 813.85345 5000.0527 2170390
-2038.9949 813.85468 5000.0601 2894114
-2044.1785 827.95172 5086.668 5065797
-2002.6274 823.25854 5057.835 6117969
-1995.9242 832.96594 5117.4736 4341812
-1975.6223 837.21008 5143.5483 3749162
-1936.5072 833.48975 5120.6924 4275506
-1924.4349 841.47583 5169.7559 4670263
-1895.0409 842.02362 5173.1211 3551782
-1871.5662 845.26276 5193.0215 4670264
-1835.7654 842.9502 5178.814 4078127
-1782.8223 832.55383 5114.9419 4604726
-1746.2899 829.59412 5096.7583 3880747
-1693.5938 818.71625 5029.9282 3815210
-1692.8494 833.01312 5117.7637 2893854
-1666.2682 834.88593 5129.2695 2499096
-1630.8448 832.31549 5113.4775 3354406
-1604.5206 834.37952 5126.1582 3617834
-1583.8021 839.49451 5157.5835 3617577
-1539.9114 832.28668 5113.3008 4275505
-1529.9069 843.4718 5182.0186 3880491
-1500.2775 844.07385 5185.7173 3617577
-1447.7811 831.56689 5108.8784 3683114
-1394.1055 817.83405 5024.5083 3880493
-1366.6759 819.23468 5033.1138 4275508
-1328.2622 813.96674 5000.749 3420456
-1285.9314 806.00336 4951.8247 4078386
-1246.9026 799.78601 4913.627 5065282
-1219.6902 801.03186 4921.2812 3486249
-1195.6798 804.49329 4942.5469 3025441
-1174.2711 809.92279 4975.9043 3091232
-1141.245 807.41278 4960.4839 3617578
-1120.3256 813.56177 4998.2612 3157283
-1089.6185 812.7442 4993.2383 3223080
-1053.6208 807.82452 4963.0132 3815217
-1024.2327 807.83545 4963.0801 3683630
-1013.7749 823.21912 5057.5923 3091490
-960.21185 803.47089 4936.2656 2499355
-931.00787 803.505 4936.4756 2828062
-929.49298 828.21338 5088.2759 4143922
-894.55652 823.80005 5061.1616 4999231
-873.55273 832.35626 5113.7285 3354406
-832.50653 821.74396 5048.5298 4078129
-791.86395 810.75385 4981.0103 3354662
-765.59625 814.20068 5002.186 4209715
-735.08075 813.22559 4996.1953 3880750
-723.19525 833.6438 5121.6387 2959905
-691.7063 832.26343 5113.1582 3354663
-657.31036 827.09882 5081.4282 3946800
-621.02533 818.94733 5031.3481 3288870
-586.27161 812.09497 4989.2495 3288872
-565.04291 824.24438 5063.8916 3749423
-538.57635 829.68713 5097.3301 4473146
-500.38046 816.63397 5017.1353 3420458
-467.36993 810.92908 4982.0869 3486506
-440.69052 816.18085 5014.3516 3683628
-420.31741 834.71552 5128.2227 4078386
-385.91312 826.10254 5075.3071 3485992
-353.36893 820.35223 5039.9795 3881008
-325.89182 826.38965 5077.0713 3091746
-295.10208 824.40063 5064.8511 4802364
-260.06644 808.7572 4968.7432 3486250
-234.71704 823.08765 5056.7847 4670780
-203.42494 817.72296 5023.8262 3815986
-174.62187 822.23956 5051.5747 5263175
-143.46979 815.27612 5008.7935 4671038
-113.47279 812.95648 4994.5425 4933954
-83.317345 807.4649 4960.8037 4736318
-54.429695 814.97034 5006.915 4802110
-25.10659 826.12482 5075.4443 4079156
4.9893084 830.75677 5103.9014 5987153
34.79417 820.57318 5041.3369 4079158
65.703918 833.81866 5122.7129 3487277
95.462326 828.69958 5091.2627 3683890
123.80561 816.70349 5017.5625 4012854
157.95274 840.22595 5162.0771 1841684
186.4269 830.83514 5104.3828 2894114
220.78181 846.61615 5201.3364 3025443
251.00023 844.61243 5189.0259 2170131
278.51218 834.93231 5129.5547 2433301
308.57501 834.0517 5124.1445 2433045
328.88074 809.31824 4972.1904 2761497
362.41132 818.51996 5028.7227 2695705
393.40448 821.02832 5044.1333 3354148
424.6777 823.72559 5060.7046 3946542
464.61142 841.75787 5171.4888 3222820
491.95441 836.15906 5137.0913 3288870
523.20593 837.46869 5145.1377 3025700
554.22949 838.28943 5150.1797 3223336
585.03662 838.71417 5152.7896 3815216
610.20801 831.41803 5107.9644 1907219
647.45154 840.48267 5163.6543 3486251
664.09351 823.19226 5057.4277 3617836
692.65845 821.53607 5047.2524 3881008
718.68982 817.13629 5020.2217 2959907
746.45996 814.98462 5007.0024 2960164
784.00757 823.26434 5057.8706 2893601
808.79169 818.02539 5025.6841 3353895
838.62872 818.08759 5026.0664 3354152
872.88287 822.30676 5051.9873 3288614
888.78778 809.53302 4973.5098 3156000
921.7724 812.63666 4992.5776 3090206
949.11462 810.72766 4980.8491 2827291
988.41833 818.84302 5030.7075 2827289
1009.985 812.21936 4990.0137 3222048
1046.6906 817.80084 5024.3042 2564118
1070.1289 812.99426 4994.7744 3156255
1125.403 831.98175 5111.4272 4209201
1139.2257 820.13324 5038.6338 3025184
1207.6228 847.1748 5204.7686 3617577
1190.9326 814.66547 5005.0415 3221791
1221.0542 814.97949 5006.9712 2564116
1230.9353 802.08978 4927.7808 2169358
1248.0886 794.42627 4880.6982 2366738
1280.9456 796.87885 4895.7666 2893083
1302.4337 792.30701 4867.6787 2827290
1350.0232 803.46747 4936.2446 2563606
1361.0609 792.86206 4871.0884 2234642
1413.2758 806.18591 4952.9463 2169105
1446.7355 808.48682 4967.0825 1905934
1476.4965 808.67029 4968.2095 1642763
1500.6104 805.81409 4950.6616 1313797
1509.7299 795.1698 4885.2671 1708811
1553.8031 802.98987 4933.3105 2761499
1572.9154 797.85968 4901.7925 3353634
1592.6899 793.24536 4873.4434 2498068
1647.4689 805.91888 4951.3057 2235153
1676.7112 805.87555 4951.0391 3287843
1683.7858 795.36237 4886.4497 3485222
1720.177 798.8186 4907.6836 2432534
1767.4827 807.14429 4958.834 2235155
1784.2568 801.48303 4924.0527 2103569
1823.7734 806.05542 4952.144 1971982
1843.3911 801.82745 4926.1689 3484962
1887.537 808.23413 4965.5298 3485220
1875.8711 790.9126 4859.1118 3616805
1921.434 797.87903 4901.9111 3682599
1948.7881 797.18933 4897.6743 2958876
1954.0378 787.61041 4838.8242 3485221
1985.61 788.76471 4845.916 2366482
2006.4102 785.66809 4826.8911 2761497
2044.9629 789.51227 4850.5088 2695704
2085.2415 793.90704 4877.5088 3748135
2107.71 791.49359 4862.6812 3155998
2104.9902 779.81396 4790.9253 3025697
2148.5444 785.35968 4824.9966 3091491
2202.5735 794.53833 4881.3872 3222820
2211.0901 787.27411 4836.7583 3288099
2237.6414 786.53497 4832.2173 2629913
2275.5691 789.76288 4852.0483 3156000
2287.8521 784.12097 4817.3862 2893085
2328.8149 788.32654 4843.2236 2563863
2370.2231 792.57855 4869.3467 2695450
2363.9214 780.96649 4798.0059 2958365
2421.2488 790.40167 4855.9727 2234642
2494.4614 804.73993 4944.0625 2432021
2479.0483 790.48572 4856.4893 2168849
2510.592 791.35962 4861.8584 2563863
2537.8977 790.89319 4858.9927 2497813
2538.0325 782.06482 4804.7534 2629400
2564.9055 781.57977 4801.7739 2432277
2634.1101 793.86328 4877.2397 2958878
2688.2029 801.37524 4923.3911 2366741
2698.894 795.92645 4889.9155 2103569
2745.4976 801.0719 4921.5273 2761500
2793.8022 806.60016 4955.4912 2564121
2752.0215 786.27545 4830.6226 3485222
2777.3689 785.35071 4824.9414 3353379
2801.2175 784.02527 4816.7983 3682599
2861.5195 792.8266 4870.8711 3353377
2888.4536 792.29944 4867.6318 3155998
2949.6492 801.08759 4921.6235 3221535
2986.1436 803.06091 4933.7471 2760984
3064.3245 816.0979 5013.8423 2234640
3037.5725 801.20697 4922.3574 2695192
3040.8872 794.45447 4880.8721 2497813
3108.9646 804.58954 4943.1382 3089950
3112.8154 798.06879 4903.0771 2958878
3154.1643 801.19366 4922.2754 2827292
3194.5515 804.01923 4939.6348 3156257
3200.9231 798.30994 4904.5586 4077613
3235.5813 799.69464 4913.0659 3813928
3237.2183 792.966 4871.7271 2827033
3321.9661 806.53461 4955.0884 3222048
3318.8594 798.72223 4907.0918 3353636
3364.51 802.6778 4931.3931 3353635
3373.7576 797.95526 4902.3794 3616809
3376.6138 791.81451 4864.6528 3814188
3450.0725 802.19373 4928.4194 3156259
3489.9709 804.66119 4943.5786 3024672
3538.7546 809.11908 4970.9663 2695706
3524.1384 799.12683 4909.5776 2761499
3545.3442 797.35468 4898.6899 2432278
3565.3582 795.3454 4886.3457 2103313
3606.7068 798.08948 4903.2041 2168850
3538.5852 776.75977 4772.1611 2827037
3596.3416 783.18066 4811.6094 2564122
3676.0105 794.23517 4879.5244 2629656
3743.1743 802.43628 4929.9092 2300948
3754.4136 798.6145 4906.4297 2497814
3767.3347 795.20648 4885.4922 2892572
3757.0347 786.98627 4834.9897 3155744
3745.3354 778.59961 4783.4648 2563348
3753.6824 774.47491 4758.124 2760984
3840.0347 786.38617 4831.3027 2103054
3797.0574 771.83209 4741.8872 2695191
3833.0308 773.42242 4751.6577 2892570
3872.4739 775.68451 4765.5552 2760984
3913.3684 778.20245 4781.0249 2826777
3894.6174 768.90863 4723.9263 2958363
3917.3809 767.88495 4717.6372 3024156
3948.3142 768.46594 4721.2065 3089692
3985.7065 770.28699 4732.3945 3221278
4044.573 776.2038 4768.7456 3023899
4086.3838 778.78802 4784.6226 3682086
4044.0286 765.40668 4702.4116 3221535
4125.4111 775.46783 4764.2241 2958363
4064.1362 758.75867 4661.5684 3550501
4086.3477 757.75647 4655.4111 3089951
4049.021 745.80115 4581.9614 2958365
4053.634 741.67865 4556.6343 3024158
4123.2075 749.4176 4604.1797 2694680
4173.8013 753.62775 4630.0459 2958108
4179.1538 749.66772 4605.7163 2694937
4225.2446 753.01917 4626.3066 3221280
4249.8701 752.52655 4623.2803 2234642
4330.2832 761.85541 4680.5938 3222049
4290.8726 750.11823 4608.4844 2432534
4299.3184 746.84277 4588.3608 2827548
4293.9482 741.22351 4553.8379 2629913
4315.8745 740.35693 4548.5142 2564121
4273.1035 728.47156 4475.4941 2629913
0 0 0 0
0 0 0 0
0 0 0 0
0 0 0 0
0 0 0 0
-4337.5591 808.14362 4790.6118 6250323
-4443.2344 833.28442 4939.645 4934463
-4404.9893 831.58881 4929.5933 5460292
-4316.7666 820.3728 4863.1055 5789003
-4298.9897 822.48364 4875.6187 4078640
-4237.3926 816.18268 4838.2671 2499351
-4211.3149 816.68414 4841.2393 4473398
-4182.1206 816.58368 4840.644 4736570
-4179.9766 821.80023 4871.5674 6315858
-4137.8623 819.17627 4856.0127 5789258
-4131.9385 823.73053 4883.0098 5657929
-3971.7905 797.38641 4726.8442 4670777
-3964.3096 801.53577 4751.4414 5065535
-3998.2307 814.17529 4826.3672 4276019
-4013.7224 823.21704 4879.9658 4275762
-3991.0579 824.50726 4887.6143 3946797
-3981.2988 828.50195 4911.2944 4210226
-3967.0815 831.62085 4929.7832 4868155
-3933.6204 830.72205 4924.4551 3618346
-3855.7571 820.36267 4863.0459 3881261
-3849.7456 825.24982 4892.0161 3486248
-3882.8767 838.66559 4971.5439 3420457
-3823.7737 832.21246 4933.29 3946799
-3779.114 828.82751 4913.2241 4999486
-3758.4607 830.69592 4924.3003 3946797
-3756.8403 836.83325 4960.6816 4407092
-3700.5334 830.78979 4924.8569 4670520
-3730.4878 844.17041 5004.1758 5328707
-3669.4673 837.01373 4961.752 5723465
-3679.5696 846.09589 5015.5898 6315602
-3624.0388 840.1109 4980.1118 6316117
-3545.6499 828.68549 4912.3823 6184531
-3564.1992 839.91467 4978.9482 6579288
-3462.6169 822.78558 4877.4087 6512980
-3456.2737 828.18945 4909.4419 3881259
-3437.0686 830.5769 4923.5947 4933945
-3434.8293 837.14008 4962.501 5197118
-3370.8445 828.638 4912.1011 4538931
-3371.4683 836.00854 4955.7935 4736567
-3327.6887 832.40137 4934.4102 5460290
-3281.9058 828.22485 4909.6519 6118734
-3304.8052 841.46118 4988.1157 5987404
-3254.3103 836.08032 4956.2183 4670774
-3239.0229 839.72919 4977.8486 4209708
-3218.1511 841.98401 4991.2148 4472880
-3148.8291 831.48669 4928.9878 4604722
-3256.2417 867.89868 5144.8354 5394240
-3134.8748 843.44513 4999.8765 5131327
-3144.3838 854.07336 5062.8799 5328705
-3119.1741 855.38525 5070.6567 4604984
-3040.6057 841.94763 4990.9995 4867646
-3007.1204 840.85229 4984.5063 5328966
-2951.8108 833.57214 4941.3501 5460551
-2953.5898 842.42902 4993.853 5131328
-2917.8159 840.64587 4983.2827 4736056
-2845.1484 828.08826 4908.8423 5196350
-2858.7527 840.64032 4983.2495 2893595
-2823.4978 838.93689 4973.1519 4406834
-2784.873 836.18567 4956.8428 4933178
-2762.7554 838.38513 4969.8809 4802106
-2747.8936 842.85742 4996.3926 5394757
-2713.1433 841.26038 4986.9258 5855565
-2702.1719 847.08252 5021.4385 5526602
-2645.666 838.60107 4971.1611 5921360
-2626.6277 841.93854 4990.9453 5460809
-2692.3723 872.83771 5174.1133 5921360
-2572.729 843.65552 5001.124 5197893
-2533.3374 840.41656 4981.9233 5723723
-2481.9329 833.06897 4938.3672 5460293
-2438.8025 828.35645 4910.4316 4933693
-2382.7769 819.09723 4855.5439 3288867
0 0 0 0
0 0 0 0
0 0 0 0
0 0 0 0
0 0 0 0
-1209.5527 448.26175 2657.2605 65536
0 0 0 0
0 0 0 0
-2145.9653 827.61127 4906.0146 6315606
-2098.3816 820.37103 4863.0952 4867902
-2106.3875 834.96472 4949.6055 4670780
-2080.085 836.17877 4956.8022 3749678
-2064.3706 841.74487 4989.7979 2499612
-2028.2581 839.03467 4973.7314 3222824
-2010.1058 843.78357 5001.8828 3420458
-1997.921 851.2171 5045.9482 3815214
-1961.5354 848.40912 5029.3022 5657417
-1943.0593 853.38019 5058.7705 6052430
-1897.8125 846.56519 5018.3721 5262914
-1856.4036 841.27264 4986.998 4276019
-1832.9419 844.07355 5003.6021 5526086
-1791.235 838.42657 4970.127 5526600
-1775.5006 844.95099 5008.8032 6382165
-1721.1865 833.02527 4938.1084 5657929
-1687.6273 830.90576 4925.5444 4605240
-1702.4197 852.93671 5056.1416 4473141
-1653.653 843.34222 4999.2666 4210482
-1604.7877 833.34674 4940.0142 4933692
-1592.1385 842.13586 4992.1152 4406836
-1533.9387 826.70825 4900.6616 4407094
-1538.6721 845.25732 5010.6191 4275765
-1484.718 831.66248 4930.0303 3881006
-1441.194 823.48169 4881.5352 4473145
-1414.1018 824.54712 4887.8506 4209972
-1393.0422 829.24811 4915.7178 4670522
-1389.2443 844.64478 5006.9878 3881264
-1342.5038 834.0351 4944.0942 4539194
-1275.3787 810.00549 4801.6489 4604985
-1256.2106 816.03247 4837.3765 5591881
-1233.8408 820.21246 4862.1553 4868158
-1207.6589 821.99762 4872.7373 4736060
-1177.8586 821.34686 4868.8799 4012593
-1139.7521 814.72595 4829.6318 2762526
-1126.6716 826.11407 4897.1396 3223077
-1093.6714 823.11237 4879.3457 3815214
-1067.9601 825.58221 4893.9868 3486248
-1032.5652 820.49536 4863.832 2828318
-1012.0314 827.26416 4903.957 2762270
-965.68408 812.70868 4817.6733 2301718
-928.56116 805.26636 4773.5557 3025442
-915.08606 818.5083 4852.0532 2630681
-897.99384 829.26904 4915.8418 4078896
-859.05615 819.90125 4860.3101 3617834
-838.25262 827.79169 4907.084 5263685
-806.99487 825.55426 4893.8208 5658187
-772.72986 819.95898 4860.6528 4605240
-745.11951 821.26538 4868.397 3486759
-715.43231 820.29578 4862.6489 3485989
-687.89001 821.80719 4871.6084 3091232
-664.84314 829.05676 4914.5835 4012847
-635.40546 828.63617 4912.0898 4933694
-601.2901 821.78198 4871.4595 5065282
-573.73334 823.6524 4882.5469 3288872
-546.37952 826.0282 4896.6304 4473147
-518.32178 827.54663 4905.6313 4144438
-489.67529 828.24957 4909.7983 4209717
-465.47452 837.03571 4961.8818 3552042
-434.56314 834.12567 4944.6318 3683883
-404.67053 832.89185 4937.3174 3815213
-370.44174 821.84558 4871.8364 4604731
-339.97101 817.97467 4848.8896 2960932
-312.71048 821.82587 4871.7192 1775887
-285.43497 826.41681 4898.9336 4670524
-254.80736 821.2431 4868.2646 2630941
-226.02719 821.46313 4869.5688 1644047
-197.31364 822.02509 4872.8999 3749422
-170.17819 830.48083 4923.0249 4341560
-138.56741 816.07733 4837.6426 4407355
-110.11738 817.63104 4846.8525 2893858
-81.164017 815.22546 4832.5923 3946291
-52.600376 816.24542 4838.6387 3485995
-23.99741 818.36725 4851.2168 3420460
4.8151326 830.93634 4925.7251 4538941
34.007278 831.20605 4927.3242 4143924
63.482361 834.94788 4949.5054 2894114
91.697311 824.98804 4890.4644 2499099
121.71947 832.16626 4933.0161 3551787
151.33795 834.33942 4945.8984 3815214
181.36536 837.69623 4965.7974 4144179
211.59422 840.91681 4984.8887 3880750
239.04929 833.67487 4941.9595 2827805
265.17477 823.88251 4883.9106 1511946
297.96152 834.67682 4947.8989 2695705
325.01315 828.91077 4913.7183 3156770
348.22693 815.10931 4831.9038 3881006
382.92389 828.242 4909.7534 2696476
421.00375 846.3208 5016.9233 2696476
449.23157 843.51642 5000.2993 2499096
471.81598 831.11792 4926.8018 2828062
500.24036 829.85199 4919.2974 1973010
528.58966 828.60785 4911.9219 2235927
555.87256 825.90887 4895.9229 2433307
584.66467 825.60889 4894.1445 2499356
620.93726 835.40143 4952.1938 2564893
648.85095 833.57166 4941.3477 1841170
684.32556 841.19409 4986.5327 2433306
708.90973 835.35272 4951.9053 2828065
733.42816 829.90125 4919.5894 3288872
757.31677 824.18097 4885.6802 3617324
822.25726 861.91364 5109.3564 3617324
831.35016 840.50439 4982.4443 3090980
855.18445 834.95599 4949.5537 2433050
874.4917 825.50208 4893.5112 4077875
904.10358 826.07001 4896.8784 2038292
923.90363 817.91644 4848.5444 1841168
948.5365 814.40387 4827.7222 2762012
983.64325 819.82654 4859.8677 2695706
1012.1537 819.59949 4858.5215 2958876
1042.3237 820.69159 4864.9951 2498325
1070.2056 819.97168 4860.728 2564118
1112.6309 830.14062 4921.0083 1708297
1120.9559 814.99738 4831.2407 2103053
1143.5012 810.6897 4805.7051 1971467
1153.1525 797.67218 4728.5381 2563860
1181.5557 797.93573 4730.1001 2366481
1207.3588 796.47186 4721.4229 2300945
1222.3093 788.07715 4671.6592 2498067
1253.5266 790.30981 4684.8945 2564373
1266.2764 781.05469 4630.0312 2564118
1321.8392 798.03992 4730.7183 2301202
1333.0372 788.09137 4671.7437 2958876
1367.6545 792.11133 4695.5737 3485219
1398.4094 793.77856 4705.457 2300947
1436.7142 799.58246 4739.8618 1708812
1488.3143 812.42126 4815.9697 2037776
1506.1001 806.66626 4781.854 2958877
1519.9926 799.07697 4736.8652 2892828
1555.254 802.79291 4758.8936 1642506
1579.3818 800.73212 4746.6772 2629399
1624.135 809.01727 4795.7905 2300435
1637.9724 801.88245 4753.4961 2432021
1676.8787 807.05408 4784.1533 2366228
1721.4589 814.7392 4829.71 2235156
1764.5453 821.47754 4869.6543 2300949
