# .PCD v0.7 - Point Cloud Data file format
VERSION 0.7
FIELDS x y z rgb
SIZE 4 4 4 4
TYPE F F F U
COUNT 1 1 1 1
WIDTH 1276
HEIGHT 1
VIEWPOINT 0 0 0 1 0 0 0
POINTS 1276
DATA ascii
920.40955 832.61139 3160.0457 3683368
931.87665 826.18036 3135.6377 2828061
952.94897 828.3501 3143.8728 2696986
976.80139 832.80701 3160.7881 920581
984.78906 823.82446 3126.6963 3683882
1005.262 825.42542 3132.7722 1841680
1022.0735 824.0163 3127.4243 2170130
1032.9965 817.99451 3104.5696 2696475
1041.0287 809.93427 3073.9783 2038546
1063.5725 813.24744 3086.5527 3025441
1076.6355 809.32159 3071.6528 1906189
1105.184 816.97345 3100.6943 2827291
1111.5703 808.26031 3067.625 2893083
1130.2413 808.61646 3068.9766 3616805
1144.2123 805.65179 3057.7249 4406837
1171.5963 812.07672 3082.1096 4341300
1177.2671 803.48523 3049.5017 5722695
1199.1292 806.03687 3059.1863 4275505
1205.795 798.45007 3030.3918 4538161
1219.1442 795.44641 3018.9919 4668981
1242.1917 798.76593 3031.5906 3616293
1265.0156 801.84918 3043.2925 2892570
1270.7661 794.17548 3014.1682 3550499
1302.3794 802.65369 3046.3459 3419427
1309.5023 796.013 3021.1423 4143150
1328.2637 796.53082 3023.1077 3814186
1359.839 804.61682 3053.7966 4735288
1384.4087 808.39984 3068.1543 2827290
1389.1866 800.67731 3038.845 5261889
1405.9471 799.97046 3036.1624 2564893
1438.038 807.89417 3066.2351 5130302
1448.6974 803.73004 3050.4309 3616806
1451.9277 795.59778 3019.5662 4143150
1471.2773 796.38855 3022.5674 591105
1494.0116 798.9704 3032.3667 3221793
1503.9261 794.71661 3016.2219 2827805
1531.3018 799.68134 3035.0647 4472372
1558.8011 804.5946 3053.7124 3485477
1571.3583 801.77106 3042.9961 985604
1587.9517 801.04767 3040.2505 2169360
1605.2092 800.67188 3038.8242 2563861
1609.0215 793.67218 3012.2581 4143150
1617.8997 789.29755 2995.6548 3287841
1643.8384 793.25055 3010.658 2300946
1631.1309 778.66986 2955.3188 2300946
1698.4883 802.21417 3044.678 4604473
1705.2493 796.94421 3024.6765 4341300
1733.8275 801.87408 3043.3872 4603960
1735.8114 794.52948 3015.5117 3945516
1763.3514 798.91309 3032.1492 2892828
1749.2533 784.53369 2977.5742 2892825
1757.705 780.45404 2962.0906 2037260
1783.0027 783.86096 2975.021 4208681
1796.5994 782.10736 2968.3657 4142888
1833.0106 790.22345 2999.1689 2892050
1835.7852 783.8219 2974.8726 2432016
1854.5989 784.32495 2976.7822 1971208
1895.6737 794.14459 3014.0508 3089946
1913.1691 793.99487 3013.4829 2563345
1954.0771 803.47485 3049.4624 2234639
1947.3113 793.35815 3011.0662 2629653
1938.9567 782.78375 2970.9326 2958618
1945.8639 778.50562 2954.6956 2827032
2006.5704 795.63593 3019.7109 3090204
2004.1846 787.66742 2989.468 2497811
2013.6106 784.44025 2977.2195 984320
2044.5729 789.58594 2996.7493 1576709
2045.4875 783.13904 2972.281 1840136
2045.7258 776.54547 2947.2561 2629653
2066.9788 777.9729 2952.6738 2234638
2099.709 783.65997 2974.2583 2169102
2135.4321 790.36029 2999.6882 3024411
2142.4758 786.42273 2984.7439 2037261
2161.2021 786.80286 2986.1865 2168334
2169.5984 783.44653 2973.448 1707781
2183.7764 782.21533 2968.7751 1642505
2187.4556 777.27319 2950.0181 2563346
2207.6924 778.24615 2953.7109 2102796
2269.4238 793.71637 3012.4255 3024411
2250.6677 781.01471 2964.2188 2893081
2256.7954 777.07806 2949.2778 5458240
2275.8684 777.62506 2951.3538 3352864
2301.312 780.32379 2961.5964 1905417
2310.8386 777.62549 2951.3555 1576451
2306.822 770.44446 2924.1008 1181696
2327.7544 771.64093 2928.6418 1181696
2351.6492 773.79443 2936.8152 2234124
2336.2202 763.0722 2896.1206 3155736
2368.1096 767.849 2914.2502 3221529
2372.9592 763.8526 2899.0825 2695184
2383.9309 761.87012 2891.5583 3155736
2413.6309 765.85864 2906.696 3089688
2428.9504 765.25995 2904.4238 4339756
2450.2886 766.55249 2909.3293 4668721
2454.4365 762.48669 2893.8984 2563601
2463.3933 759.96094 2884.3123 2892312
2471.2585 757.13544 2873.5886 3484192
2486.0049 756.44244 2870.9585 2168590
2504.0095 756.74365 2872.1016 2497554
2521.4827 756.88116 2872.6235 3813414
2530.4868 754.4917 2863.5547 2563602
2544.2737 753.5506 2859.9829 3418911
2554.095 751.45526 2852.0303 3616547
2578.4614 753.63873 2860.3174 3879975
2619.1609 760.53632 2886.4961 2760982
2645.3279 763.15204 2896.4236 1182211
2616.731 750.03693 2846.6472 1115904
2648.9744 754.41687 2863.2708 1708038
2671.4634 755.98077 2869.2061 1642245
2729.9731 767.65363 2913.5088 1510659
2705.7222 756.05426 2869.4851 1839622
2714.3621 753.73291 2860.6748 2563345
2731.4126 753.76141 2860.783 3353374
0 0 0 0
0 0 0 0
0 0 0 0
0 0 0 0
0 0 0 0
0 0 0 0
0 0 0 0
-3063.0259 923.46967 3427.8115 5657669
-3082.4543 935.52954 3472.5762 5526083
-3081.8435 941.62848 3495.2148 6118220
-3076.092 946.22882 3512.2908 7105114
-3051.0955 944.93152 3507.4751 6315598
-3040.2078 948.01587 3518.9241 6184012
-3014.0698 946.35461 3512.7576 6250062
-2963.2119 936.85474 3477.4951 6118475
-2916.8118 928.64099 3447.0068 6447440
-2907.6611 932.25446 3460.4197 5723459
-2835.3884 915.53735 3398.3674 5328445
-2794.3982 908.75439 3373.1899 7697506
-2801.8201 917.73096 3406.51 5855048
-2801.3477 924.23328 3430.6458 6447184
-2799.0442 930.22211 3452.8757 7302494
-2755.8127 922.59717 3424.5728 6447185
-2765.0886 932.56799 3461.5833 4276016
-2751.1279 934.79236 3469.8401 3947053
-2713.1697 928.83502 3447.7268 5460292
-2719.853 938.18567 3482.4355 5657671
-2663.8052 925.87555 3436.7419 6184014
-2639.8459 924.61493 3432.0625 5526085
-2633.655 929.60645 3450.5906 7236701
-2639.2554 938.87061 3484.978 6710354
-2601.2539 932.64795 3461.8801 6578511
-2580.9209 932.71155 3462.1162 4538929
-2550.2412 929.00708 3448.3655 4867380
-2521.3896 925.91406 3436.8848 5788480
-2517.6504 932.0675 3459.7256 5854273
-2487.1038 928.31628 3445.8015 4670256
-2442.0803 919.05457 3411.4231 5262392
-2423.0625 919.50696 3413.1023 5788478
-2397.2661 917.37311 3405.1816 5064498
-2353.6208 908.31458 3371.5576 5196340
-2358.8674 918.1311 3407.9954 9144179
-2352.0825 923.39362 3427.5291 7630941
-2348.0173 929.82483 3451.4009 5986887
-2321.7979 927.51874 3442.8411 6710096
-2288.4443 922.29657 3423.4573 5460284
-2290.2236 931.26709 3456.7546 4276266
-2238.4355 918.42096 3409.071 6710607
-2185.2695 904.77045 3358.4019 6841938
-2196.8672 917.92944 3407.2468 7039318
-2184.2427 921.11804 3419.0825 5656894
-2163.8782 921.07147 3418.9097 5262135
-2161.0618 928.56427 3446.7219 5064500
-2148.5435 931.99152 3459.4434 3748897
-2130.7332 933.16711 3463.8071 6051652
-2081.759 920.58441 3417.1016 6052165
-2042.7786 912.21735 3386.0442 5196601
-1989.7391 897.34393 3330.8359 7565405
-1964.0802 894.64453 3320.8159 7104855
-1953.9814 899.04987 3337.168 7236443
-1941.7809 902.5683 3350.228 6381393
-1919.8591 901.59418 3346.6123 5526340
-1901.6163 902.34546 3349.4009 7039578
-1888.7046 905.66895 3361.7373 4604723
-1877.3093 909.79822 3377.0647 4933944
-1867.7286 914.90527 3396.0215 6447182
-1858.6309 920.36273 3416.2788 6644305
-1847.2371 924.79089 3432.7156 4210222
-1814.7179 918.62378 3409.824 3157535
-1803.2783 923.10852 3426.4709 4538930
-1773.4614 918.18085 3408.1799 4275502
-1740.787 911.64337 3383.9136 4538674
-1705.236 903.42932 3353.4241 4604724
-1730.1187 927.41681 3442.4626 4472367
-1710.0792 927.60907 3443.1763 6381134
-1653.3411 907.65894 3369.1238 7302236
-1658.7054 921.73132 3421.3586 6710102
-1603.1205 901.86346 3347.6118 6841944
-1586.7841 903.85468 3355.0027 6973272
-1598.8793 922.29688 3423.458 6315343
-1572.559 918.76862 3410.3616 6118220
-1522.4192 901.05084 3344.5952 6973272
-1505.8479 902.99536 3351.8132 6973529
-1491.3472 906.25018 3363.8948 6512723
-1486.0117 915.23804 3397.2568 4407346
-1485.9324 927.75446 3443.7161 4078125
-1475.4269 934.01904 3466.9695 3354403
-1444.4755 927.33447 3442.1572 4275506
-1415.3761 921.66449 3421.1106 3223077
-1396.8857 922.8385 3425.4685 4933694
-1371.1051 919.15991 3411.814 4999482
-1318.5862 897.17816 3330.2205 4868152
-1298.3855 896.85229 3329.011 4867897
-1271.3032 891.6897 3309.8481 5130556
-1272.1494 906.26117 3363.9355 4274990
-1269.4058 918.69836 3410.1011 4735798
-1249.9393 919.23962 3412.1099 4735285
-1217.3403 909.98169 3377.7456 4275504
-1199.5917 911.70074 3384.1265 4736313
-1166.538 901.64844 3346.8135 3683368
-1137.2488 894.20862 3319.1978 3289124
-1125.7921 900.77539 3343.5728 1775372
-1111.2646 905.07617 3359.5369 1840908
-1079.8638 895.54065 3324.1421 2630681
-1058.1942 893.87097 3317.9446 3814440
-1029.579 886.15991 3289.322 4998712
-1005.9717 882.54492 3275.9036 3880744
-975.86005 872.96906 3240.3591 4143404
-952.68109 869.33521 3226.8706 4998969
-937.55286 873.04926 3240.6567 6051399
-930.74268 884.82635 3284.3718 5919556
-914.86597 888.30292 3297.2766 3090714
-895.45282 888.42261 3297.7209 2958869
-877.01312 889.5351 3301.8501 2892820
-859.3988 891.55457 3309.3462 3814180
-839.97705 891.74933 3310.0693 5656900
-824.16687 895.87946 3325.3997 5722437
-803.71466 895.04218 3322.292 3288096
-779.83185 890.24652 3304.491 2959388
-748.26312 876.20392 3252.3665 4670263
-730.84082 878.42206 3260.6001 5393985
-702.75281 867.59314 3220.4043 2367762
-688.2937 873.45508 3242.1631 3222299
-674.30524 880.26801 3267.4519 3880229
-662.49597 890.41248 3305.1072 4407086
-639.55951 885.76422 3287.8533 4932916
-611.35278 873.29553 3241.571 3024920
-590.45221 870.79315 3232.2822 2893335
-576.92285 879.35834 3264.0754 2630421
-551.18439 869.263 3226.6025 1183495
-537.36835 877.92035 3258.7375 3814953
-519.36816 880.1322 3266.948 3222559
-493.7402 869.08899 3225.9568 3025691
-471.42285 863.21838 3204.1658 6117963
-450.15039 858.84875 3187.9463 5328189
-426.79816 849.95465 3154.9324 4801592
-403.2301 839.79639 3117.2258 3354405
-374.84488 818.14886 3036.873 394242
-358.99319 823.05389 3055.0798 3091489
-354.56967 856.0719 3177.6387 4670264
-336.5351 858.0874 3185.1201 3617318
-316.05273 853.73041 3168.9475 6380109
-299.17526 859.17554 3189.1592 5788740
-277.51468 850.69281 3157.6721 4539189
-259.13571 851.77014 3161.6714 5921355
-241.88422 857.01025 3181.1218 6775890
-224.17244 861.36725 3197.2944 4933687
-209.01741 877.25934 3256.2839 5460031
-185.40723 857.28802 3182.1528 5525825
-166.05513 854.71283 3172.5942 4801847
-146.03554 847.6062 3146.2148 7104859
-129.0092 858.33496 3186.0388 5460032
-109.26302 851.54395 3160.8315 3683621
-91.221359 857.97552 3184.7048 4208940
-73.041214 866.1192 3214.9331 3617319
-53.920265 864.91675 3210.47 3288354
-34.778702 861.89307 3199.2463 5656901
-15.872721 864.45709 3208.7634 5261887
3.1150041 858.47223 3186.5486 6314832
22.082626 861.97705 3199.5581 5853767
41.710499 876.11243 3252.0269 1840655
60.605591 870.78687 3232.259 2038544
78.921776 861.69788 3198.5217 3025438
97.232697 856.08197 3177.6763 4209715
115.79289 854.12671 3170.4185 3354406
134.86368 855.95782 3177.2153 4209712
153.05974 852.46857 3164.2637 3354405
168.04123 833.79071 3094.9336 3354658
186.60045 834.7934 3098.6555 4473135
208.65656 849.85931 3154.5784 5393987
229.68123 858.59265 3186.9956 4933692
241.24245 833.31018 3093.1499 5262402
258.14209 828.73578 3076.1702 6052174
279.54553 838.27008 3111.5605 5262145
296.83817 835.06042 3099.6465 4669752
316.23975 837.81195 3109.8599 5064253
332.15677 831.53699 3086.5681 6314318
359.07867 852.02954 3162.634 5195834
376.87817 849.9173 3154.7935 6774868
388.86234 835.5097 3101.3145 4603956
417.54645 856.66486 3179.8398 6577492
435.26822 854.47345 3171.7056 5327425
453.62109 853.651 3168.6528 4274738
468.7739 847.11121 3144.3777 2695706
490.83881 853.08453 3166.55 2300691
510.44803 854.50726 3171.8311 4669494
527.09637 851.04822 3158.9917 5327424
544.4715 848.95978 3151.2395 4011564
559.06396 842.8147 3128.4297 4669494
573.11365 836.27203 3104.1438 4735805
594.9292 841.11554 3122.1226 4867135
610.90515 837.65997 3109.2957 7434088
638.64496 850.06482 3155.3411 4472889
653.10779 844.59442 3135.0356 4999489
670.92621 843.646 3131.5154 3090978
693.87775 849.02954 3151.4983 3485478
710.7561 846.89441 3143.5732 1446410
726.0636 843.04449 3129.2827 2367251
744.7594 843.2226 3129.9436 1840653
762.1994 842.00464 3125.4226 2169874
775.98621 836.90442 3106.4915 4604471
783.35162 825.27551 3063.3264 5722952
800.58691 824.33588 3059.8386 4867899
825.48846 831.1568 3085.157 4933438
843.46301 830.85876 3084.0505 8223087
864.36945 833.40009 3093.4836 6710104
874.22382 825.40112 3063.7925 6512727
910.2298 841.9165 3125.0955 7302243
931.57904 844.48688 3134.6365 4473147
937.99634 833.68536 3094.5425 4867906
952.31824 830.18884 3081.564 4144182
973.23315 832.46332 3090.0063 3420455
998.56177 838.35931 3111.8916 3552039
1010.6871 833.15747 3092.583 3683369
1014.8448 821.6897 3050.0161 3091234
1044.4062 830.83209 3083.9514 2235925
1054.7482 824.63367 3060.9438 591617
1067.6702 820.62787 3046.0747 1051141
1098.3904 830.20782 3081.6345 591363
1108.0425 823.81079 3057.8892 2235413
1119.825 819.17786 3040.6924 1379848
1132.2279 815.13843 3025.6987 1577227
1153.3937 817.4353 3034.2241 3748392
1158.0645 808.15076 2999.761 4208943
1167.5148 802.4317 2978.5327 3287583
1177.2208 797.05621 2958.5796 3024154
1201.9166 801.83856 2976.3311 2629140
1221.0797 802.84491 2980.0664 3682341
1230.683 797.62683 2960.6973 3682341
1242.0457 793.67944 2946.0452 4406065
1268.6107 799.42139 2967.3586 4143405
1286.4989 799.61334 2968.0713 5590852
1302.2433 798.48572 2963.8857 3880234
1353.2507 818.72235 3039.0015 4472114
1335.8468 797.58173 2960.5303 3945770
1364.9592 804.40234 2985.8477 3879978
1392.7672 810.28955 3007.7 4077357
1410.7948 810.40973 3008.1462 3945771
1424.6803 808.17731 2999.8596 4866874
1412.793 791.55981 2938.1777 6511699
1410.9496 780.90588 2898.6313 3090206
1467.9044 802.65924 2979.3772 1446668
1499.1281 809.99298 3006.5991 3420199
1521.9535 812.66998 3016.5361 3683371
1528.0488 806.45551 2993.4683 3683371
1556.8423 812.22528 3014.8853 3420199
1593.5398 821.9411 3050.9495 3550757
1579.4449 805.53442 2990.0498 3353891
1618.0289 816.06049 3029.1211 2564634
1610.7574 803.48187 2982.4307 4866874
1605.447 792.14368 2940.3447 3156512
1635.7239 798.41962 2963.6404 3551013
1651.02 797.3277 2959.5874 4208944
1660.1919 793.33209 2944.7561 3024668
1680.9274 794.88794 2950.5312 3814186
1680.7793 786.63794 2919.908 3945774
1705.8373 790.2326 2933.2512 5590599
1728.5945 792.69977 2942.4089 3155998
1743.5059 791.55566 2938.1621 4471858
1758.8679 790.63678 2934.7512 4471343
1768.1415 787.0257 2921.3472 4603183
1790.0364 789.04816 2928.8545 3945252
1811.1747 790.70148 2934.9915 1576963
1832.7671 792.51978 2941.7407 3154969
1855.3086 794.71027 2949.8716 3023897
1862.4662 790.33185 2933.6194 2431760
1887.3204 793.47437 2945.2842 1970954
1912.3835 796.64642 2957.0586 2958361
1910.8953 788.80072 2927.936 2300688
1931.5525 790.15533 2932.9644 3616547
1953.4399 791.98456 2939.7542 2761239
1975.4762 793.84131 2946.6462 3090204
1995.6997 794.94348 2950.7373 787456
1997.7863 788.86481 2928.1738 1116417
2024.4808 792.52399 2941.7563 1971723
1985.5416 770.64642 2860.5493 3484960
2014.4932 775.26642 2877.6982 2563859
2055.4343 784.3844 2911.5432 3945512
2087.5259 790.00146 2932.3933 2695445
2103.2883 789.39734 2930.1506 2629396
2141.2224 797.0564 2958.5801 2300431
2149.5562 793.66193 2945.9802 3352863
2151.5762 788.00977 2925 2168333
2166.0869 786.98596 2921.2 2563347
2194.1621 790.86774 2935.6086 2629140
2201.2102 787.16907 2921.8794 2760726
2197.2651 779.62732 2893.8855 2300176
2225.8831 783.66693 2908.8801 3155228
2249.4666 785.88562 2917.1155 3549986
2266.2166 785.70135 2916.4314 1444868
2291.77 788.54883 2927.0012 590336
2293.092 783.07874 2906.6968 393216
2303.1899 780.66473 2897.7363 1116160
2292.9365 771.43939 2863.4929 1313792
2321.5537 775.33124 2877.939 1905928
2354.0554 780.45416 2896.9546 4471596
2359.5225 776.60486 2882.6665 1971463
2398.5259 783.76965 2909.2612 1839876
2398.7209 778.24115 2888.7402 2037254
2410.2761 776.45056 2882.0938 2760978
2409.47 770.73108 2860.8638 4536878
2448.2952 777.68005 2886.6575 4142890
2452.5757 773.63593 2871.646 3484705
2472.6641 774.59961 2875.2231 4010536
2498.8479 777.44647 2885.7903 2168591
2511.7656 776.15533 2880.9978 2366228
2519.8203 773.38898 2870.7295 1774090
2527.3887 770.5116 2860.0488 1379332
2535.8103 767.93079 2850.4692 2168847
2533.4226 762.13245 2828.9465 4866360
2549.751 762.00366 2828.4685 3813414
2564.7522 761.48254 2826.5342 1905933
2589.5159 763.8479 2835.314 2497811
2607.2693 764.12811 2836.3542 3681830
2617.3518 762.17108 2829.0898 2498067
2619.1089 757.82996 2812.9763 2037259
2642.8586 759.86707 2820.5376 1971209
2676.1812 764.61359 2838.1562 721408
2662.8381 756.05121 2806.3735 1510915
2670.0605 753.39789 2796.5249 984833
0 0 0 0
0 0 0 0
0 0 0 0
0 0 0 0
0 0 0 0
0 0 0 0
0 0 0 0
-2999.9016 924.32703 3357.1697 6183754
-2974.4109 922.58936 3350.8584 5526336
-2953.9312 922.39313 3350.1458 5197372
-2995.2312 941.61603 3419.9636 4671029
-2996.8792 948.55035 3445.1492 6052169
-2960.4922 943.45886 3426.6565 5196859
-2909.4802 933.60388 3390.8633 5460031
-2866.7339 926.28278 3364.2729 3551774
-2819.3271 917.34271 3331.8025 4340778
-2820.1052 924.06537 3356.219 4669744
-2789.0381 920.37457 3342.814 4340779
-2800.7427 930.84644 3380.8484 5262391
-2760.408 924.04913 3356.1604 6117697
-2768.5884 933.51141 3390.5273 5920830
-2729.5894 927.08783 3367.1968 5131316
-2755.8855 942.90991 3424.6631 5657408
-2730.137 941.02808 3417.8279 7105110
-2704.2036 939.05371 3410.6572 6907736
-2640.0266 923.66937 3354.781 5526083
-2596.208 915.22852 3324.1235 5723462
-2621.6399 931.25763 3382.3418 6184268
-2599.9011 930.6488 3380.1304 4539442
-2567.0266 926.01349 3363.2947 5855302
-2569.0388 933.98877 3392.2612 7630943
-2544.4888 932.35687 3386.334 5920580
-2537.1135 937.04236 3403.3518 6249545
-2511.0046 934.82849 3395.3108 4077861
-2467.2336 925.9502 3363.0649 2959123
-2437.7336 922.32697 3349.9053 3946016
-2400.0447 915.52039 3325.1838 5459255
-2388.1677 918.52887 3336.1106 4406567
-2368.4941 918.56396 3336.238 4932911
-2350.897 919.41168 3339.3169 4603947
-2329.3279 918.70709 3336.7578 6314310
-2309.7627 918.78772 3337.0505 4999220
-2311.1587 927.27972 3367.8936 6446409
-2313.8865 936.45856 3401.2314 5591100
-2277.5127 929.83472 3377.1736 7499610
-2266.9092 933.70795 3391.2412 6315336
-2219.2961 922.27039 3349.7 6644557
-2231.6389 935.76709 3398.72 5789249
-2161.9534 914.80042 3322.5688 7696733
-2140.676 914.11987 3320.0969 8289639
-2169.0569 934.82867 3395.3115 5065526
-2140.8035 931.28802 3382.4519 6710351
-2137.0381 938.4339 3408.406 3683107
-2126.6768 942.79211 3424.2351 5788480
-2086.9487 934.09015 3392.6294 5196343
-2051.53 927.16638 3367.4822 4801585
-2001.7468 913.55115 3318.0312 4669999
-1957.2966 902.12378 3276.5269 6512204
-1905.2706 886.94073 3221.3821 5196346
-1903.3987 895.03448 3250.7788 5788996
-1932.8562 918.17627 3334.8301 6117962
-1886.3057 905.31665 3288.1235 6513232
-1865.1844 904.52057 3285.2322 7434848
-1858.8365 910.94745 3308.5747 6118988
-1840.8352 911.73962 3311.4519 7303264
-1802.464 902.35132 3277.3533 6250575
-1807.0522 914.49908 3321.4744 6908505
-1793.1572 917.4574 3332.219 5921355
-1803.3961 932.96716 3388.5505 3750185
-1778.0234 930.19525 3378.4832 5394240
-1743.9398 922.75128 3351.4465 3420449
-1741.2151 931.91949 3384.7454 3091227
-1706.2993 923.87152 3355.5151 2958873
-1672.7223 916.36725 3328.2598 3748645
-1628.3395 902.6936 3278.5967 3946024
-1635.7902 917.77142 3333.3594 5788741
-1617.6423 918.67987 3336.6589 5723204
-1587.2859 912.59167 3314.5466 6709840
-1568.0127 912.80292 3315.314 5920583
-1549.1729 913.27502 3317.0286 5789254
-1546.7867 923.5838 3354.4702 6315342
-1501.7157 908.34198 3299.1118 6841686
-1493.6827 915.39691 3324.7354 5920584
-1487.2493 923.63379 3354.6516 6775638
-1463.4834 921.18384 3345.7537 4868924
-1453.8951 927.7132 3369.4683 2696732
-1413.4229 914.4433 3321.2717 3683368
-1394.7139 915.07776 3323.5762 2696730
-1384.0931 921.11316 3345.4966 4209970
-1336.8528 902.59949 3278.2546 6578519
-1295.844 887.80927 3224.5366 6381654
-1292.9336 899.06909 3265.4324 6710361
-1266.8562 894.31665 3248.1714 4275756
-1245.9482 893.12292 3243.8359 4867894
-1249.5513 909.7373 3304.1797 5656900
-1235.5107 913.83063 3319.0464 4933434
-1227.3159 922.44995 3350.3521 3683368
-1202.6361 918.75879 3336.9458 2893854
-1179.5359 916.1712 3327.5476 2433046
-1156.1964 913.30676 3317.1438 1709579
-1136.5431 913.3053 3317.1384 2170130
-1106.1235 904.49994 3285.1572 920321
-1084.1346 902.39673 3277.5183 1380613
-1072.3588 908.87268 3301.0391 525568
-1043.7089 901.02216 3272.5259 3617318
-1018.0959 895.54584 3252.6357 4209709
-983.19653 881.53192 3201.7371 4012330
-964.68445 881.94855 3203.2502 2301458
-948.90387 884.92926 3214.0764 4406578
-925.55853 880.83282 3199.198 4801335
-905.29724 879.56152 3194.5806 6511951
-893.01813 886.1568 3218.5347 2893590
-891.26233 903.71008 3282.2886 2498574
-861.37299 892.88367 3242.9668 2432525
-847.65448 898.70807 3264.1213 2563854
-828.07227 898.4425 3263.1565 4538160
-818.23718 908.99243 3301.4741 4538417
-797.63184 907.80121 3297.1475 3749162
-768.12964 896.17029 3254.9038 4407347
-734.78107 879.33728 3193.7661 5789002
-710.77167 873.08636 3171.0627 6973277
-698.79376 881.67639 3202.2617 4078385
-681.57086 883.94342 3210.4956 5525829
-667.99573 891.20715 3236.8779 1643529
-644.96509 885.9126 3217.6477 1577731
-622.30829 880.82452 3199.1677 2893077
-603.97748 881.7323 3202.4648 2695700
-582.41663 877.83044 3188.2935 3880233
-559.72321 871.90289 3166.7644 1117959
-537.52936 866.36938 3146.6665 2367768
-521.86127 871.33411 3164.6985 5065023
-509.39224 882.20923 3204.197 4670265
-485.07486 872.61206 3169.3398 4736314
-466.11182 872.26178 3168.0679 5526085
-445.57785 868.81909 3155.5637 6118477
-424.15622 863.26819 3135.4028 4671034
-403.64493 859.14648 3120.4329 5460294
-377.53156 842.133 3058.6396 986636
-356.22827 834.67444 3031.5498 4144182
-344.94345 851.14441 3091.3691 5131072
-334.32138 871.18823 3164.1685 4407091
-312.72714 863.32312 3135.6025 4736314
-294.70032 864.93506 3141.457 5460036
-275.97571 864.57825 3140.1611 4406831
-255.73238 859.06805 3120.1479 5525823
-236.45131 856.18353 3109.6714 6775377
-219.98286 863.85663 3137.54 5130039
-201.4622 864.14325 3138.5813 3485472
-182.93105 864.43866 3139.6541 4998454
-161.50764 849.58661 3085.7114 4143144
-143.60425 851.8233 3093.835 5327418
-126.16454 857.86719 3115.7866 5131066
-107.77201 858.39362 3117.6985 4538929
-89.594917 861.20868 3127.9226 5525569
-70.047386 848.88385 3083.1587 5657156
-52.684536 863.67859 3136.8936 4802106
-33.818642 856.53058 3110.9316 5920844
-15.398238 857.05707 3112.8442 5196610
3.0660591 863.56458 3136.4795 4999230
21.745464 867.48169 3150.7063 7301985
41.390285 888.50427 3227.0608 5985868
59.519283 873.98413 3174.3235 3025438
77.983376 870.1756 3160.4907 2104595
94.75193 852.58521 3096.6021 4801850
113.86115 858.34644 3117.5271 4077870
130.90808 849.1228 3084.0266 5789000
148.74283 846.64258 3075.0186 4144175
169.3737 858.88263 3119.4746 3815467
185.51105 848.16974 3080.5652 6643798
203.3972 846.65533 3075.0647 4472371
220.82867 843.65283 3064.1599 4274992
237.75255 839.31458 3048.4031 3749164
256.50943 841.60297 3056.7146 7565670
273.81555 839.14343 3047.7815 4736316
293.98721 845.22675 3069.8762 4603447
313.51559 848.85962 3083.0708 5721413
329.15305 842.13757 3058.656 4866360
348.83762 845.93121 3072.4346 5524545
367.2569 846.43243 3074.2551 4274475
388.79166 853.72736 3100.7505 5261370
399.84454 838.38593 3045.0303 5392957
421.42465 845.48956 3070.8306 5130299
447.5379 860.72333 3126.1602 5854278
465.19266 859.12524 3120.356 5525057
482.31705 856.70728 3111.5737 4077356
502.57416 859.8269 3122.9043 2498068
516.01398 851.47589 3092.573 3616551
534.88531 852.35266 3095.7576 3748394
554.05127 853.62531 3100.3796 3617578
572.00525 853.00879 3098.1406 5064769
587.49054 848.86371 3083.0857 7631206
602.53021 844.34412 3066.6704 6446676
624.84216 849.98163 3087.146 6446936
637.83411 842.98102 3061.7195 6117716
661.95886 850.67401 3089.6606 2499359
675.04156 844.14496 3065.947 4867394
702.66144 855.66052 3107.7717 920843
716.33179 850.03491 3087.3394 2565150
744.12848 861.03491 3127.2917 4736320
756.61633 854.21704 3102.5291 2236184
767.09357 845.50641 3070.8918 5262148
780.84729 840.72705 3053.5332 5262402
796.88098 838.56342 3045.6748 5393986
817.26404 840.97101 3054.4194 5722952
836.01202 841.62823 3056.8064 5722693
853.75189 841.2644 3055.4849 4867641
870.06891 839.54254 3049.2312 7828586
895.69342 846.68921 3075.1877 5855055
909.5144 842.61548 3060.3921 5394248
922.20422 837.67346 3042.4426 4736575
947.64929 844.2851 3066.4561 4276023
964.11896 842.80182 3061.0688 5592136
974.74213 836.35687 3037.6609 3222303
989.9447 834.00366 3029.1138 2959128
1014.5563 839.52008 3049.1494 2827803
1026.1523 834.26178 3030.051 3288098
1038.2426 829.57892 3013.0432 1314311
1057.0458 830.32788 3015.7632 393728
1083.3857 836.8736 3039.5374 1314313
1102.6027 837.79297 3042.8767 1380621
1110.7277 830.39044 3015.9905 985606
1110.5266 817.09613 2967.7053 1117192
1130.5807 818.88708 2974.2102 1051140
1142.3708 814.72937 2959.1094 1642762
1148.1752 806.49286 2929.1941 2695705
1161.8756 803.96527 2920.0139 2234383
1184.1149 807.33368 2932.2478 4076842
1193.424 801.91632 2912.572 3221535
1207.9941 800.13812 2906.1138 4471858
1223.8287 799.23578 2902.8362 2563604
1240.1288 798.65808 2900.738 1577480
1270.9631 807.32849 2932.229 5261629
1287.9501 807.08771 2931.3545 5261886
1303.0054 805.65894 2926.1653 5129531
1314.0083 801.79498 2912.1313 4208173
1344.9257 810.02539 2942.0242 5129532
1365.4738 811.87976 2948.7595 2958619
1379.4062 809.80353 2941.2185 3287584
1385.7266 803.36597 2917.8372 4735542
1397.9236 800.45209 2907.2539 4341041
1427.0103 807.16241 2931.626 3222818
1471.5173 822.3288 2986.7104 3157026
1469.8676 811.64734 2947.9153 1775893
1512.1649 825.19897 2997.135 4078129
1506.3488 812.48492 2950.9575 4538937
1527.7695 814.58502 2958.585 4341300
1559.7186 822.18726 2986.1963 4538933
1569.4082 818.01678 2971.0493 3617575
1575.493 812.08069 2949.4893 3419427
1591.3247 811.24371 2946.4495 3682599
1580.7529 797.11078 2895.1182 3419425
1600.5859 798.44849 2899.9768 3287583
1601.7739 790.5556 2871.3098 3155997
1641.0455 801.42719 2910.7954 3879465
1649.2274 797.04755 2894.8884 2761497
1653.5946 790.93335 2872.6819 3222048
1681.0068 795.85419 2890.5542 2564120
1710.4351 801.62054 2911.4978 2498581
1732.0719 803.65686 2918.8936 3221790
1736.8939 797.92804 2898.0864 1971465
1765.2446 803.01471 2916.5613 2826770
1779.8335 801.80304 2912.1604 3286807
1775.1348 792.00916 2876.5891 3155477
1824.3899 806.24524 2928.2947 3155479
1802.9177 789.25116 2866.572 4471595
1814.7219 787.00562 2858.416 3616030
1824.8328 784.07391 2847.7683 3747619
1839.9773 783.33899 2845.0989 2695188
1876.4652 791.62152 2875.1812 4274477
1919.6276 802.54541 2914.8569 1905929
1928.2992 798.98346 2901.9197 2629909
1940.5865 796.9693 2894.6045 2761239
1958.5098 797.28479 2895.7502 1182211
1959.4219 790.72992 2871.9429 1445637
1951.3705 780.70178 2835.5205 3090204
1968.9564 781.01416 2836.655 3287583
1984.1866 780.39484 2834.4055 3550754
2019.3196 787.54803 2860.3862 1379075
2062.9504 797.8689 2897.8716 2826261
2074.6235 795.76123 2890.2168 2431504
2097.1465 797.81592 2897.6792 2694932
2113.8469 797.63995 2897.0403 2431760
2139.2549 800.7262 2908.2495 3221275
2162.0759 802.80261 2915.791 3418397
2158.3784 795.07733 2887.7329 3089689
2151.8975 786.45648 2856.4216 3879205
2180.8093 790.8042 2872.2126 3352860
2181.7981 785.03754 2851.2681 3616032
2183.541 779.62872 2831.6233 4669235
2212.9485 784.10468 2847.8799 3748133
2287.1956 804.28046 2921.1587 2104335
2286.7549 798.08698 2898.6638 2103310
2280.0347 789.81055 2868.6035 984832
2289.6235 787.26434 2859.3557 656128
2294.5801 783.17432 2844.5007 1116161
2300.5425 779.48486 2831.1006 1445379
2339.9258 787.09064 2858.7251 1050626
2353.4048 785.93628 2854.5322 1510912
2370.5396 786.0105 2854.8018 2695442
2364.4451 778.43591 2827.291 2300427
2372.4487 775.5769 2816.907 2300171
2388.7266 775.44366 2816.4231 2234378
2426.9473 782.38617 2841.6384 2497553
2437.8992 780.50293 2834.7983 2892312
2465.1177 783.8175 2846.8369 4208685
2475.2756 781.69934 2839.1436 3616548
2489.3486 780.83771 2836.0144 2958619
2514.3303 783.38654 2845.2717 1840139
2506.6135 775.78143 2817.6499 1839881
2520.4912 774.91602 2814.5066 2037773
2530.8962 773.0014 2807.5527 2893083
2527.1917 766.83044 2785.1396 5064250
2537.1211 764.84973 2777.9456 2498579
2587.2341 774.93036 2814.5586 2169616
2584.3425 769.1076 2793.4102 3024412
2583.1316 763.8559 2774.3359 2761499
2604.9563 765.43939 2780.0872 2366741
2632.3523 768.6297 2791.6746 2300691
2623.3823 761.22791 2764.791 1314054
2630.4673 758.54773 2755.0566 2432534
0 0 0 0
0 0 0 0
0 0 0 0
0 0 0 0
0 0 0 0
0 0 0 0
0 0 0 0
-2943.7415 926.53925 3294.321 5986634
-2902.657 919.70538 3270.0232 8158057
-2911.1438 928.59192 3301.6191 5460542
-2904.3164 932.68066 3316.1567 5526079
-2885.1248 932.82739 3316.6785 3946791
-2850.6426 927.9986 3299.5095 4407342
-2792.7529 915.43042 3254.8232 4209450
-2807.9373 926.8067 3295.2717 4077608
-2782.4241 924.81531 3288.1914 3748643
-2712.9207 908.07135 3228.658 4471851
-2727.4514 919.41742 3268.9993 4735535
-2724.4292 924.96649 3288.7288 4538155
-2702.697 924.19733 3285.9941 4012067
-2685.2952 924.90863 3288.5232 5788479
-2665.9204 924.94574 3288.6553 5722688
-2673.1721 934.28973 3321.8777 5723202
-2651.6858 933.65363 3319.616 7105369
-2651.3477 940.50977 3343.9932 5920840
-2605.8667 931.33508 3311.3726 5525824
-2564.2637 923.41785 3283.2227 5657669
-2549.7908 925.224 3289.6445 6447696
-2552.564 933.36426 3318.5872 6184523
-2538.8093 935.54047 3326.3247 4539441
-2533.7974 940.99731 3345.7268 5657408
-2497.5869 934.86261 3323.9148 5788993
-2507.5164 946.03809 3363.6494 6446409
-2479.3137 942.89087 3352.4592 4406825
-2437.1152 934.32721 3322.011 4669995
-2391.9539 924.47876 3286.9949 4274981
-2367.7571 922.63818 3280.4504 4340518
-2358.5249 926.64636 3294.7017 4998445
-2345.876 929.36798 3304.3784 3682332
-2328.343 930.18414 3307.2803 2958865
-2311.9399 931.46942 3311.8501 5130549
-2301.5488 935.21954 3325.1838 3552030
-2270.8845 930.7254 3309.2046 2959381
-2281.8435 943.3609 3354.1306 3880226
-2260.1404 942.59662 3351.4131 3748639
-2220.998 934.48145 3322.5593 4472106
-2193.5811 931.19849 3310.887 4275238
-2143.5957 918.18945 3264.6331 5722940
-2144.6167 926.99042 3295.925 6381383
-2132.8516 930.37567 3307.9614 7433814
-2117.2009 932.11322 3314.1392 5920831
-2104.6045 935.24048 3325.2581 6052417
-2084.2021 934.92517 3324.1372 5460538
-2054.0959 930.20953 3307.3706 5658431
-2034.3591 930.14398 3307.1375 4867891
-1993.957 920.53674 3272.979 4472619
-1944.1364 906.35004 3222.5381 5459515
-1932.5763 909.89581 3235.145 4472108
-1893.0261 900.20227 3200.6794 4603950
-1873.9946 900.16858 3200.5598 4735793
-1866.9998 905.97528 3221.2053 5262651
-1799.1499 882.06647 3136.1975 6579024
-1840.897 911.95142 3242.4536 7895144
-1808.6221 905.4104 3219.197 6185040
-1777.5968 899.36243 3197.6934 5724491
-1764.8157 902.51392 3208.8987 4605233
-1794.8145 927.84979 3298.9805 6184011
-1779.3298 929.97144 3306.5239 6118220
-1759.1348 929.65088 3305.3843 6052428
-1725.6051 922.19684 3278.8813 6381647
-1711.692 925.17603 3289.4739 5526079
-1705.2593 932.31342 3314.8511 4736308
-1679.802 929.09473 3303.407 3552035
-1658.7986 928.29254 3300.5549 4933175
-1619.219 916.9519 3260.2329 3222301
-1600.6843 917.39862 3261.8215 2038027
-1581.938 917.73376 3263.0127 4472368
-1562.6755 917.77393 3263.1558 5920583
-1521.1633 904.58392 3216.2585 5328446
-1527.7163 920.00458 3271.0867 6775894
-1489.2649 908.37122 3229.7244 6183755
-1480.4109 914.72284 3252.3074 7236443
-1479.8844 926.4552 3294.0222 5788997
-1443.9813 916.05841 3257.0562 6841686
-1420.7842 913.54968 3248.1362 6381906
-1400.1034 912.61237 3244.8035 5657927
-1387.9945 917.31396 3261.5203 6118992
-1341.3844 899.02484 3196.4932 4276532
-1321.9547 898.68964 3195.3015 3749417
-1309.2513 902.98401 3210.5698 4341809
-1286.1816 900.1499 3200.4932 5591877
-1260.3734 895.28564 3183.1982 7566695
-1245.5812 898.21759 3193.6228 7171935
-1236.0992 905.1283 3218.1941 7171936
-1231.0625 915.56165 3255.29 5198144
-1206.3303 911.44598 3240.6567 6250063
-1196.1685 918.38403 3265.325 5131839
-1179.1165 920.17316 3271.686 2105109
-1170.821 928.96967 3302.9624 4341811
-1142.038 921.53351 3276.5229 1578763
-1118.9609 918.52405 3265.8228 1381386
-1098.189 917.33423 3261.5923 2433562
-1073.5671 912.82819 3245.571 1183494
-1061.0629 918.64905 3266.2671 723202
-1038.9871 916.24536 3257.7209 1446407
-998.17059 896.91107 3188.9778 1577735
-974.24615 892.30212 3172.5906 985602
-950.96246 888.11029 3157.6863 3617575
-937.66693 893.26538 3176.0151 3815468
-913.55865 888.11993 3157.7205 5195578
-890.39758 883.6994 3142.0034 4604723
-880.41742 892.45117 3173.1204 6512974
-865.07874 896.03461 3185.8611 5196856
-846.83734 896.70422 3188.2419 4407342
-831.28107 900.31244 3201.071 3947563
-808.67865 896.27972 3186.7327 6184014
-790.73529 897.34137 3190.5076 5789257
-772.56921 898.19617 3193.5469 3157281
-741.25476 883.42365 3141.0229 4210226
-720.10547 880.31714 3129.9778 5065278
-701.56769 880.32336 3129.9998 7302496
-691.68005 891.47876 3169.6628 3749674
-673.401 892.1394 3172.012 5394242
-650.54065 886.59454 3152.2969 3222818
-629.92792 883.87549 3142.6294 2630935
-615.24878 889.56995 3162.8762 3354144
-597.62323 891.22839 3168.7727 2235922
-580.75873 894.16608 3179.2175 1578250
-558.30804 888.41162 3158.7576 657152
-537.13776 884.36621 3144.374 1380616
-518.59229 884.50696 3144.8745 3749164
-501.49969 887.22852 3154.551 3420199
-486.17407 893.40784 3176.5217 2564889
-464.3707 887.70172 3156.2336 2104339
-439.29678 875.00256 3111.0815 1183754
-415.92221 864.72406 3074.5361 2565147
-395.45468 859.82489 3057.1172 5920334
-375.59436 855.83893 3042.9451 2039063
-355.24423 850.27875 3023.1758 5986640
-341.75015 861.40936 3062.7507 4670523
-324.95276 864.99506 3075.4998 5131327
-308.25278 869.28137 3090.7397 7302238
-289.49243 867.93188 3085.9419 5592390
-267.12949 854.8714 3039.5051 3354656
-252.02165 864.81903 3074.874 4407088
-234.68663 868.07861 3086.4634 4276017
-215.53175 864.58868 3074.0552 5065533
-196.31573 860.18689 3058.4043 4275761
-177.7957 858.24951 3051.5159 4209966
-159.50188 857.08899 3047.3899 3814697
-142.00006 860.43146 3059.2739 4538159
-124.58768 865.37311 3076.844 5459514
-105.49657 858.35004 3051.8733 4275497
-87.569221 859.84875 3057.2021 5460547
-69.865952 864.90308 3075.1729 5986379
-51.424767 861.16589 3061.8853 2235926
-33.400593 864.14459 3072.4758 5064765
-15.163432 862.14783 3065.3765 4933179
3.0161583 867.7887 3085.4326 5131329
21.359571 870.42175 3094.7944 5789773
39.22953 860.2403 3058.5942 6513753
57.531521 862.97308 3068.3105 5789259
76.043213 866.78394 3081.8601 4736825
94.106628 864.99866 3075.5127 4210225
111.90562 861.75629 3063.9844 3025699
129.54602 858.36816 3051.938 4340784
147.74422 859.05334 3054.374 5065021
164.37737 851.48193 3027.4536 4473141
182.02806 850.15259 3022.7271 5196864
200.37569 852.02484 3029.3838 5854282
212.78967 830.43268 2952.6128 5591112
233.36552 841.55371 2992.1538 2630682
252.39919 845.93579 3007.7344 4208944
271.1702 848.91766 3018.3364 5327423
288.54004 847.41559 3012.9956 5656129
305.04645 843.70032 2999.7864 4932921
324.93839 849.24243 3019.4912 5787972
343.99866 852.146 3029.8147 5327678
364.1492 857.32849 3048.2412 3156510
382.07104 857.02197 3047.1514 5590590
399.95181 856.65521 3045.8474 3287327
419.88593 860.5282 3059.6179 4209195
438.64313 861.76862 3064.0281 3353374
455.80457 859.89984 3057.3838 4406575
472.86948 857.99884 3050.6245 4143149
491.22263 858.48914 3052.3679 3551012
514.98969 868.07037 3086.4341 3353635
525.41888 855.28302 3040.9685 5787977
546.58221 860.23743 3058.584 2827036
566.62854 863.17224 3069.0188 4998974
582.60217 859.91345 3057.4321 5327684
598.68799 857.0116 3047.1147 4801596
612.65033 851.32898 3026.9099 6183249
632.69446 854.18042 3037.0481 6249043
640.01404 840.17004 2987.2341 4802111
673.46783 860.29797 3058.7993 3815217
689.97198 858.28674 3051.6482 6644315
708.81958 859.21875 3054.9622 5986384
731.75781 864.93964 3075.3027 5065025
750.56549 865.61877 3077.7175 3617835
765.08325 861.43555 3062.844 3748909
765.34656 841.76831 2992.917 5657161
775.49304 833.61566 2963.9299 6249297
797.46405 838.25342 2980.4194 6183504
807.02985 829.9328 2950.8357 5657416
843.88074 849.42975 3020.157 5591623
863.38849 851.02222 3025.8191 6512467
876.24908 846.13129 3008.4294 4341298
893.39996 845.49554 3006.1692 5657160
920.44409 854.06451 3036.636 4538936
939.48047 855.01703 3040.0227 4209972
956.02368 853.7074 3035.3665 4604729
954.22827 836.37244 2973.7319 3684138
961.39581 827.37964 2941.7578 4341299
977.32324 826.11151 2937.249 4538679
997.1593 828.13391 2944.4395 6380881
1031.3892 841.83514 2993.1545 2894366
1032.6826 828.64441 2946.2546 2696733
1060.7452 837.01532 2976.0176 1512720
1089.7775 845.86499 3007.4827 591361
1101.4528 841.17468 2990.8062 1512208
1112.5839 836.22369 2973.2029 1117450
1116.0533 825.75836 2935.9932 920328
1132.4491 825.03143 2933.4087 526084
1147.4153 823.30084 2927.2554 591621
1151.1866 813.70868 2893.1506 1775631
1159.9977 807.90802 2872.5261 3815214
1179.725 809.76807 2879.1394 3617578
1210.4375 819.00787 2911.9919 4078129
1223.52 816.22687 2902.104 4077873
1228.5886 808.25073 2873.7446 2696219
1244.3577 807.43604 2870.8479 3024671
1262.9261 808.43518 2874.4004 4143152
1275.8464 805.84027 2865.1743 2893083
1295.6755 807.61993 2871.502 5327424
1308.9143 805.29889 2863.2493 5459010
1350.001 819.95117 2915.3457 2958877
1350.6802 810.00104 2879.9678 3945771
1365.8448 808.87756 2875.9734 4800823
1387.8197 811.76532 2886.241 3288353
1418.3501 819.52618 2913.8347 3814439
1449.8674 827.66382 2942.7681 2367251
1464.1676 825.8963 2936.4836 3025695
1482.4033 826.36414 2938.1472 5065792
1493.1198 822.67822 2925.0417 4341301
1512.8358 823.97858 2929.6653 3814956
1531.9005 824.89862 2932.9365 6446676
1553.5923 827.19684 2941.1079 2301462
1554.2893 818.38953 2909.7935 3682601
1545.625 804.90057 2861.8333 3682344
1559.6809 803.40753 2856.5249 854018
1567.5671 798.80286 2840.1526 3155741
1582.5823 797.88995 2836.907 2629397
1586.9899 791.70453 2814.9146 2958617
1624.4923 801.98608 2851.4707 3419169
1649.1278 805.76929 2864.9219 1183240
1668.0818 806.7276 2868.3293 3287585
1668.8573 798.96362 2840.7244 1709583
1697.6515 804.6347 2860.8879 2103052
1709.2955 802.14545 2852.0374 1708036
1728.3008 803.12561 2855.5222 2826002
1732.8939 797.45435 2835.3582 2496522
1755.5785 800.13763 2844.8984 3023123
1775.3502 801.4549 2849.582 2957074
1788.8296 799.93347 2844.1726 2233095
1792.3928 794.04749 2823.2449 3022866
1815.0013 796.62958 2832.4255 3812637
1824.4332 793.43402 2821.0637 3812895
1837.9658 792.0636 2816.1912 3681310
1875.2283 800.85211 2847.4387 3024151
1904.2914 806.01349 2865.79 2497553
1918.6514 804.91534 2861.8857 2103309
1954.785 812.89093 2890.2432 2695447
1936.7462 798.39624 2838.7068 854017
1936.1901 791.29602 2813.4619 3748134
1940.0381 786.10144 2794.9927 2366224
1957.8453 786.60333 2796.7771 2827029
1991.7362 793.50439 2821.314 3681570
2012.194 794.98352 2826.573 3221275
2022.4518 792.44165 2817.5352 3681826
2036.0162 791.22632 2813.2141 2826260
2069.3127 797.6366 2836.0061 3089946
2050.3674 783.96881 2787.4099 3155482
2096.0317 795.02582 2826.7234 3747619
2122.7463 798.77686 2840.0603 4471341
2134.6177 796.92737 2833.4844 3813412
2163.1753 801.28778 2848.988 3681826
2134.3687 784.49622 2789.2854 4208170
2123.7876 774.61005 2754.1348 2892567
2138.1467 773.90173 2751.6165 3550497
2204.8403 792.00323 2815.9766 3748134
2223.1099 792.56897 2817.9883 2366482
2227.5452 788.23108 2802.5645 2037261
2265.1191 795.59692 2828.7539 2498325
2258.9224 787.59338 2800.2974 1314051
2308.7026 799.0813 2841.1426 1314308
2285.1343 785.19934 2791.7852 393216
2311.4751 788.54309 2803.6741 984833
2304.155 780.43793 2774.856 1840138
2321.6223 780.78375 2776.0857 2366737
2318.958 774.40192 2753.395 1051397
2361.6423 783.14746 2784.4897 2563603
2355.1501 775.57727 2757.5737 2827030
2392.2158 782.35645 2781.6775 460033
2434.0667 790.59735 2810.9778 4142633
2424.7693 782.22583 2781.2129 4142633
2423.991 776.69708 2761.5552 5195322
2490.5513 792.67432 2818.3628 4997686
2493.1289 788.21063 2802.4917 4669491
2494.2917 783.36157 2785.251 2695448
2479.6775 773.65387 2750.7351 3353376
2487.2769 770.95825 2741.1509 3221790
2508.0161 772.34406 2746.0781 4537393
2527.2891 773.26331 2749.3467 4471858
2538.6931 771.77869 2744.0679 5063997
2548.8127 769.92487 2737.4768 3551271
2572.0479 772.03125 2744.9661 3287844
2564.3064 764.87164 2719.51 3157030
2589.8242 767.66003 2729.4241 3485740
2583.9597 761.16931 2706.3462 3748911
0 0 0 0
0 0 0 0
0 0 0 0
0 0 0 0
0 0 0 0
0 0 0 0
0 0 0 0
-2918.2554 937.86493 3265.7998 5263167
-2856 923.98315 3217.4612 6907733
-2858.4233 930.98047 3241.8271 5657923
-2851.1306 934.88666 3255.429 5592128
-2834.1997 935.66412 3258.1362 6775886
-2769.5481 920.59015 3205.646 6118212
-2754.4663 921.89838 3210.2017 5591867
-2723.2097 917.7738 3195.8391 6841422
-2692.3794 913.73608 3181.7791 3683103
-2693.8696 920.6875 3205.9854 5262649
-2707.0254 931.75311 3244.5176 6512459
-2692.625 933.42432 3250.3369 5722686
-2657.406 927.85059 3230.9282 6117444
-2664.6191 937.11902 3263.2024 5722687
-2664.1069 943.78619 3286.4185 5657150
-2652.7239 946.67194 3296.4673 4999479
-2618.6145 941.43011 3278.2141 3091484
-2586.8174 936.94739 3262.6047 4473393
-2552.491 931.47412 3243.5461 5854791
-2552.8564 938.67401 3268.6172 3420965
-2533.4797 938.66919 3268.6006 5855304
-2462.9338 919.56 3202.0591 4999482
-2518.8535 947.73773 3300.1785 6052167
-2507.5784 950.87598 3311.1064 3814433
-2472.6633 945.02875 3290.7454 3748640
-2425.303 934.29419 3253.366 2169866
-2440.7607 947.78094 3300.3291 4340261
-2410.2671 943.4978 3285.4146 3616537
-2393.5063 944.56439 3289.1284 3287573
-2356.7097 937.6767 3265.1445 4077091
-2331.0271 935.13373 3256.2893 4472619
-2327.9744 941.70233 3279.1621 4603692
-2267.1147 924.80096 3220.3088 5196855
-2264.3657 931.51837 3243.7 4209448
-2266.7 940.45972 3274.8352 3485723
-2276.7937 952.80286 3317.8159 2762001
-2288.948 966.23059 3364.5735 3485725
-2227.2812 948.45874 3302.689 3748896
-2220.8792 954.11383 3322.3813 3288345
-2163.3052 937.6897 3265.1897 3551514
-2127.3916 930.44275 3239.9546 3419927
-2103.4619 928.35272 3232.6768 4736043
-2079.1458 926.05219 3224.666 6512454
-2095.8616 942.15424 3280.7358 6709832
-2090.0847 948.35168 3302.3167 6183747
-2031.9913 930.70416 3240.865 5657404
-2034.9727 940.96057 3276.5793 4802354
-2015.718 941.03363 3276.8337 2499347
-1962.6595 925.17346 3221.606 6249548
-1929.6818 918.56055 3198.5786 6973528
-1891.7593 909.43927 3166.8169 5394492
-1880.7036 913.18048 3179.8447 5723456
-1854.6605 909.64679 3167.5396 5262905
-1841.2412 912.29559 3176.7632 6973782
-1837.4576 919.82275 3202.9739 7368541
-1816.804 918.97357 3200.0171 7500642
-1779.4193 909.55469 3167.2188 6711383
-1760.2429 909.34131 3166.4758 6250833
-1734.8947 905.90057 3154.4946 5066046
-1739.7455 918.3255 3197.7603 5131581
-1727.3483 921.81934 3209.9265 5460032
-1699.6952 917.15887 3193.698 5986118
-1696.8495 925.93048 3224.2419 5657667
-1667.0536 920.02808 3203.689 4999737
-1657.9579 925.54559 3222.9019 3815206
-1644.0266 928.46082 3233.0532 3880485
-1607.9052 918.7652 3199.2913 4209452
-1591.869 920.45197 3205.165 2893336
-1572.0413 919.96051 3203.4536 3485215
-1567.1497 928.30469 3232.5095 4801845
-1529.201 917.03162 3193.2546 7104343
-1514.156 919.383 3201.4426 5788739
-1503.6805 924.60382 3219.6223 5064247
-1484.7159 924.67181 3219.8591 5064503
-1479.4103 933.35889 3250.1091 4999481
-1430.7417 914.55688 3184.6372 3946539
-1412.3896 914.89001 3185.7974 6183758
-1386.9319 910.5672 3170.7446 5789513
-1371.1591 912.57141 3177.7236 5262911
-1357.8073 916.2652 3190.5859 6578260
-1333.2855 912.41925 3177.1936 2433559
-1329.1331 922.60217 3212.6523 1840911
-1301.8993 916.82666 3192.5413 2104340
-1278.8964 913.90417 3182.3645 1380360
-1256.6934 911.47449 3173.9041 2893854
-1226.4055 903.01807 3144.4573 4473653
-1210.2971 904.90216 3151.0181 6052426
-1201.7457 912.58411 3177.7678 4671030
-1197.9963 924.21509 3218.2688 5526085
-1204.4999 944.25995 3288.0684 4407862
-1174.0482 935.51678 3257.6233 2104853
-1145.0531 927.66144 3230.2695 986631
-1139.705 939.02216 3269.8296 1776402
-1112.4435 932.40887 3246.801 2236955
-1090.6534 930.22943 3239.2117 3025701
-1056.8052 917.50323 3194.897 394241
-1035.0271 914.98303 3186.1213 131072
-1013.6911 912.7674 3178.406 986120
-986.18817 904.80969 3150.696 591364
-956.5672 894.56427 3115.0198 1446409
-934.67645 891.28717 3103.6084 6183502
-930.77136 905.37341 3152.6589 6249293
-911.57996 904.86279 3150.8811 5919816
-890.13214 902.04425 3141.0664 4801332
-866.76965 897.12372 3123.9324 6051655
-847.56165 896.38226 3121.3503 4999221
-836.98627 904.94122 3151.1538 4867122
-818.0965 904.69611 3150.3005 3222557
-796.76453 901.67578 3139.7832 4538420
-775.52039 898.61285 3129.1177 1973007
-754.20825 895.31921 3117.6487 2828063
-738.09479 898.18658 3127.6331 5131073
-718.51587 896.87567 3123.0684 3157283
-693.65778 888.73175 3094.7102 9671563
-677.65454 891.79889 3105.3901 3486762
-667.89911 903.48859 3146.0957 3091744
-641.23291 892.31708 3107.1946 3025952
-619.7627 887.92944 3091.9163 3486503
-599.2536 884.6936 3080.6484 3420456
-586.18457 892.58325 3108.1216 3881007
-571.42279 898.32355 3128.1104 1512461
-549.6333 893.03033 3109.6785 393984
-527.56714 886.90479 3088.3481 1972501
-512.46417 892.4657 3107.7122 854792
-488.21997 881.9281 3071.0186 1249293
-469.91998 881.72815 3070.3223 131072
-446.29718 871.12256 3033.3918 131072
-422.7403 859.76105 2993.8291 262657
-401.91653 853.20642 2971.0049 1051913
-387.77133 860.8783 2997.7197 2170649
-373.08405 868.02539 3022.6072 2039064
-354.35522 866.01599 3015.6099 5065539
-338.40256 870.93817 3032.7498 3223330
-323.35715 878.87811 3060.3982 6316114
-304.60651 877.09253 3054.1802 5197120
-287.83777 881.14838 3068.3035 3947052
-269.80075 881.60687 3069.8999 4276016
-249.62418 874.63501 3045.6228 4012585
-232.15712 876.81012 3053.1968 5788996
-214.51294 878.62726 3059.5244 4144173
-193.28424 864.74286 3011.1765 4275759
-172.11943 848.34991 2954.094 5196860
-158.65465 870.49396 3031.2031 3749413
-139.42999 862.65424 3003.9038 5196599
-122.34838 867.71948 3021.5417 4341035
-103.89079 863.08972 3005.4202 4538161
-86.55999 867.84186 3021.9678 3551781
-68.756706 869.09998 3026.3489 6051916
-51.166222 874.88446 3046.4915 4407092
-32.884518 868.71344 3025.0029 2695960
-15.097273 876.46704 3052.0022 4537908
2.9879405 877.77777 3056.5667 4012331
20.829136 866.68488 3017.9392 4670263
38.491745 861.84088 3001.0715 6841686
57.156738 875.41034 3048.3225 4933691
74.33934 865.21075 3012.8059 4604726
92.833313 871.26825 3033.8994 3749417
109.26365 859.13446 2991.6472 4604727
126.01675 852.57123 2968.793 4209200
146.13373 867.58673 3021.0796 2827545
162.16452 857.71307 2986.698 3748904
178.34572 850.49939 2961.5789 3880234
195.99789 850.96448 2963.198 3287840
212.48128 846.6958 2948.3337 5524802
230.71774 849.53046 2958.2046 3814185
249.26241 853.01959 2970.3545 4143151
264.3905 845.1275 2942.873 4208685
284.28009 852.4906 2968.5125 2629909
300.93353 849.85663 2959.3406 6314318
320.72107 855.87628 2980.3018 5392961
338.49841 856.18323 2981.3708 5261632
354.97394 853.33026 2971.4363 4142893
371.82907 851.61639 2965.4683 7169885
387.31012 847.052 2949.5742 5130046
406.15375 849.91821 2959.5547 5788233
432.26428 867.12457 3019.4702 6577748
448.2713 863.50122 3006.8533 4340530
460.59335 853.32788 2971.4277 4143406
476.08447 849.55847 2958.3022 5656390
495.60773 852.99658 2970.2742 5524805
519.52643 863.50464 3006.865 5064257
541.18341 869.68134 3028.3733 2037778
560.21985 871.38556 3034.3076 4866876
578.09668 871.23615 3033.7876 4209203
588.90454 860.76349 2997.3201 4802110
602.95569 855.50586 2979.012 2630942
628.91791 866.96655 3018.9199 3551783
645.72839 865.52661 3013.9058 4407088
662.27112 863.81488 3007.9453 4274734
680.88269 864.82056 3011.4473 5591109
691.59344 855.99597 2980.7188 4735799
705.60712 851.59717 2965.4011 5986122
715.3847 842.42371 2933.4575 5196606
730.95795 840.34827 2926.2307 5394242
755.63721 848.59534 2954.9482 2893594
752.83514 826.3056 2877.3318 4801590
