# .PCD v0.7 - Point Cloud Data file format
VERSION 0.7
FIELDS x y z rgb
SIZE 4 4 4 4
TYPE F F F U
COUNT 1 1 1 1
WIDTH 1284
HEIGHT 1
VIEWPOINT 0 0 0 1 0 0 0
POINTS 1284
DATA ascii
2223.4529 1166.7893 2387.2395 13750735
2240.9807 1168.5521 2390.8462 13750735
2257.8513 1169.9521 2393.7107 13750735
2274.615 1171.2798 2396.427 13750735
2323.03 1188.7881 2432.2488 13750735
0 0 0 0
0 0 0 0
0 0 0 0
0 0 0 0
0 0 0 0
0 0 0 0
0 0 0 0
0 0 0 0
0 0 0 0
0 0 0 0
0 0 0 0
0 0 0 0
-1660.6082 950.51166 1921.4401 7434868
-1640.5697 945.52539 1911.3604 7762807
-1628.011 944.81061 1909.9156 7434098
-1615.7404 944.25421 1908.7908 6907754
-1592.0094 936.94525 1894.0159 6512996
-1585.5476 939.76807 1899.7222 6973547
-1579.2179 942.71008 1905.6693 6249824
-1561.9602 939.12402 1898.4203 6578789
-1547.1578 936.97302 1894.072 6973547
-1534.2687 935.95758 1892.0194 7170926
-1523.5785 936.27856 1892.6682 7039340
-1511.5471 935.77399 1891.6482 7236718
-1505.6833 939.1087 1898.3893 6447206
-1492.7378 938.04333 1896.2357 6644584
-1483.8264 939.51611 1899.2129 6447204
-1476.1425 941.79456 1903.8187 6907755
-1467.0328 943.19165 1906.6428 6907754
-1455.9746 943.34766 1906.9583 7170926
-1445.7881 944.0755 1908.4294 6447203
-1430.2064 941.26398 1902.7461 6578789
-1414.5747 938.37463 1896.9054 6841961
-1405.8861 940.08167 1900.3561 6644582
-1391.6925 938.10547 1896.3612 7169899
-1382.6785 939.61694 1899.4166 6841191
-1371.5901 939.73206 1899.6494 7038570
-1359.8652 939.40936 1898.9969 6906984
-1344.7354 936.70941 1893.5392 7038570
-1336.5125 938.8158 1897.7971 7038570
-1323.3425 937.45343 1895.0431 6380383
-1309.1534 935.3396 1890.77 6840934
-1298.7064 935.88586 1891.8743 5722453
-1294.7581 941.16553 1902.5471 6051418
-1284.156 941.659 1903.5446 6840934
-1276.354 944.23254 1908.7471 6840932
-1265.4586 944.54327 1909.3751 6709346
-1253.9517 944.39886 1909.0833 6709346
-1241.6876 943.6767 1907.6233 6380381
-1229.3638 942.89514 1906.0436 6511967
-1212.8956 938.89117 1897.9496 6709346
-1203.1462 940.06177 1900.3159 6840932
-1189.0089 937.79382 1895.7312 7169897
-1181.0321 940.3877 1900.9747 6775139
-1173.5216 943.40637 1907.077 7235433
-1159.9039 941.52655 1903.2769 6973031
-1152.8767 945.0119 1910.3225 7433582
-1134.2418 938.95728 1898.0831 7038824
-1131.8904 946.39618 1913.1207 7104616
-1120.0518 945.97308 1912.2654 6643812
-1104.0797 942.01459 1904.2633 7104363
-1098.7366 947.13654 1914.6174 7170156
-1087.4827 947.2171 1914.7803 7038570
-1076.8979 947.88843 1916.1373 7038825
-1066.785 948.99377 1918.3718 6841189
-1061.2295 954.22083 1928.938 7104617
-1039.9446 945.26428 1910.8326 7104617
-1036.5632 952.56329 1925.5874 7170410
-1027.9241 955.13928 1930.7948 7433582
-1014.6334 953.4024 1927.2838 6446687
-1000.9922 951.29297 1923.0195 6511967
-996.52728 957.95599 1936.4886 5722451
-978.67596 951.75604 1923.9556 6051416
-971.94287 956.34979 1933.2417 5459279
-959.34753 955.21619 1930.9502 6775139
-947.43304 954.74127 1929.9902 7498605
-931.45203 950.10669 1920.6216 7367276
-922.3147 952.4248 1925.3074 6248795
-911.09271 952.62109 1925.7042 5393486
-903.94531 957.13678 1934.8326 5525072
-893.86157 958.61951 1937.83 6051416
-884.30396 960.71234 1942.0605 6051416
-875.34967 963.52441 1947.7451 6249052
-862.17725 961.7066 1944.0704 6907238
-854.07141 965.56757 1951.8752 7828340
-841.72314 964.67242 1950.0658 7697011
-830.33331 964.86615 1950.4574 7565681
-817.89337 963.82782 1948.3584 7697268
-807.2558 964.91412 1950.5543 7499889
-794.66498 963.66339 1948.0261 7499889
-784.3407 965.16486 1951.0612 7631218
-772.79138 965.18115 1951.0941 6380894
-757.86487 960.91595 1942.4722 7235946
-746.05231 960.52832 1941.6886 7630448
-735.42401 961.67719 1944.011 6972775
-723.42688 961.04419 1942.7313 5064521
-714.7121 964.82166 1950.3676 6775139
-702.42334 963.8194 1948.3414 7104104
-684.22827 954.54388 1929.5911 7301739
-676.70343 960.0918 1940.8062 7696241
-665.836 961.00708 1942.6564 7433069
-650.22321 954.98511 1930.4832 6840932
-639.27222 955.71692 1931.9624 6577760
-626.62421 953.89197 1928.2734 6775139
-615.51752 954.38922 1929.2786 6379611
-607.6637 960.04443 1940.7103 5853267
-597.13788 961.61493 1943.8851 6445404
-584.9325 960.48926 1941.6096 6642783
-572.15167 958.35461 1937.2946 7695471
-557.63147 953.15942 1926.7925 6576990
-549.97858 959.73059 1940.076 5787474
-537.86328 958.62927 1937.8496 5589839
-522.63837 951.81671 1924.0781 5326923
-516.38403 961.40143 1943.4535 6905955
-504.52466 960.75 1942.1367 6709346
-485.74503 946.58258 1913.4976 7235690
-481.061 959.86285 1940.3434 6905955
-464.95142 950.43787 1921.2909 6905955
-457.19452 958.04254 1936.6637 6774369
-445.74466 958.10107 1936.782 7695471
-433.58298 956.5921 1933.7317 6379611
-424.77655 962.60492 1945.8864 6971492
-412.89377 961.78717 1944.2333 6905955
-399.54678 957.41394 1935.3928 7169127
-387.71744 956.52631 1933.5985 8156022
-378.18045 961.41217 1943.4753 6775139
-367.07516 962.49298 1945.66 7235947
-355.3533 961.97467 1944.6123 7564655
-345.44604 966.49854 1953.7572 7038054
-333.07986 964.21783 1949.147 7234920
-320.23361 960.33386 1941.2955 6774369
-308.66571 960.13672 1940.897 6642526
-297.09814 959.92535 1940.4697 6971748
-287.1709 965.21039 1951.1533 6642783
-276.19858 967.27893 1955.3347 7432299
-263.82715 964.41406 1949.5435 7169127
-251.56174 961.6922 1944.0413 6774369
-239.5276 959.63562 1939.884 6708319
-227.54211 957.57635 1935.7212 7103335
-217.33202 963.16663 1947.0217 7169128
-205.79561 963.17621 1947.0413 7958387
-194.39598 963.86517 1948.4338 6511197
-182.78259 963.5144 1947.7249 7234920
-171.09865 962.71924 1946.1176 7498092
-159.68872 963.46246 1947.6199 7498092
-148.32512 964.62268 1949.9652 6642783
-137.0094 966.31665 1953.3896 6510684
-126.18523 972.11035 1965.1014 6379098
-113.86641 966.39667 1953.5514 7497579
-102.02896 963.93756 1948.5803 5457996
-90.124222 960.13397 1940.8914 7826544
-79.461731 970.38757 1961.6189 7629165
-67.84639 970.52539 1961.8975 7497579
-56.437752 974.28851 1969.5045 5786961
-44.551357 969.61597 1960.0591 6115926
-33.035053 972.54297 1965.976 6115926
-21.464008 976.1698 1973.3076 6576220
-9.7103367 970.23175 1961.304 6444891
1.9115752 969.62653 1960.0804 6049876
13.544929 970.88086 1962.6161 5852498
25.303122 975.79047 1972.5408 6050133
36.741631 969.16467 1959.1469 5918291
48.647221 975.08301 1971.1106 6379354
60.229412 973.48236 1967.875 7431786
71.718132 971.1355 1963.1307 6642270
83.902443 977.54785 1976.0933 6510943
95.421127 975.58423 1972.1238 5589584
107.18612 976.29254 1973.5557 6510943
119.68137 982.85858 1986.8287 6182234
131.10307 980.2218 1981.4985 5919061
142.59578 978.50568 1978.0295 5590609
154.99611 982.80554 1986.7214 7235690
166.22598 979.60046 1980.2424 7564655
179.90323 990.28979 2001.8507 7301483
192.32971 993.19757 2007.7289 6972518
203.13385 987.87689 1996.9731 7038311
215.29347 989.37091 1999.9934 6775139
227.58334 991.27649 2003.8453 6643553
238.61833 987.79816 1996.8141 7104104
250.26033 987.04279 1995.287 6906725
262.70605 989.38239 2000.0165 5393486
274.04703 987.53888 1996.2899 7499118
285.01614 984.56366 1990.2755 7367019
297.26093 986.05621 1993.2927 8353658
305.93692 976.04919 1973.0636 8024950
319.88397 982.97638 1987.0668 7893364
333.84506 989.45306 2000.1594 7235690
346.40244 991.46814 2004.2328 6510940
358.33978 991.63361 2004.5674 6379611
369.6235 990.0379 2001.3416 7563885
381.79834 990.85394 2002.9913 6313561
397.5065 1000.5142 2022.5192 6708576
405.47882 990.70782 2002.6958 6116439
417.05157 990.00598 2001.277 6576990
428.48071 989.01147 1999.2667 6840162
444.04745 997.36383 2016.1509 7958387
453.98849 992.974 2007.2767 8155509
462.96976 986.76245 1994.7203 6378841
475.18683 987.58539 1996.3838 5786704
488.83463 991.26947 2003.8312 6642013
501.7742 993.37677 2008.0911 6773342
515.76691 997.4231 2016.2705 5983056
525.96277 994.10974 2009.5729 5917520
542.28137 1002.2595 2026.0474 6114899
548.79437 992.32568 2005.9663 6180692
563.49304 997.3006 2016.0229 4734016
572.08795 991.4903 2004.2776 6905185
583.19891 990.18835 2001.6459 6181719
596.55341 992.67157 2006.6655 7760494
611.1322 997.05518 2015.5269 7102821
620.06055 992.22876 2005.7704 7168614
631.98224 992.28394 2005.8818 7234151
643.73401 992.07501 2005.4597 6773600
656.80261 993.86639 2009.0808 6181462
670.90063 997.1239 2015.6658 6838879
682.5061 996.62769 2014.6627 6576219
692.50336 993.84058 2009.0287 6313048
706.28839 996.49176 2014.3878 8023666
716.84686 994.57825 2010.5198 6444634
728.2301 993.85272 2009.0532 7760492
742.51227 997.04346 2015.5031 7826285
761.14703 1005.8851 2033.3763 8286836
768.57147 999.86719 2021.2113 8220786
785.52716 1006.2433 2034.1006 7694699
794.97327 1002.9525 2027.4482 7826285
803.56628 998.69952 2018.8508 7891822
811.53516 993.80688 2008.9604 7563113
829.74207 1001.412 2024.334 8418424
839.88092 999.20166 2019.8661 8483960
859.03625 1007.6299 2036.9033 8221302
864.24384 999.69061 2020.8544 8484474
884.38678 1009.0084 2039.6901 7826544
893.86029 1006.0661 2033.7423 8287095
898.41571 997.74023 2016.9117 6444634
916.95947 1004.9639 2031.5143 7892080
920.97144 996.28033 2013.9606 8484217
943.41193 1007.4993 2036.6395 7628908
953.66833 1005.5875 2032.7748 6247512
958.99945 998.5946 2018.6389 6708063
970.75885 998.38538 2018.2158 7958130
986.76776 1002.4984 2026.5303 8813439
1003.8604 1007.6003 2036.8436 8550780
1017.9755 1009.6279 2040.9424 8813952
1031.1996 1010.7346 2043.1794 8550780
1034.6013 1002.2999 2026.1289 9603212
1049.7859 1005.3427 2032.2798 8616317
1043.5515 988.03687 1997.2965 9800847
1061.9105 994.14313 2009.6403 9274498
1089.1016 1008.2909 2038.2396 8420215
1169.0204 1070.408 2163.8081 13354691
1153.0994 1044.374 2111.1809 13750735
1167.2502 1045.8431 2114.1506 13619662
1183.328 1048.9891 2120.5103 13750735
1199.3157 1051.9897 2126.5762 13750735
1215.1437 1054.7898 2132.2361 13750736
1228.8663 1055.7231 2134.123 13750737
1244.6047 1058.3517 2139.4365 13750737
1259.3976 1060.1313 2143.0342 13750737
1273.8264 1061.572 2145.9463 13750737
1288.458 1063.1515 2149.1394 13750737
1303.1837 1064.7771 2152.4253 13750737
1318.0812 1066.51 2155.9285 13750737
1332.8563 1068.1116 2159.166 13750737
1347.6238 1069.6766 2162.3298 13750737
1361.9215 1070.843 2164.6875 13750737
1376.5714 1072.2618 2167.5557 13750737
1391.2607 1073.6849 2170.4324 13750737
1406.3701 1075.4031 2173.9055 13750737
1421.0409 1076.7577 2176.6438 13750737
1436.2072 1078.46 2180.085 13750737
1451.3096 1080.0845 2183.3689 13750737
1466.6865 1081.8827 2187.0039 13750737
1483.4138 1084.6367 2192.5713 13750737
1498.6995 1086.298 2195.9294 13750737
1513.9601 1087.9127 2199.1936 13750735
1529.4558 1089.6675 2202.7407 13750735
1545.0597 1091.4688 2206.3821 13750735
1579.0343 1106.1085 2235.9761 13750735
1594.2975 1107.5065 2238.802 13750735
1614.3469 1112.1787 2248.2468 13750735
1629.7931 1113.629 2251.1785 13750735
1645.4353 1115.1886 2254.3313 13750735
1661.09 1116.7317 2257.4504 13750735
1676.8096 1118.2932 2260.6072 13750735
1692.486 1119.8013 2263.6558 13750735
1708.0217 1121.1936 2266.4702 13750735
1722.7622 1122.046 2268.1934 13750735
1739.7245 1124.3213 2272.7927 13750735
1755.8781 1126.0427 2276.2727 13750735
1772.0215 1127.7317 2279.6868 13750735
1788.1813 1129.4053 2283.0701 13750735
1804.3591 1131.0651 2286.4253 13750735
1815.8359 1129.7754 2283.8181 13750735
1827.0081 1128.3164 2280.8689 13750735
1835.6049 1125.3003 2274.7717 13750735
1852.6104 1127.4453 2279.1079 13750735
1869.4905 1129.4835 2283.228 13750735
1893.8612 1135.9856 2296.3718 13750735
1910.6268 1137.8656 2300.1724 13750735
1927.6476 1139.8699 2304.2239 13750735
1944.7217 1141.8772 2308.2817 13750735
1962.4955 1144.2645 2313.1077 13750735
1980.1409 1146.5444 2317.7163 13750735
1997.3296 1148.5303 2321.7307 13750735
2014.4991 1150.478 2325.668 13750735
2031.855 1152.505 2329.7654 13750735
2049.2332 1154.517 2333.8328 13750735
2066.9353 1156.6836 2338.2124 13750735
2084.2588 1158.6106 2342.1079 13750735
2101.6355 1160.5415 2346.0112 13750735
2118.3093 1162.0618 2349.0842 13750735
2134.9949 1163.5684 2352.1299 13750735
2150.7229 1164.5367 2354.0874 13750735
2166.5771 1165.5609 2356.1577 13750735
2181.676 1166.1678 2357.3848 13750735
2197.4871 1167.1455 2359.3611 13750735
2213.823 1168.3877 2361.8723 13750735
2229.9849 1169.5233 2364.1677 13750735
2246.082 1170.6107 2366.366 13750735
2298.9653 1190.738 2407.0527 13750735
0 0 0 0
0 0 0 0
0 0 0 0
0 0 0 0
0 0 0 0
0 0 0 0
0 0 0 0
0 0 0 0
0 0 0 0
0 0 0 0
0 0 0 0
0 0 0 0
-1646.3629 953.64709 1904.9574 7499891
-1633.9866 953.01294 1903.6907 7236720
-1617.1128 949.7287 1897.1304 6579046
-1585.4745 937.66656 1873.0355 7039597
-1577.2324 939.36859 1876.4355 7039340
-1562.1511 936.99286 1871.6897 6184029
-1548.4297 935.40436 1868.5167 6578787
-1540.0656 937.05267 1871.8093 6973548
-1531.876 938.83191 1875.3634 6973547
-1512.9956 934.03729 1865.786 6644581
-1506.1906 936.68164 1871.068 6117723
-1486.3002 931.16711 1860.0526 6314846
-1478.0273 932.90302 1863.5201 6775141
-1468.038 933.57343 1864.8593 6709605
-1457.8903 934.15259 1866.0162 6578019
-1445.4216 933.24207 1864.1974 6775655
-1436.3358 934.51843 1866.7471 6775911
-1428.6019 936.70117 1871.1071 6579046
-1417.3982 936.62506 1870.9551 6512739
-1420.1001 945.8092 1889.3008 6183775
-1408.4709 945.51862 1888.7205 6512740
-1392.7087 942.42664 1882.5441 6644325
-1380.7272 941.86383 1881.4197 7170156
-1368.9432 941.42761 1880.5483 7301742
-1353.8314 938.67682 1875.0536 7235949
-1348.6321 942.81024 1883.3103 7104106
-1337.4712 942.81024 1883.3103 6380640
-1318.7114 937.40857 1872.5203 5656660
-1302.0557 933.42358 1864.5601 5459281
-1296.3651 937.2984 1872.3002 5788246
-1278.8693 932.63098 1862.9767 6512226
-1284.3197 944.76184 1887.2087 5985882
-1273.8821 945.31586 1888.3153 6774885
-1252.6401 937.79077 1873.2837 6840675
-1241.3676 937.66156 1873.0255 6248539
-1233.3604 940.01862 1877.734 6380382
-1220.2252 938.47491 1874.6503 5919830
-1208.4683 937.97241 1873.6466 6775139
-1199.6525 939.76453 1877.2264 7038311
-1192.8721 943.19983 1884.0885 6709346
-1176.1074 938.73071 1875.1613 6840932
-1163.6992 937.68677 1873.0758 6906725
-1155.2084 939.80957 1877.3163 6511967
-1147.9221 942.9632 1883.616 6248795
-1138.7631 944.62531 1886.936 6380637
-1117.8469 936.47095 1870.6473 6907238
-1117.1879 945.2934 1888.2706 7104617
-1109.2981 948.11432 1893.9054 6775652
-1097.255 947.40686 1892.4923 6775652
-1088.8951 949.89783 1897.468 6775652
-1079.5221 951.54761 1900.7637 7104617
-1061.8918 945.87726 1889.4368 7236203
-1059.9143 954.17719 1906.0164 6775652
-1046.1808 951.95874 1901.5848 6973031
-1038.3801 955.14917 1907.958 6907238
-1022.446 950.84601 1899.3622 5919317
-1013.8192 953.31842 1904.3009 4867142
-1004.4026 955.09546 1907.8506 5261901
-990.12061 952.23346 1902.1338 5722451
-982.80786 956.08551 1909.8284 5261900
-968.23743 952.88483 1903.4347 5985623
-956.15833 952.08923 1901.8455 6643553
-944.4043 951.60236 1900.8729 6972518
-937.19757 955.74078 1909.1398 7564655
-923.16937 952.93909 1903.5432 6380381
-907.25739 948.09937 1893.8757 4998729
-905.72455 958.35321 1914.3582 5393486
-895.3988 959.44519 1916.5394 5722194
-883.32959 958.67316 1914.9972 5524559
-875.09949 962.10175 1921.8459 6511967
-862.22375 960.44598 1918.5386 6972518
-853.37842 963.29547 1924.2306 7499375
-840.42731 961.52478 1920.6935 6972774
-826.75946 958.87408 1915.3987 6512994
-814.37067 957.65381 1912.9611 7499889
-801.70349 956.06702 1909.7914 7236717
-792.66669 958.82629 1915.3031 6775652
-782.64203 960.45331 1918.5532 6051929
-768.35852 956.82483 1911.3052 5986137
-757.08783 956.89575 1911.4468 5788246
-747.09955 958.61432 1914.8798 6051672
-731.5293 953.11304 1903.8907 5591378
-724.81116 959.15375 1915.9572 6446687
-715.14789 961.42719 1920.4985 7564655
-707.75201 966.8717 1931.3743 6709346
-691.00696 959.51318 1916.6753 7235946
-682.6615 963.76709 1925.1726 7038054
-666.40009 956.80011 1911.2557 6511710
-656.7052 959.18329 1916.0162 7300970
-647.08447 961.76044 1921.1643 6643039
-634.52185 959.97925 1917.6062 5787474
-623.54724 960.57935 1918.8049 6510941
-615.9682 966.52972 1930.6912 6905698
-597.49146 955.28198 1908.2231 5984853
-592.86554 966.17242 1929.9773 5721681
-575.95178 957.0722 1911.7993 6511453
-564.70154 957.20697 1912.0685 5787731
-558.42499 965.95062 1929.5344 5063750
-544.20496 961.03217 1919.7095 5656401
-532.32611 960.12616 1917.8998 7169641
-520.47693 959.2356 1916.1207 6775139
-506.04111 953.4317 1904.5271 7235690
-497.96899 959.62622 1916.9011 7235690
-484.78488 956.02893 1909.7153 7630448
-473.13644 955.36047 1908.38 7169127
-461.87216 955.45392 1908.5667 6774882
-451.4017 957.23547 1912.1254 7235691
-439.90189 956.86975 1911.3948 7432299
-430.81168 961.8645 1921.3721 7234920
-419.26251 961.49127 1920.6266 6116439
-406.34869 957.88049 1913.4139 6247512
-394.70816 957.15002 1911.9547 7168614
-383.46075 957.35779 1912.3699 6708576
-372.96835 959.52069 1916.6903 6643553
-362.45578 961.76599 1921.1753 7498862
-352.42566 965.47845 1928.5912 7433069
-340.52982 964.15741 1925.9523 6972518
-327.44913 959.27356 1916.1967 6313818
-316.48468 960.4613 1918.5691 6182232
-305.60013 961.98883 1921.6205 6511197
-294.7655 963.79803 1925.2344 6642783
-281.83057 958.60895 1914.869 6840162
-273.26251 968.461 1934.549 6248025
-261.63367 967.85315 1933.3347 6774112
-249.62437 965.71783 1929.0695 6905442
-236.86108 960.32074 1918.2883 5655375
-227.38399 968.37433 1934.376 6379098
-214.3784 961.45856 1920.5612 6510684
-203.74831 965.01807 1927.6715 6182232
-193.84471 972.64594 1942.9086 7169127
-180.19707 961.26447 1920.1736 7037541
-169.02528 962.44641 1922.5345 7629678
-158.30946 966.58313 1930.798 7827057
-147.06728 967.90033 1933.4291 7826801
-135.04675 963.8847 1925.4076 7037028
-123.63445 963.86969 1925.3777 6510427
-113.01105 970.62732 1938.8763 7431786
-101.92165 974.45929 1946.5308 6510684
-90.665123 977.46759 1952.54 6247512
-78.232201 966.81769 1931.2664 7760751
-66.974129 969.52515 1936.6747 7563372
-55.641552 972.05066 1941.7195 7168614
-44.308868 975.89099 1949.3907 6445148
-32.670403 973.32996 1944.275 6510684
-21.055775 969.07538 1935.7764 7365993
-9.5843506 969.11584 1935.8571 8287351
1.8858885 968.05695 1933.7418 6905955
13.394257 971.58228 1940.7839 5984853
24.897711 971.65869 1940.9365 7366506
36.43782 972.66522 1942.947 7892850
47.606045 965.6449 1928.9237 7234920
59.628162 975.31006 1948.2303 7037284
70.971214 972.53412 1942.6852 7300199
82.412239 971.68829 1940.9956 6379355
93.848602 971.00134 1939.6234 6445405
106.31646 979.97217 1957.5431 5524302
118.01205 980.75977 1959.1165 5261131
129.71451 981.45825 1960.5116 5459023
140.51837 975.80182 1949.2126 7696241
152.76141 980.23962 1958.0774 7038311
165.59584 987.5777 1972.7356 7827827
177.21429 987.17444 1971.9301 7893620
188.38475 984.47986 1966.5474 6248795
200.4431 986.46887 1970.5206 6709346
212.79733 989.61499 1976.8052 7301483
223.5029 985.16571 1967.9175 7564655
237.03458 992.99701 1983.5609 7367276
248.88896 993.39374 1984.3533 7169641
259.67819 989.69501 1976.965 7893620
270.15543 985.17792 1967.9419 6577760
280.28476 979.81842 1957.236 6380124
292.98526 983.51599 1964.6221 6774625
304.33545 982.57141 1962.7354 6116695
316.12802 983.07208 1963.7354 7695214
328.40128 984.97888 1967.5442 7300456
339.66467 983.8299 1965.2491 7103334
352.52112 987.21832 1972.0176 7563628
364.50693 988.0293 1973.6377 7629678
374.8298 984.42255 1966.433 7103334
388.03519 988.37531 1974.3289 7432299
401.65125 993.11224 1983.791 6576989
413.39124 993.07294 1983.7125 7695471
424.82574 992.32208 1982.2128 7300457
437.8208 995.159 1987.8795 7892593
447.28174 990.02448 1977.6232 7892850
457.84964 987.53998 1972.6602 7365993
470.16663 988.85785 1975.2926 6115926
483.78207 992.77631 1983.1199 6510683
496.16086 994.03113 1985.6266 7497322
501.60861 981.6637 1960.9221 6971235
519.90936 994.44055 1986.4443 5720911
535.32825 1001.2613 2000.0693 6378841
540.99542 989.94244 1977.4592 5194054
554.16656 992.54358 1982.6552 6772829
569.83514 999.41699 1996.3851 5062211
578.0976 993.28546 1984.1371 5588811
584.04852 983.50592 1964.6019 7102307
599.80341 990.29553 1978.1644 5984083
608.8291 985.92743 1969.439 7036771
622.88513 989.71649 1977.0079 7957873
638.3537 995.56873 1988.698 8352374
650.26831 995.76654 1989.093 7957873
664.09009 998.82574 1995.204 7892080
676.08136 999.073 1995.6979 7431786
685.74841 995.93597 1989.4316 7760751
697.52429 995.91614 1989.392 8155765
711.83435 999.45514 1996.4613 8089715
725.71252 1002.2819 2002.1078 8156020
737.42834 1002.0792 2001.703 9405830
752.42206 1006.2668 2010.068 8353142
761.30432 1002.278 2002.1 7760492
775.94128 1005.8715 2009.2782 7760749
784.27386 1001.3073 2000.1611 7958127
796.53937 1001.8257 2001.1965 8682364
802.00488 993.90179 1985.3683 8418679
820.31262 1001.8919 2001.3289 8221046
832.86823 1002.7291 2003.0011 8155509
847.45349 1005.9518 2009.4388 8747390
860.36884 1007.1306 2011.7935 9010818
873.38806 1008.3972 2014.3234 7234663
882.1236 1004.7502 2007.0385 8550523
896.75513 1007.8267 2013.184 8681853
905.13214 1003.8854 2005.311 8089716
917.30835 1004.2054 2005.9502 7102565
933.22101 1008.5553 2014.6393 7431786
937.75391 1000.6523 1998.8527 7826544
955.62329 1006.9998 2011.5322 7431529
966.67767 1006.0982 2009.7312 7892337
974.44104 1001.8348 2001.215 8681853
987.18591 1002.734 2003.011 8089716
998.3194 1001.9946 2001.5339 8747390
1014.5673 1006.3453 2010.2247 8418425
1020.7331 1000.7109 1998.9697 9010819
1033.7496 1001.845 2001.2351 9076611
1052.78 1008.7155 2014.9594 8616317
1060.6823 1004.8891 2007.3159 8682364
1070.7804 1003.205 2003.9517 8945535
1087.6141 1007.799 2013.1285 11182233
1142.9789 1047.6093 2092.6516 13422281
1154.3854 1046.707 2090.8494 13553868
1170.0558 1049.6492 2096.7266 13750479
1185.0818 1051.9575 2101.3374 13750735
1200.4625 1054.5294 2106.4749 13750736
1214.1205 1055.5504 2108.5144 13750737
1229.2869 1057.8489 2113.1057 13750737
1245.9718 1061.3945 2120.1882 13750737
1260.1464 1062.7523 2122.9004 13750737
1274.5939 1064.3109 2126.0139 13750737
1289.3523 1066.0963 2129.5803 13750737
1304.2294 1067.9441 2133.2715 13750737
1319.0319 1069.6962 2136.7712 13750737
1333.691 1071.2996 2139.9741 13750737
1348.4402 1072.9445 2143.2598 13750737
1363.1351 1074.5159 2146.3989 13750737
1377.5126 1075.8103 2148.9846 13750737
1392.2963 1077.3954 2152.1509 13750737
1407.1328 1078.9922 2155.3406 13750737
1422.3524 1080.8513 2159.0542 13750737
1436.9999 1082.2465 2161.8411 13750737
1451.9567 1083.8479 2165.04 13750737
1468.2202 1086.3882 2170.1143 13750737
1483.3247 1088.0341 2173.4021 13750737
1498.3785 1089.6149 2176.5598 13750736
1513.4359 1091.1713 2179.6687 13750735
1528.6652 1092.824 2182.9702 13750735
1544.2673 1094.7135 2186.7446 13750735
1578.7013 1109.8101 2216.9009 13750735
1597.74 1113.9242 2225.1189 13750735
1613.0691 1115.4058 2228.0784 13750735
1628.4286 1116.8839 2231.0312 13750735
1643.9382 1118.4407 2234.1409 13750735
1659.5911 1120.069 2237.3936 13750735
1675.2899 1121.7025 2240.6565 13750735
1690.7469 1123.1498 2243.5474 13750735
1705.8389 1124.3335 2245.9121 13750735
1722.2505 1126.3623 2249.9646 13750735
1738.0548 1127.9656 2253.1672 13750735
1753.9313 1129.5909 2256.4141 13750735
1769.7958 1131.184 2259.5962 13750735
1785.6373 1132.7386 2262.7017 13750735
1801.7426 1134.4362 2266.0925 13750735
1807.3671 1129.5582 2256.3489 13750735
1815.9279 1126.5737 2250.387 13750735
1832.8214 1128.7645 2254.7632 13750735
1850.7394 1131.5498 2260.3271 13750735
1874.505 1137.8448 2272.9016 13750735
1891.6547 1140.0627 2277.332 13750735
1908.3196 1141.959 2281.1199 13750735
1925.0212 1143.8506 2284.8984 13750735
1941.7323 1145.7212 2288.635 13750735
1958.4396 1147.5637 2292.3154 13750735
1975.348 1149.4978 2296.179 13750735
1991.9862 1151.2493 2299.6775 13750735
2008.6707 1153.0035 2303.1819 13750735
2025.5759 1154.86 2306.8901 13750735
2043.2587 1157.1317 2311.4282 13750735
2060.665 1159.218 2315.5955 13750735
2077.9592 1161.2137 2319.582 13750735
2094.8167 1162.9407 2323.032 13750735
2111.6509 1164.6327 2326.4116 13750735
2127.6763 1165.8593 2328.8618 13750735
2143.9434 1167.2015 2331.5432 13750735
2160.0452 1168.4375 2334.012 13750735
2176.4846 1169.839 2336.8115 13750735
2192.9294 1171.2257 2339.5815 13750735
2209.2991 1172.5551 2342.2371 13750735
2225.6931 1173.8807 2344.885 13750735
2271.7483 1190.7368 2378.5559 13750735
0 0 0 0
0 0 0 0
0 0 0 0
0 0 0 0
0 0 0 0
0 0 0 0
0 0 0 0
0 0 0 0
0 0 0 0
0 0 0 0
0 0 0 0
0 0 0 0
-1630.6661 955.73627 1886.7949 6052445
-1611.8242 951.21558 1877.8704 6314845
-1587.7651 943.53156 1862.7008 6249564
-1573.7809 941.7691 1859.2212 5788757
-1556.924 938.25037 1852.2748 5789013
-1539.8503 934.55023 1844.97 6315357
-1532.5337 936.76117 1849.3347 6972777
-1523.6823 938.05902 1851.897 7367536
-1519.217 942.09564 1859.866 5985882
-1496.4476 934.75763 1845.3794 6380640
-1483.1581 933.27679 1842.4559 6183004
-1472.106 933.19226 1842.2891 6249055
-1464.2914 935.17401 1846.2015 5985882
-1449.8058 932.89331 1841.6989 6775141
-1432.6053 928.81763 1833.6528 5919832
-1430.9015 934.80377 1845.4705 4932937
-1422.1901 936.26862 1848.3624 5130059
-1412.262 936.9491 1849.7058 6775398
-1407.9226 941.37714 1858.4474 6380383
-1396.3051 940.97009 1857.6438 6249054
-1384.2295 940.24542 1856.2133 7038570
-1381.042 945.59485 1866.774 6972520
-1364.9016 942.09021 1859.8552 6248797
-1351.6677 940.55109 1856.8167 5787989
-1342.2609 941.67151 1859.0286 6181977
-1329.7227 940.59534 1856.9041 5852757
-1318.2428 940.25623 1856.2346 5852500
-1303.1102 937.28412 1850.3672 5589583
-1289.7706 935.56219 1846.9678 5260619
-1272.3484 930.82404 1837.6136 6248027
-1263.3442 932.21558 1840.3608 6643556
-1254.5923 933.81915 1843.5267 6643556
-1251.3696 939.60266 1854.9443 6511970
-1244.0231 942.36469 1860.3971 5854037
-1233.7281 942.92273 1861.4988 6051416
-1222.167 942.5144 1860.6926 6117209
-1211.0334 942.43146 1860.5288 5919830
-1195.7323 939.07379 1853.9003 5459279
-1182.7734 937.51056 1850.8141 6775139
-1176.7869 941.49622 1858.6826 6182745
-1165.937 941.62946 1858.9457 6972518
-1155.41 942.02875 1859.7338 6972518
-1144.2997 941.95532 1859.5889 6709346
-1134.7877 943.20898 1862.0638 6117209
-1125.8417 944.96228 1865.5251 6183259
-1114.4712 944.69531 1864.9983 6709859
-1099.7056 941.51611 1858.7219 6183515
-1094.1248 946.21588 1868 6841445
-1088.9401 951.35791 1878.1512 6841445
-1077.8098 951.35791 1878.1512 6841188
-1064.0712 949.03149 1873.5586 6446431
-1050.1161 946.46106 1868.4841 6183259
-1039.2584 946.65717 1868.8713 6972775
-1034.7767 952.72803 1880.8562 6578273
-1020.6094 949.91632 1875.3054 5064777
-1009.7828 950.18616 1875.8381 5985623
-1000.4103 951.84576 1879.1144 5854037
-989.77948 952.33179 1880.074 5261900
-986.21216 959.70264 1894.6254 5064521
-963.75848 948.65283 1872.811 6183002
-954.02618 950.01349 1875.4971 6117209
-943.19666 950.30072 1876.0642 6577503
-936.98499 955.30286 1885.9393 6775139
-926.53705 956.05469 1887.4236 6775139
-916.03656 956.7699 1888.8356 5590865
-900.51123 952.1897 1879.7933 5655888
-895.46173 958.71039 1892.6664 4866372
-886.63092 961.29681 1897.7725 5524302
-876.28833 962.28943 1899.7322 5459279
-867.41907 964.94708 1904.9788 6643553
-853.24097 961.69104 1898.5509 7170410
-842.40973 962.17072 1899.4978 7565168
-831.15698 962.17554 1899.5072 7630961
-822.40619 965.11652 1905.3132 7697268
-806.00909 959.04132 1893.3197 7499889
-794.70862 958.94434 1893.1284 7434096
-784.11432 959.70911 1894.6381 5986393
-771.41711 957.88489 1891.0366 6446687
-756.52802 953.24493 1881.8766 6644066
-749.78668 958.88611 1893.0133 6907238
-734.17206 953.17853 1881.7455 6973031
-727.54071 959.13763 1893.5099 7367789
-715.77533 958.40924 1892.0719 7762290
-709.46857 965.08289 1905.2469 6183002
-693.70868 958.90546 1893.0515 6314588
-683.61414 960.48492 1896.1696 7300713
-673.862 962.60602 1900.3572 6510940
-660.80981 960.00525 1895.2227 5918547
-649.93048 960.52576 1896.2502 6839649
-643.57855 967.87323 1910.7555 6708063
-630.12103 964.60638 1904.3063 6444634
-618.94836 964.78204 1904.653 6379098
-608.06982 965.43109 1905.9343 6379355
-594.21295 961.28662 1897.7523 6642783
-585.0946 964.79584 1904.6803 7038568
-571.90265 961.59381 1898.3589 7169897
-560.46539 961.27283 1897.7251 7367276
-552.01019 966.15784 1907.3691 7301483
-538.01074 961.34058 1897.859 7498862
-528.18744 963.93915 1902.9889 7104104
-513.72003 957.99054 1891.2454 6577760
-502.28217 957.55225 1890.38 7038055
-493.11075 961.51318 1898.1996 6248795
-476.80261 951.41846 1878.2708 6576734
-468.05515 956.28821 1887.8846 6576989
-458.70218 960.12921 1895.4675 7563885
-447.77859 960.79309 1896.778 6840162
-434.98804 957.38196 1890.0438 7366249
-423.99362 957.84821 1890.9644 6115926
-415.32788 963.74323 1902.6022 6313305
-404.17291 964.03015 1903.1687 5786961
-392.61099 963.33484 1901.796 6576734
-380.56033 961.36389 1897.905 7234664
-369.44699 961.71289 1898.594 7959670
-359.47742 965.15466 1905.3885 8354171
-348.83365 966.95087 1908.9346 6840932
-336.02658 962.6698 1900.483 6709089
-324.51053 961.91864 1899.0002 6511710
-314.15192 964.66779 1904.4275 6050646
-302.3476 963.01703 1901.1686 6576990
-289.47974 957.71985 1890.7109 6248025
-281.23282 967.89972 1910.8077 7630192
-269.31467 965.76837 1906.6002 6642526
-258.62302 968.04156 1911.0878 5457739
-246.9782 966.79156 1908.6202 5983313
-235.8475 967.53082 1910.0796 6312277
-223.57678 963.43201 1901.9878 6247255
-212.73717 965.39227 1905.8577 5194824
-201.87769 967.47711 1909.9735 6773856
-189.7979 963.61414 1902.3473 7432299
-178.20273 961.87903 1898.9219 8221815
-167.33427 964.09705 1903.3005 6774369
-156.48077 966.72797 1908.4946 7694958
-145.37581 968.09436 1911.192 5260617
-133.35631 963.08685 1901.3064 6576990
-122.31397 964.86346 1904.8136 5327179
-111.22943 966.63446 1908.3101 8682879
-100.66116 973.80084 1922.4576 6906467
-89.026543 971.16394 1917.252 7695214
-77.940086 974.61005 1924.0552 7892594
-66.10141 968.21906 1911.4384 8024436
-54.924591 970.88422 1916.6997 7103333
-43.633335 972.38879 1919.6702 6510684
-32.078194 966.99982 1909.0314 7037028
-20.923693 974.3963 1923.6333 7102565
-9.468298 968.71472 1912.4167 6905185
1.864059 968.17871 1911.3585 6576221
13.265514 973.6347 1922.1298 6905442
24.710155 975.75488 1926.3154 7234407
36.098213 975.00671 1924.8384 7431786
47.351803 971.85803 1918.6223 6773856
58.991909 976.32568 1927.4421 5655375
70.094177 971.88647 1918.6783 5918547
81.565643 973.09106 1921.0564 5984598
92.716187 970.64075 1916.2191 6445149
105.38683 982.90265 1940.4264 5392461
117.18643 985.42725 1945.4103 5195337
128.07935 980.55811 1935.7977 7038311
139.50334 980.22113 1935.1324 5591378
151.35118 982.68738 1940.0012 7038311
164.66234 993.63538 1961.6147 7564655
175.3421 988.30798 1951.0974 6840932
186.67204 987.07758 1948.6683 6709346
197.29964 982.49316 1939.6179 6577760
210.33015 989.72058 1953.8861 7038311
220.96967 985.52972 1945.6127 6906725
234.30659 993.18854 1960.7325 6577760
245.74358 992.45062 1959.2756 6972518
256.27591 988.29041 1951.0627 7104104
269.3204 993.75928 1961.8593 6577504
280.44028 991.96765 1958.3221 6314845
291.23813 989.22443 1952.9067 7038567
302.43546 987.99615 1950.4817 6775139
314.78323 990.47809 1955.3817 7300457
326.83188 991.87616 1958.1416 7695471
336.95001 987.52026 1949.5424 6708576
349.07202 989.13147 1952.7231 7037540
362.08029 993.07001 1960.4985 7959413
371.00061 985.90027 1946.3442 8025206
381.45691 983.12152 1940.8585 7893620
393.38098 984.17773 1942.9435 7498092
406.69394 988.54968 1951.5746 7234920
416.19363 983.66742 1941.936 7234920
429.8938 988.70831 1951.8877 7432299
440.34122 986.2002 1946.9363 8221815
453.94022 990.6983 1955.8163 7235177
467.13879 994.1203 1962.572 7498092
480.41653 997.54041 1969.3239 7432042
490.87939 995.09204 1964.4904 7431786
502.65674 995.35999 1965.0194 7234664
516.25995 999.14966 1972.5009 6971235
530.3844 1003.7578 1981.5983 8155509
535.08374 990.71582 1955.851 5852497
550.17432 997.05823 1968.3721 5655118
561.38153 996.24591 1966.7683 5852497
571.88751 994.24756 1962.8231 5984083
584.35199 995.66565 1965.6228 7299943
592.28845 989.46405 1953.3798 5786704
600.40161 983.78979 1942.1777 5984083
617.16711 992.23969 1958.8593 7234150
625.51483 987.09375 1948.7004 6642013
640.00281 991.64844 1957.6921 8287095
654.33685 995.8067 1965.9012 7563372
667.42871 997.9621 1970.1564 7234920
677.85004 996.11896 1966.5177 8287351
691.24139 998.62891 1971.4728 8617086
704.03522 1000.2065 1974.5872 9011845
714.63879 998.67175 1971.5574 8814208
730.00189 1003.7306 1981.5444 8747903
741.51788 1003.4233 1980.9379 8747647
757.16046 1008.6227 1991.2023 8879232
766.79419 1005.7809 1985.592 8221042
775.31256 1001.5841 1977.3069 7299941
788.12646 1002.9788 1980.0603 8550520
799.15735 1002.0969 1978.3192 8681852
807.2373 997.59357 1969.4287 9011074
821.45612 1000.697 1975.5555 8550780
837.6441 1006.0784 1986.1793 8550782
850.30975 1007.1385 1988.2723 8748418
858.4342 1002.8646 1979.8347 9208456
873.34393 1006.5258 1987.0626 9011333
880.94855 1001.7825 1977.6986 8945284
890.43231 999.27271 1972.7437 8090231
907.38507 1005.1013 1984.2502 8419195
917.35754 1003.1475 1980.3933 9406090
932.84845 1007.2014 1988.3965 9406089
942.66986 1005.1092 1984.266 9011331
954.07727 1004.7388 1983.5348 8221815
959.47003 998.12042 1970.4689 8682623
968.78827 995.69568 1965.6821 8155252
990.0542 1005.4622 1984.9629 7694958
1006.7686 1010.4313 1994.7728 8616316
1016.3529 1008.212 1990.3916 8024180
1025.5178 1005.6324 1985.2991 9076868
1034.9711 1003.3909 1980.8739 8813695
1052.4906 1008.9323 1991.8136 8616572
1065.1001 1009.6959 1993.321 8616314
1076.7194 1009.5144 1992.9628 9603209
1125.4109 1043.718 2060.4868 13355716
1198.5126 1099.5826 2170.7737 13619660
1160.2667 1053.1892 2079.1846 13554126
1173.601 1054.0986 2080.98 13750735
1189.0297 1056.8508 2086.4133 13750735
1203.0421 1058.3004 2089.2751 13750737
1218.4642 1060.9481 2094.502 13750737
1233.3047 1063.0409 2098.6335 13750737
1247.6954 1064.7081 2101.925 13750737
1262.205 1066.4427 2105.3494 13750737
1276.4432 1067.9164 2108.2588 13750737
1290.8619 1069.5111 2111.407 13750737
1305.3856 1071.1614 2114.6648 13750737
1319.843 1072.7263 2117.7544 13750737
1334.2472 1074.2189 2120.7009 13750737
1348.5725 1075.6207 2123.4685 13750737
1363.1254 1077.1765 2126.5398 13750737
1377.9452 1078.9127 2129.9675 13750737
1393.1744 1080.9352 2133.9602 13750737
1408.2208 1082.7805 2137.6033 13750737
1422.7358 1084.1881 2140.3821 13750737
1437.5269 1085.7794 2143.5234 13750737
1453.7429 1088.4097 2148.7161 13750737
1468.9189 1090.2222 2152.2944 13750737
1484.0302 1091.9559 2155.717 13750737
1499.0701 1093.6082 2158.9788 13750735
1514.1976 1095.2957 2162.3103 13750735
1530.3403 1097.683 2167.0234 13750735
1562.7142 1111.5762 2194.4509 13750735
1578.6293 1113.6292 2198.5039 13750735
1596.7148 1117.1671 2205.4885 13750735
1611.754 1118.5337 2208.1863 13750735
1626.9287 1119.9714 2211.0247 13750735
1642.3718 1121.5695 2214.1794 13750735
1657.8939 1123.1957 2217.3899 13750735
1673.3013 1124.7192 2220.3977 13750735
1688.0502 1125.7798 2222.4915 13750735
1704.4351 1127.9066 2226.6902 13750735
1720.103 1129.53 2229.895 13750735
1735.7001 1131.0824 2232.9597 13750735
1751.5063 1132.7466 2236.2451 13750735
1767.4117 1134.4495 2239.6069 13750735
1783.4315 1136.1997 2243.0623 13750735
1788.3348 1130.8944 2232.5886 13750735
1797.3264 1128.2333 2227.3352 13750735
1813.6719 1130.1936 2231.2051 13750735
1831.2789 1132.9061 2236.5601 13750735
1854.4536 1138.999 2248.5886 13750735
1871.6394 1141.3531 2253.2361 13750735
1888.4523 1143.4479 2257.3716 13750735
1905.0983 1145.4131 2261.251 13750735
1921.5483 1147.2335 2264.845 13750735
1938.1564 1149.1226 2268.5742 13750735
1955.1777 1151.229 2272.7327 13750735
1972.2301 1153.3246 2276.8699 13750735
1989.0066 1155.2316 2280.6345 13750735
2005.7955 1157.12 2284.3625 13750735
2022.6886 1159.0427 2288.1584 13750735
2039.2623 1160.7582 2291.5449 13750735
2055.9644 1162.5232 2295.0295 13750735
2072.0154 1163.8995 2297.7466 13750735
2088.1196 1165.2878 2300.4873 13750735
2103.4817 1166.2462 2302.3794 13750735
2119.1313 1167.3507 2304.5601 13750735
2134.4575 1168.2643 2306.3635 13750735
2150.6792 1169.6531 2309.1052 13750735
2167.5938 1171.3987 2312.5515 13750735
2184.8579 1173.3103 2316.3252 13750735
2202.123 1175.1985 2320.0527 13750735
2250.4646 1193.5448 2356.2717 13750735
0 0 0 0
0 0 0 0
0 0 0 0
0 0 0 0
0 0 0 0
0 0 0 0
0 0 0 0
0 0 0 0
0 0 0 0
0 0 0 0
0 0 0 0
0 0 0 0
-1605.5582 952.02985 1857.7433 5920089
-1578.6884 942.5603 1839.265 5459538
-1563.6492 940.07178 1834.4089 5722711
-1549.9315 938.34845 1831.0461 5920343
-1537.4779 937.37146 1829.1398 6249051
-1524.0161 935.7616 1825.9982 5788244
-1511.5225 934.72736 1823.9801 5130058
-1504.8419 937.29895 1828.9983 4340028
-1490.8716 935.33441 1825.1648 5787475
-1487.3195 939.92511 1834.1228 5853267
-1461.9852 930.71661 1816.1538 6314075
-1457.6831 934.86011 1824.2393 4867399
-1445.7955 934.16443 1822.8817 6445918
-1431.7977 932.08453 1818.8231 5788501
-1422.5874 933.11328 1820.8306 6446175
-1414.7437 935.06097 1824.6312 6840934
-1401.3488 933.34155 1821.2759 6116955
-1400.1405 939.7749 1833.8297 4933194
-1384.5482 936.57904 1827.5934 4669765
-1376.8665 938.72589 1831.7827 6183003
-1363.7108 937.14526 1828.6984 6379870
-1355.707 939.10803 1832.5283 5853267
-1341.5996 936.84021 1828.1031 5589582
-1327.2823 934.388 1823.3179 5720912
-1317.9583 935.43933 1825.3694 5720656
-1304.9243 933.85321 1822.2744 5194312
-1306.384 942.69934 1839.5361 4536894
-1288.5323 937.64172 1829.6672 6181462
-1276.6127 936.85168 1828.1255 7432044
-1265.4401 936.60089 1827.6361 6775142
-1255.9725 937.61877 1829.6223 6840934
-1247.8387 939.65863 1833.6028 6380127
-1236.4205 939.2395 1832.7849 5459281
-1229.4894 942.25153 1838.6625 5854037
-1217.9501 941.75433 1837.6923 6051416
-1200.0146 936.25787 1826.9668 5722451
-1190.5378 937.32092 1829.0411 6643553
-1183.79 940.57172 1835.3845 7301483
-1179.4199 945.78955 1845.5664 6841445
-1160.2742 939.14545 1832.6014 7630961
-1154.6346 943.41132 1840.9255 7104617
-1143.4058 943.14801 1840.4119 6775909
-1137.8695 947.62048 1849.1392 5920343
-1118.7694 940.77411 1835.7795 5854806
-1115.2783 947.04785 1848.0217 6512480
-1103.7594 946.56152 1847.0728 6709603
-1096.856 950.06311 1853.9055 6314588
-1080.8914 945.70776 1845.4067 6116439
-1067.3688 943.42175 1840.946 4668737
-1059.3463 946.00031 1845.9775 5326666
-1055.1174 952.05548 1857.7935 6380381
-1038.5946 947.02838 1847.9838 6380381
-1032.3156 951.33429 1856.3861 6775139
-1023.166 953.05927 1859.7521 6248795
-1008.605 949.72614 1853.248 5788501
-1003.012 954.85712 1863.2604 4932935
-992.90552 955.75775 1865.0178 4801349
-980.97681 954.90479 1863.3534 5459279
-968.21545 953.21277 1860.0516 6380381
-950.9859 947.03204 1847.9908 7235690
-943.32526 950.34753 1854.4606 6841445
-933.24615 951.27582 1856.2721 6577760
-923.17975 952.23956 1858.1526 7301483
-915.98132 956.22052 1865.9208 5261643
-901.84161 952.96387 1859.5659 6248025
-894.04974 956.41736 1866.3051 5458509
-881.02142 954.28552 1862.145 5919573
-871.32898 955.75873 1865.0198 5722451
-860.05811 955.51605 1864.5461 7038054
-851.26691 958.05804 1869.5063 6578273
-840.24982 958.12866 1869.6443 7170410
-830.75769 959.96332 1873.2244 7236461
-820.5658 961.02826 1875.3024 6381409
-817.59094 970.69086 1894.1575 7631477
-799.89111 962.89679 1878.9485 7631475
-788.02014 961.99841 1877.1954 7302510
-770.79211 954.44073 1862.4479 7039081
-761.10736 956.13995 1865.7635 7170410
-748.76355 954.49945 1862.5624 6973031
-736.25787 952.60034 1858.8567 5985623
-727.1759 955.14069 1863.8137 6183002
-716.05548 955.04059 1863.6183 6380124
-706.56525 957.14569 1867.7261 6446174
-696.90002 959.07684 1871.4946 6972518
-692.37897 968.26453 1889.423 6906212
-677.48218 963.00568 1879.161 6181975
-663.42554 958.78516 1870.9254 6445148
-654.52942 962.00598 1877.2103 6379355
-640.7204 957.99255 1869.3787 7103334
-629.22803 957.36261 1868.1494 6576990
-618.32996 957.63049 1868.6722 6248024
-608.24792 959.19501 1871.7251 7366249
-596.83899 958.6864 1870.7325 7234920
-588.82385 963.71283 1880.541 6576990
-575.85718 960.67316 1874.6094 6379611
-567.34406 965.08948 1883.2272 5918803
-552.51001 958.7149 1870.7882 6313561
-542.24524 960.17041 1873.6284 7564142
-535.60724 968.2428 1889.3805 7169897
-519.14539 958.52191 1870.4116 7104103
-507.60052 957.65326 1868.7166 7235433
-497.11462 958.78833 1870.9315 6576990
-486.29449 959.31586 1871.9609 6247512
-473.69958 956.28516 1866.047 6247256
-461.65256 954.242 1862.0601 6444634
-452.71326 958.67981 1870.7198 6642014
-445.39929 966.86871 1886.6992 6971491
-430.88132 959.43829 1872.1998 7234920
-421.10352 962.4491 1878.0748 6905955
-409.38397 961.06476 1875.3735 7168871
-399.55179 964.15747 1881.4087 7235433
-390.19916 968.61835 1890.1133 6971748
-378.73367 967.94293 1888.7954 6708576
-368.62354 970.79578 1894.3623 7169897
-353.71454 960.79266 1874.8428 6577760
-343.22052 962.52222 1878.2177 7433069
-331.56363 960.99725 1875.2418 7893620
-323.01382 968.68408 1890.2417 8156791
-311.49011 967.68469 1888.2914 7761521
-299.61237 965.46979 1883.9694 5853010
-287.25104 961.46484 1876.1544 6708320
-278.98318 971.39044 1895.5227 6247512
-266.38712 966.44641 1885.875 5852754
-256.02997 969.54767 1891.9266 5589068
-245.13782 970.81403 1894.3978 4997188
-232.79524 966.18237 1885.36 6444891
-220.26642 960.27173 1873.8262 7168871
-209.65581 962.5401 1878.2526 7103847
-198.43887 962.12323 1877.439 7234920
-187.28394 961.97504 1877.1499 7169127
-176.91185 966.08325 1885.1664 7234920
-165.17079 962.76569 1878.6926 7563885
-153.82506 961.43939 1876.1046 7234151
-144.17509 971.33105 1895.4067 6116180
-132.6225 968.9928 1890.8441 6248026
-121.25864 967.72949 1888.3789 5789274
-110.69313 973.22827 1899.1089 8223359
-99.23555 971.24091 1895.2308 6315616
-87.964119 970.80066 1894.3718 6577502
-76.697388 970.29114 1893.3774 6379611
-65.475174 970.26648 1893.3295 6905955
-54.543667 975.43079 1903.4069 8353145
-43.21125 974.24878 1901.1003 6708320
-31.857412 971.5799 1895.8923 6313562
-20.678387 974.23889 1901.0809 6971748
-9.4148445 974.5152 1901.6201 6971748
1.8549132 974.69995 1901.9807 7827057
13.136068 975.41357 1903.3733 7827057
24.375542 973.8028 1900.23 6774369
35.598156 972.74927 1898.1742 7037028
46.901272 973.87335 1900.3676 6379868
58.212719 974.70154 1901.9836 6511454
69.647087 976.98535 1906.4402 6313818
81.02359 977.93317 1908.2898 6839906
92.299927 977.58795 1907.6161 7366506
103.69602 978.44806 1909.2946 5590864
114.96952 978.09595 1908.6074 7235690
127.6901 989.0152 1929.9147 6906982
138.70207 985.99316 1924.0177 7564911
150.51442 988.68768 1929.2756 7564655
161.88759 988.3205 1928.5592 7433069
172.82784 985.53326 1923.1202 7038311
184.37816 986.35437 1924.7225 6577503
196.00706 987.47595 1926.911 6840162
208.58105 992.97296 1937.6377 6116440
219.28563 989.46112 1930.7849 6182232
232.16718 995.63354 1942.8295 7563628
242.12187 989.2641 1930.4004 7170154
253.13959 987.6167 1927.1857 7038311
265.1929 989.97754 1931.7925 7301483
278.08105 995.13037 1941.8475 7169897
289.37936 994.41046 1940.4427 7169897
299.75604 990.69958 1933.2015 6577760
308.6745 982.61993 1917.4353 7629421
323.8642 994.36877 1940.3613 5326923
335.27048 994.09375 1939.8248 6774369
346.80713 994.21088 1940.0533 6708063
357.14334 990.98944 1933.7672 6906725
368.75995 991.41077 1934.5894 7301483
377.39609 984.03522 1920.197 7959413
389.0484 984.72577 1921.5446 7959413
400.19168 984.12518 1920.3727 7629934
412.25009 985.74609 1923.5355 7366506
423.12939 984.53625 1921.1747 6774369
433.92294 983.19537 1918.5582 8156022
450.53619 994.77295 1941.15 7761265
462.43262 995.61847 1942.7999 7365993
476.20016 1000.3537 1952.04 7629165
487.73212 1000.2793 1951.8949 7037028
494.12589 989.91486 1931.6702 6905442
503.6965 986.23987 1924.499 6971235
518.48834 992.72449 1937.1528 7629165
533.94855 1000.1802 1951.7014 7037028
542.41809 994.50256 1940.6224 7234150
550.41656 988.21503 1928.3533 6707806
564.39154 992.69501 1937.0953 5655118
580.50879 1000.6895 1952.6952 6181462
587.43732 992.84131 1937.3807 6115669
597.32391 990.19763 1932.222 6378841
608.61096 989.9314 1931.7025 5457739
619.22253 988.59644 1929.0975 6773856
629.93097 987.46185 1926.8835 7102821
643.43817 990.67682 1933.1571 7760751
654.84229 990.59784 1933.0029 7695472
669.15149 994.84064 1941.2822 7629679
681.97528 996.76904 1945.0452 8287609
694.05713 997.56677 1946.6019 8748159
702.46478 993.14404 1937.9716 8945538
717.57507 998.18719 1947.8125 8946565
728.51367 997.35962 1946.1976 9011075
744.29791 1003.0882 1957.376 8419194
756.80481 1004.2918 1959.7249 8616573
765.9303 1001.0399 1953.379 8748159
777.90039 1001.547 1954.3687 9011074
784.09283 994.70972 1941.0267 8814722
796.09961 995.33966 1942.256 8551808
808.28558 996.17249 1943.8811 8354430
821.6792 998.44934 1948.3241 8880262
835.71442 1001.4319 1954.1442 8551298
848.03296 1002.3041 1955.8461 8354175
862.04596 1005.1284 1961.3572 8682881
867.95233 998.55109 1948.5226 8880004
882.67383 1002.1549 1955.5548 8024695
896.68079 1004.8646 1960.8424 8682367
906.51135 1002.8845 1956.9785 9471883
921.18402 1006.2437 1963.5334 8879745
931.01178 1004.2928 1959.7266 8550267
940.28955 1001.804 1954.87 8418681
952.16559 1002.1102 1955.4678 8287095
965.32983 1003.7487 1958.6649 8813183
976.73541 1003.5411 1958.26 8550523
987.60974 1002.7993 1956.8123 8682366
1004.6036 1008.2161 1967.3823 8681596
1009.939 1001.9424 1955.1403 8681853
1027.1324 1007.4418 1965.8715 8748159
1034.462 1003.2515 1957.6948 8944767
1054.7366 1011.5694 1973.9259 8221556
1057.351 1002.9532 1957.1127 8484727
1116.1926 1047.2798 2043.6095 11840163
1133.3055 1051.9226 2052.6692 13553614
1149.4841 1055.6089 2059.8623 13619402
1162.8727 1056.6824 2061.957 13685199
1177.8188 1059.1343 2066.7415 13750734
1191.5942 1060.4935 2069.394 13750737
1206.5878 1062.8984 2074.0867 13750737
1221.1328 1064.8635 2077.9214 13750737
1235.3602 1066.5153 2081.1445 13750737
1249.6678 1068.203 2084.4377 13750737
1263.9944 1069.8734 2087.6975 13750737
1278.4595 1071.6278 2091.1208 13750737
1292.3362 1072.8601 2093.5254 13750737
1306.9197 1074.65 2097.0181 13750737
1321.3997 1076.322 2100.2808 13750737
1335.6273 1077.759 2103.085 13750737
1349.9071 1079.2112 2105.9187 13750737
1364.2167 1080.6604 2108.7466 13750737
1379.4167 1082.7822 2112.887 13750737
1394.1427 1084.4971 2116.2334 13750737
1408.672 1086.0299 2119.2244 13750737
1422.6688 1087.1287 2121.3684 13750737
1438.851 1089.8634 2126.7048 13750737
1454.2931 1091.995 2130.8643 13750737
1469.4878 1093.9058 2134.5928 13750737
1484.6343 1095.7482 2138.1882 13750735
1499.7506 1097.5375 2141.6797 13750735
1514.6395 1099.1317 2144.7905 13750735
1547.4531 1113.5986 2173.0205 13750735
1563.2704 1115.6965 2177.1143 13750735
1581.468 1119.4449 2184.4287 13750735
1596.5404 1120.9382 2187.3428 13750735
1611.6218 1122.4138 2190.2222 13750735
1626.7976 1123.931 2193.1829 13750735
1641.9541 1125.411 2196.0708 13750735
1657.0237 1126.8086 2198.7979 13750735
1672.0592 1128.1615 2201.4377 13750735
1686.2806 1128.9482 2202.9731 13750735
1702.5801 1131.1035 2207.1787 13750735
1718.1522 1132.7463 2210.3845 13750735
1733.981 1134.5322 2213.8694 13750735
1749.8754 1136.334 2217.3853 13750735
1765.7772 1138.1138 2220.8582 13750735
1770.4526 1132.6847 2210.2642 13750735
1779.9663 1130.4081 2205.8218 13750735
1795.7711 1132.1309 2209.1833 13750735
1813.822 1135.2345 2215.2397 13750735
1835.786 1140.725 2225.9536 13750735
1852.1235 1142.6659 2229.741 13750735
1868.2404 1144.4443 2233.2112 13750735
1884.3669 1146.2034 2236.6438 13750735
1900.5286 1147.9592 2240.0701 13750735
1917.1178 1149.947 2243.949 13750735
1934.1077 1152.1462 2248.2405 13750735
1951.3655 1154.4739 2252.7825 13750735
1968.3892 1156.6322 2256.9941 13750735
1985.0836 1158.5693 2260.7742 13750735
2001.5577 1160.3528 2264.2542 13750735
2018.1212 1162.1638 2267.7883 13750735
2034.6559 1163.9344 2271.2434 13750735
2051.4028 1165.8025 2274.8887 13750735
2067.5427 1167.3036 2277.8176 13750735
2083.3655 1168.6069 2280.3611 13750735
2099.0391 1169.8105 2282.7097 13750735
2114.0486 1170.631 2284.3108 13750735
2130.0273 1171.9744 2286.9321 13750735
2146.2019 1173.4077 2289.729 13750735
2162.2966 1174.7798 2292.4065 13750735
2178.1843 1176.0228 2294.832 13750735
