# .PCD v0.7 - Point Cloud Data file format
VERSION 0.7
FIELDS x y z rgb
SIZE 4 4 4 4
TYPE F F F U
COUNT 1 1 1 1
WIDTH 1360
HEIGHT 1
VIEWPOINT 0 0 0 1 0 0 0
POINTS 1360
DATA ascii
2743.5852 1084.9683 3556.7097 13356472
3016.5452 1183.8171 3880.7532 13619393
3160.292 1230.8453 4034.9197 13619392
3161.7288 1222.1577 4006.4404 13488066
3110.1318 1193.2523 3911.6833 13356221
3129.1616 1191.6713 3906.5005 13288608
3190.0779 1205.9479 3953.3013 12960163
3208.6736 1204.1343 3947.3564 12895144
3236.8296 1205.9088 3953.1736 13355966
3380.5884 1250.4172 4099.0796 13619403
3403.9358 1250.0703 4097.9424 13619659
3432.792 1251.7371 4103.4062 13685197
3454.4048 1250.7577 4100.1958 13750989
3476.3625 1249.916 4097.4365 13750988
3908.5081 1395.5449 4574.8325 13750479
3925.4373 1391.9343 4562.9966 13750732
3960.7671 1394.8533 4572.5654 13750476
4020.3989 1406.2328 4609.8696 13816269
3611.7717 1254.7791 4113.3784 13750732
3585.6414 1237.3499 4056.2424 13684937
3639.959 1247.7292 4090.2678 13881540
3671.6655 1250.2717 4098.6025 14077878
3700.875 1251.9363 4104.0591 13419423
3715.6331 1248.7223 4093.5232 13352345
3743.929 1250.0701 4097.9414 13154708
3793.6091 1258.4946 4125.5586 12692619
3757.3289 1238.4772 4059.9382 12889998
3790.6011 1241.4945 4069.8291 13547417
3817.8669 1242.5187 4073.1868 13416087
3837.2708 1240.9874 4068.167 13284758
3871.5676 1244.2617 4078.9006 13218965
3922.5125 1252.8125 4106.9316 13154197
0 0 0 0
0 0 0 0
0 0 0 0
0 0 0 0
0 0 0 0
0 0 0 0
0 0 0 0
-2738.103 952.56342 3063.156 2319
-2696.0747 944.20197 3036.2681 1292
-2624.6177 925.35254 2975.6541 67857
-2548.7136 904.66962 2909.144 2320
-2475.0525 884.50659 2844.3057 331285
-2480.2976 892.45892 2869.8782 1549
-2473.293 896.08307 2881.5322 68113
-2445.688 892.24207 2869.1807 331285
-2506.9854 921.00787 2961.6831 1292
-2437.7798 901.89758 2900.23 1549
-2420.6797 901.93011 2900.3347 1549
-2399.7068 900.50977 2895.7673 778
-2383.363 900.81879 2896.7607 778
-2371.3369 902.77582 2903.054 1034
-2362.2085 905.87274 2913.0127 2320
-2361.0054 912.07678 2932.9634 777
-2357.738 917.56958 2950.6265 519
-2311.8694 906.44128 2914.8411 519
-2312.6401 913.56958 2937.7634 263
-2307.1753 918.32404 2953.0525 519
-2309.7007 926.35583 2978.8804 262
-2284.9207 923.47559 2969.6184 264
-2283.7693 930.17444 2991.1599 264
-2265.9656 930.1427 2991.0576 10
-2256.8521 933.70563 3002.5151 13
-2245.5864 936.42792 3011.269 15
-2235.2039 939.56488 3021.3567 13
-2223.7244 942.28772 3030.1125 13
-2211.7764 944.85468 3038.3672 11
-2197.7124 946.55255 3043.8269 11
-2183.3701 948.15771 3048.9885 11
-2172.2407 951.19641 3058.76 11
-2169.0293 957.78265 3079.9395 11
-2157.4373 960.7486 3089.4771 11
-2148.2654 964.85236 3102.6736 11
-2165.074 980.79633 3153.9446 11
-2161.4541 987.68304 3176.0901 11
-2143.9531 988.29218 3178.0488 11
-2130.5393 990.81268 3186.1541 11
-2114.4915 992.14233 3190.4299 11
-2099.9543 994.21136 3197.0833 11
-2089.3032 998.17462 3209.8279 11
-2070.8755 998.4613 3210.7495 11
-2053.9531 999.4856 3214.0435 11
-2033.9944 999.0379 3212.6038 11
-2018.7408 1000.9144 3218.6384 11
-2005.1477 1003.6581 3227.4609 11
-1991.6158 1006.4855 3236.553 11
-1988.2114 1014.5356 3262.4397 11
-1957.1284 1008.4814 3242.9714 11
-1934.6682 1006.7946 3237.5469 11
-1918.8658 1008.5732 3243.2664 11
-1906.4286 1012.1744 3254.8469 11
-1891.4915 1014.5086 3262.353 11
-1870.2932 1013.498 3259.1033 11
-1851.8757 1013.989 3260.6819 11
-1833.3751 1014.4443 3262.1465 11
-1818.8373 1017.1253 3270.7676 11
-1798.7981 1016.7546 3269.5757 11
-1775.683 1014.6183 3262.7056 11
-1757.3226 1015.1815 3264.5168 11
-1741.6332 1017.3176 3271.3857 11
-1722.4159 1017.4177 3271.7078 11
-1699.9366 1015.5715 3265.771 11
-1677.3967 1013.646 3259.5791 11
-1661.3239 1015.6293 3265.9568 11
-1640.7633 1014.8835 3263.5583 11
-1617.3459 1012.3317 3255.3525 11
-1597.4509 1011.9496 3254.124 12
-1578.3148 1012.0449 3254.4304 12
-1560.751 1013.1631 3258.0261 12
-1543.6211 1014.5945 3262.6292 12
-1523.3304 1013.9585 3260.584 12
-1502.1718 1012.7208 3256.6042 11
-1484.3022 1013.6973 3259.7441 12
-1464.3654 1013.269 3258.3669 11
-1445.0077 1013.2355 3258.259 11
-1426.5457 1013.8375 3260.1948 11
-1405.7262 1012.7576 3256.7224 11
-1385.4808 1012.067 3254.5017 11
-1366.3187 1012.1595 3254.7991 65804
-1347.3003 1012.3626 3255.4521 12
-1329.333 1013.3728 3258.7007 10
-1307.8998 1011.7318 3253.4233 10
-1293.5038 1015.5667 3265.7556 12
-1271.4214 1013.3916 3258.7612 65549
-1251.6879 1013.0505 3257.6643 11
-1233.6459 1014.0892 3261.0046 11
-1214.7621 1014.4582 3262.1907 11
-1193.811 1013.0846 3257.7737 65805
-1173.7583 1012.4407 3255.7031 65805
-1156.1947 1013.9583 3260.5833 131598
-1132.9763 1010.4839 3249.4106 131598
-1111.0826 1008.0914 3241.717 65805
-1092.4929 1008.6649 3243.5615 131598
-1073.9397 1009.2936 3245.583 131598
-1054.7296 1009.3165 3245.6567 12
-1034.1943 1008.0486 3241.5796 11
-1014.6085 1007.6755 3240.3799 11
-995.67456 1007.9481 3241.2566 11
-978.5957 1010.1463 3248.3252 11
-959.79724 1010.6221 3249.855 11
-940.56085 1010.6467 3249.9343 11
-921.1958 1010.5312 3249.563 12
-904.09131 1012.9437 3257.3206 65805
-884.50372 1012.6183 3256.2747 65805
-867.04102 1014.7657 3263.1797 65549
-847.64691 1014.6989 3262.9651 13
-827.16815 1013.3002 3258.4673 12
-809.6828 1015.5894 3265.8284 65806
-790.3446 1015.6097 3265.8938 12
-771.02936 1015.6613 3266.0596 13
-751.95374 1016.0392 3267.2749 13
-731.091 1013.9586 3260.5845 12
-712.34656 1014.7827 3263.2344 12
-693.34119 1015.2706 3264.8035 12
-674.92523 1016.6745 3269.3179 11
-655.85529 1017.1472 3270.8379 12
-635.87085 1016.1871 3267.7502 12
-617.6767 1018.1176 3273.9585 12
-599.19342 1019.6814 3278.9871 12
-579.45386 1019.1403 3277.2473 12
-560.55701 1020.0954 3280.3184 10
-541.6958 1021.1863 3283.8264 65804
-522.94824 1022.5807 3288.3103 131598
-503.79471 1023.2584 3290.4897 10
-484.49515 1023.6823 3291.8528 11
-466.42987 1026.859 3302.0681 12
-448.26544 1030.0861 3312.4453 11
-429.27612 1031.6263 3317.3987 11
-409.91931 1032.3889 3319.8508 13
-390.52545 1033.1305 3322.2351 65806
-371.50418 1034.9886 3328.2107 131343
-352.43286 1036.908 3334.3826 197136
-333.28583 1038.8193 3340.5291 131342
-313.5434 1038.9991 3341.1072 197391
-294.36649 1041.2035 3348.1958 131599
-275.06912 1043.2697 3354.8398 131598
-255.61418 1045.0134 3360.4473 12
-235.86972 1045.7684 3362.8752 11
-216.58719 1048.8997 3372.9443 65804
-197.21432 1052.1859 3383.5117 11
-177.34663 1053.277 3387.0203 11
-157.39899 1054.1111 3389.7026 11
-137.24321 1053.5917 3388.0322 65804
-117.38216 1055.5442 3394.3113 11
-97.724113 1060.5076 3410.272 12
-77.367012 1058.4951 3403.8003 12
-57.435326 1062.9358 3418.0803 13
-37.192604 1063.3234 3419.3264 13
-16.96026 1065.29 3425.6509 12
3.3430896 1065.9952 3427.9187 13
23.706144 1068.1797 3434.9431 12
44.068932 1068.3392 3435.4561 12
64.678818 1072.4954 3448.8208 12
85.289207 1074.6619 3455.7876 11
105.94769 1076.4781 3461.6282 12
126.82373 1079.5569 3471.5286 13
147.435 1079.837 3472.4292 13
168.16217 1080.7935 3475.5051 65549
189.0385 1082.3953 3480.656 65550
209.90518 1083.632 3484.6328 65551
231.06104 1086.0065 3492.2683 12
252.34589 1088.5469 3500.4375 12
273.42706 1089.8896 3504.7554 12
294.40182 1090.6483 3507.1953 12
315.51355 1091.7811 3510.8379 65550
337.15701 1094.4998 3519.5803 12
358.13263 1094.86 3520.7388 13
380.1691 1098.2452 3531.6245 13
400.215 1095.8268 3523.8477 12
421.30853 1096.3744 3525.6084 65549
442.92783 1098.1738 3531.395 65807
463.62772 1097.6343 3529.6602 65806
485.76706 1100.4021 3538.5605 131599
509.20035 1105.7506 3555.7598 12
531.37427 1108.048 3563.1475 12
549.74011 1102.5325 3545.4114 11
574.17316 1109.1432 3566.6692 11
595.30762 1109.1388 3566.655 12
617.02173 1110.1775 3569.9954 11
639.16675 1111.8971 3575.5251 11
661.22662 1113.3629 3580.2388 11
681.75745 1112.243 3576.6375 65550
703.38074 1112.9192 3578.8118 65550
725.05664 1113.6367 3581.1189 328465
746.2464 1113.588 3580.9622 262672
767.59766 1113.7761 3581.5674 262672
791.98962 1118.2474 3595.9458 328465
814.24493 1119.5468 3600.124 262673
835.97351 1120.074 3601.8193 262671
857.19806 1119.9164 3601.3127 196878
881.04816 1123.1134 3611.5933 394257
903.63898 1124.5917 3616.3467 394257
926.74316 1126.6254 3622.8867 460050
949.20239 1127.8007 3626.6663 328464
970.65564 1127.7552 3626.52 328464
993.83661 1129.6755 3632.6951 328464
1017.066 1131.5685 3638.7822 328462
1038.8027 1131.7565 3639.3865 394256
1060.9718 1132.3982 3641.4502 394258
1083.3688 1133.2527 3644.198 460050
1107.2958 1135.6431 3651.8848 525840
1131.0765 1137.7947 3658.8037 591633
1155.4907 1140.4906 3667.4729 788752
1182.0439 1145.1592 3682.4858 1181195
1270.9087 1208.9315 3887.5581 5060911
1247.0022 1165.0708 3746.5156 10784107
1263.9058 1160.2064 3730.8733 13154961
1254.6305 1131.8917 3639.8215 13683356
1300.8584 1153.761 3710.1467 12763023
1317.5432 1149.1365 3695.2754 13091732
1331.3667 1142.2083 3672.9966 13026195
1344.9758 1135.3221 3650.8528 13420953
1351.8766 1123.0808 3611.4885 13224089
1386.1438 1133.6018 3645.3208 13355675
1405.3424 1131.6656 3639.0947 13553054
1426.4941 1131.337 3638.0381 13553055
1435.9985 1121.9183 3607.7505 13355676
1458.2932 1122.6224 3610.0142 13553055
1491.2268 1131.3776 3638.1682 13421470
1507.3391 1127.3029 3625.0654 13684642
1533.5907 1130.8192 3636.3728 13750436
1559.7639 1134.181 3647.1833 12961691
1584.4675 1136.397 3654.3091 13487264
1600.8265 1132.6489 3642.2566 13487264
1628.1332 1136.6436 3655.1021 13224092
1651.2684 1137.6593 3658.3684 13355678
1662.2969 1130.4158 3635.0752 13553057
1693.6993 1137.0352 3656.3613 13355934
1728.5142 1145.7494 3684.3835 13224606
1742.9089 1140.8795 3668.7234 13619363
1770.4357 1144.6195 3680.7505 13619366
1621.6066 1035.6392 3330.3025 13619366
1792.4344 1130.9736 3636.8694 13421987
1841.3541 1148.0361 3691.7371 13619366
1871.4467 1153.0975 3708.0129 13290658
1887.5819 1149.5414 3696.5776 13619366
1909.036 1149.2689 3695.7014 13619366
1942.432 1156.1102 3717.7009 13684902
1985.6064 1168.5529 3757.7129 12828309
2017.288 1174.0309 3775.3284 13553058
2045.2366 1177.24 3785.6479 13421728
2053.1987 1169 3759.1506 13223838
2088.6101 1176.3976 3782.939 13552802
2110.4819 1176.0929 3781.9595 13355423
2132.26 1175.7429 3780.834 13553058
2157.5662 1177.3256 3785.9231 13487265
2137.7649 1154.5149 3712.571 13223580
2191.0774 1171.2523 3766.3936 13091993
2217.4373 1173.3899 3773.2671 13223322
2247.6252 1177.4901 3786.4524 13289371
2273.4119 1179.2266 3792.0359 13486750
2312.292 1187.6539 3819.136 13157785
2334.6877 1187.5332 3818.7478 13091737
2356.5928 1187.1676 3817.5723 13485979
2377.0498 1186.0864 3814.0955 13420185
2398.3921 1185.4634 3812.0918 13484952
2435.71 1192.6743 3835.28 13747353
2494.1038 1209.9767 3890.9194 13154189
2497.4688 1200.5103 3860.478 13153677
2516.9243 1198.88 3855.2358 12889219
2579.6306 1217.6953 3915.7402 13217928
2647.2888 1238.4919 3982.6155 13414793
2619.7764 1214.79 3906.3977 12821380
2599.1882 1194.6864 3841.7502 8151114
2583.3357 1177.0895 3785.1641 1837318
2605.3267 1176.8904 3784.5237 720896
2608.8987 1168.4454 3757.3674 983040
2623.918 1165.2268 3747.0173 2228992
2624.5874 1155.7434 3716.5215 2425344
2602.259 1136.3748 3654.2378 3149061
2636.1111 1141.6569 3671.2234 3278592
2655.8831 1140.8043 3668.4822 3804160
2652.5298 1130.1134 3634.103 4198917
2664.5122 1126.0756 3621.1187 4002306
2643.2012 1108.1444 3563.4573 4200707
2661.7104 1107.0593 3559.9683 4398345
2657.1641 1096.4777 3525.9404 9333823
2656.4978 1087.6495 3497.5522 11901278
2673.7168 1086.2244 3492.9692 11838328
2664.0386 1073.9777 3453.5874 13619885
2836.1274 1134.6365 3648.6479 13422523
3096.1304 1229.2826 3953.001 13685182
3135.541 1235.5812 3973.2556 13487808
2872.7305 1123.5814 3613.0981 13356732
2938.9885 1140.9919 3669.085 13422504
3000.5349 1156.3308 3718.4102 13355938
3069.6436 1174.3391 3776.3196 12825486
3160.2861 1200.2653 3859.6904 12957071
3189.6646 1202.7183 3867.5781 13223848
3273.0842 1225.3678 3940.4124 13422264
3369.6389 1252.5791 4027.9158 13422276
3347.3711 1235.5492 3973.1526 13619403
3383.6418 1240.2131 3988.1506 13684940
3378.9043 1229.886 3954.9417 13750735
3439.2986 1243.2452 3997.9006 13750478
3443.021 1236.0758 3974.8459 13750987
3347.9692 1193.7839 3838.8481 13619658
3511.9341 1243.797 3999.675 13487813
3539.0667 1245.0035 4003.5549 13356227
3568.3 1246.9281 4009.7437 13487815
3598.4512 1249.1458 4016.8752 13553603
3614.9954 1246.6418 4008.8232 13816259
3629.1345 1243.3468 3998.2273 13816256
3652.9653 1243.3932 3998.3765 13879722
3648.696 1233.936 3967.9653 13221530
3669.4519 1233.0088 3964.9839 13417623
3702.1128 1236.0685 3974.8225 13087118
3717.3398 1233.3053 3965.9368 13021069
3742.1099 1233.723 3967.2803 13283470
3782.5488 1239.269 3985.1147 13151884
3807.0676 1239.5627 3986.0593 13414797
0 0 0 0
0 0 0 0
0 0 0 0
0 0 0 0
0 0 0 0
0 0 0 0
0 0 0 0
-2808.1694 995.5564 3141.5405 2833
-2617.8435 934.27588 2948.1658 778
-2477.5215 890.13739 2808.8843 462871
-2668.1602 965.1156 3045.4824 1549
-2480.8945 903.49011 2851.0193 2320
-2463.7131 903.38525 2850.6887 1549
-2445.606 902.93732 2849.2751 1292
-2424.427 901.34113 2844.238 1549
-2410.78 902.5423 2848.0286 1035
-2403.8552 906.29486 2859.8701 521
-2381.9141 904.39911 2853.8879 521
-2371.3726 906.83545 2861.5759 1035
-2352.781 906.20642 2859.5911 68370
-2327.5842 903.00574 2849.491 2063
-2322.0586 907.4455 2863.5007 1035
-2320.3374 913.44843 2882.4436 519
-2316.135 918.55627 2898.5618 519
-2312.3411 923.90369 2915.4358 518
-2298.4771 925.27783 2919.772 520
-2287.366 927.78943 2927.6975 265
-2283.9229 933.47351 2945.6338 11
-2270.5591 935.15912 2950.9531 12
-2259.2568 937.72668 2959.0549 14
-2251.0286 941.62 2971.3408 15
-2240.9988 944.81543 2981.4241 14
-2227.5527 946.60986 2987.0864 16
-2215.8452 949.17761 2995.1892 14
-2202.6963 951.16455 3001.459 12
-2192.5564 954.49365 3011.9644 12
-2173.1694 953.81885 3009.835 11
-2170.207 960.40149 3030.6067 11
-2158.2913 963.09863 3039.1179 11
-2188.5732 984.82953 3107.6909 11
-2181.3533 989.91077 3123.7253 11
-2163.7527 990.32782 3125.0413 11
-2148.7349 991.9444 3130.1426 11
-2141.0559 997.00659 3146.1165 11
-2120.677 996.19189 3143.5457 11
-2113.5911 1001.6625 3160.8083 11
-2091.0078 999.82086 3154.9971 11
-2077.9612 1002.5471 3163.5999 11
-2069.5076 1007.559 3179.4153 11
-2055.6326 1009.9995 3187.1165 11
-2034.8181 1009.0438 3184.1008 11
-2014.9836 1008.5609 3182.5769 11
-1997.5212 1009.2675 3184.8064 11
-1985.3707 1012.6969 3195.6282 11
-1925.0466 991.38336 3128.3721 11
-1908.4159 992.37579 3131.5039 11
-1929.4709 1013.1769 3197.1428 11
-1908.7853 1012.2548 3194.2334 11
-1856.9792 994.64545 3138.6658 11
-1837.5452 994.1944 3137.2424 11
-1821.4374 995.55212 3141.5271 11
-1805.6373 997.10785 3146.4363 11
-1788.9532 998.20282 3149.8914 11
-1771.1342 998.68103 3151.4001 11
-1756.1227 1000.7693 3157.9897 11
-1738.8945 1001.6256 3160.6921 12
-1723.3947 1003.5071 3166.6292 11
-1704.6088 1003.4954 3166.5923 11
-1688.2922 1004.9534 3171.1931 12
-1672.567 1006.8001 3177.0205 10
-1655.2034 1007.6915 3179.8333 65804
-1644.7916 1012.8843 3196.2197 13
-1624.5564 1012.0783 3193.6763 11
-1614.6642 1017.7729 3211.6458 11
-1587.2531 1012.4288 3194.7822 11
-1573.3907 1015.7021 3205.1116 12
-1555.881 1016.6722 3208.1724 12
-1540.1378 1018.8348 3214.9968 12
-1516.0208 1015.4426 3204.2927 12
-1505.7822 1021.3784 3223.0232 12
-1483.5272 1019.2111 3216.1841 11
-1467.657 1021.4308 3223.1887 131342
-1448.4792 1021.377 3223.0186 197135
-1428.8463 1020.9963 3221.8176 65806
-1409.3547 1020.7078 3220.9072 11
-1387.2396 1018.4852 3213.8936 12
-1368.0569 1018.3836 3213.573 131599
-1348.6611 1018.1182 3212.7358 262929
-1331.1167 1019.263 3216.3481 197135
-1312.7139 1019.7742 3217.9609 131342
-1295.2526 1021.0425 3221.9631 131342
-1273.486 1018.9041 3215.2156 197136
-1254.5887 1019.0316 3215.6179 196879
-1233.3037 1017.1935 3209.8176 196879
-1216.2229 1018.8196 3214.9492 65550
-1197.068 1018.7324 3214.6738 12
-1176.3031 1017.2502 3209.9966 65804
-1156.8625 1016.8833 3208.8386 11
-1139.2501 1018.1379 3212.7976 11
-1117.0676 1015.2816 3203.7842 12
-1097.0969 1014.3713 3200.9121 12
-1079.332 1015.5045 3204.4878 12
-1059.9834 1015.1616 3203.4055 12
-1042.3486 1016.4772 3207.5574 11
-1025.1002 1018.2256 3213.0745 65804
-1002.9429 1015.0721 3203.1233 11
-983.60547 1014.7057 3201.9675 11
-965.26599 1015.3748 3204.0786 11
-947.7403 1016.9441 3209.0305 131598
-928.38684 1016.576 3207.8691 131598
-909.55206 1016.7725 3208.4893 197391
-891.65405 1018.0469 3212.5107 131854
-872.43481 1017.8354 3211.8433 263184
-853.27441 1017.6849 3211.3682 12
-835.31927 1018.9976 3215.5105 12
-816.79895 1019.666 3217.6196 12
-797.31561 1019.1354 3215.9456 12
-779.70374 1021.0298 3221.9231 12
-760.97931 1021.5256 3223.4878 12
-741.09399 1020.4484 3220.0889 12
-722.08612 1020.5546 3220.4236 12
-704.07977 1022.1203 3225.3645 13
-684.28821 1021.1096 3222.175 12
-665.22424 1021.1577 3222.3267 12
-647.03009 1022.5832 3226.8252 12
-629.10577 1024.5352 3232.9846 131342
-609.61414 1023.9771 3231.2234 262929
-590.63361 1024.269 3232.145 262929
-571.51263 1024.329 3232.3337 131343
-552.81842 1025.1843 3235.0332 65550
-534.83685 1027.4703 3242.2468 12
-516.40668 1029.0327 3247.1768 65550
-496.55545 1027.7748 3243.2075 12
-478.52328 1030.3322 3251.2776 11
-460.25232 1032.5685 3258.3345 12
-441.94556 1034.9169 3265.7446 12
-423.12714 1036.2272 3269.8796 65550
-404.65683 1038.5569 3277.231 131343
-385.44345 1039.1182 3279.0022 65550
-366.71826 1041.1249 3285.3347 65806
-347.29807 1041.2731 3285.8022 65550
-327.49283 1040.2157 3282.4656 65806
-309.24869 1044.2965 3295.343 65805
-290.37161 1046.6461 3302.7571 12
-271.11658 1047.8744 3306.6331 65804
-252.19547 1050.6853 3315.5032 65805
-232.73471 1051.533 3318.178 11
-213.62561 1054.2727 3326.8232 11
-194.44357 1057.1729 3335.9749 12
-174.85358 1058.2605 3339.407 12
-155.20248 1059.2086 3342.3992 12
-135.36951 1059.0115 3341.7771 10
-115.6256 1059.563 3343.5173 11
-96.09288 1062.678 3353.3469 12
-76.345184 1064.4202 3358.8442 13
-56.566429 1066.8053 3366.3708 13
-36.663647 1068.176 3370.6963 131343
-16.689201 1068.2413 3370.9023 131343
3.2945592 1070.5403 3378.157 131343
23.340223 1071.7335 3381.9221 13
43.463291 1073.7365 3388.2424 12
63.82074 1078.4341 3403.0662 12
84.003288 1078.6299 3403.6841 12
104.43231 1081.302 3412.1157 11
125.02374 1084.5159 3422.2576 65550
145.42876 1085.4413 3425.1777 11
165.87849 1086.433 3428.3069 12
186.4229 1087.7605 3432.4963 65806
207.19466 1090.0229 3439.6355 65806
227.83752 1091.2628 3443.5479 65550
248.51126 1092.4346 3447.2454 13
269.41837 1094.3761 3453.3721 12
290.3797 1096.2483 3459.28 12
311.19321 1097.3523 3462.7637 197136
332.46167 1099.8247 3470.5657 131343
353.49515 1101.277 3475.1484 13
374.82272 1103.4353 3481.9587 12
393.52557 1098.0443 3464.9475 13
415.36978 1101.5189 3475.9116 13
436.25262 1102.2361 3478.175 12
457.37079 1103.4564 3482.0254 65550
478.18958 1103.88 3483.3623 65550
500.93048 1108.5222 3498.0112 13
521.49194 1108.1642 3496.8813 131343
543.03571 1109.8411 3502.1726 65550
565.99792 1114.1869 3515.8862 11
587.17645 1114.8373 3517.9387 11
607.13043 1113.1981 3512.7661 11
627.63123 1112.6368 3510.9949 11
648.5968 1112.9091 3511.854 12
669.98126 1113.8607 3514.8572 12
691.76105 1115.3925 3519.6907 13
712.49377 1115.1958 3519.0701 13
733.36755 1115.2247 3519.1611 65549
755.16174 1116.613 3523.542 131086
779.38269 1121.4182 3538.7053 196878
800.24628 1121.2677 3538.2302 131341
824.56842 1125.8468 3552.6799 196878
843.90015 1123.554 3545.4448 131085
867.41992 1126.813 3555.7285 65548
889.37396 1127.9315 3559.2583 131085
911.1087 1128.7267 3561.7673 131085
933.41431 1130.177 3566.344 262671
955.2041 1130.9523 3568.7905 328464
978.18494 1133.0737 3575.4849 394257
1000.013 1133.7982 3577.771 525843
1021.9307 1134.5919 3580.2759 460050
1045.1893 1136.8121 3587.2817 525843
1069.3412 1139.8959 3597.0127 394258
1090.287 1139.5082 3595.7893 460048
1111.4553 1139.3636 3595.3333 657171
1132.5848 1139.1854 3594.7708 787986
1156.2529 1141.52 3602.1377 1181711
1213.0728 1175.906 3710.6448 2102549
1260.1584 1199.7996 3786.0425 8416599
1213.3512 1135.0253 3581.6433 12759437
1251.3451 1150.4415 3630.29 13552800
1265.1775 1143.4988 3608.3818 13618848
1287.2939 1144.1498 3610.436 13486749
1315.5682 1150.1631 3629.4114 13486748
1332.1028 1145.8843 3615.9094 13421213
1350.0225 1142.9137 3606.5354 13421211
1372.1981 1143.5825 3608.646 13421211
1390.3469 1140.9263 3600.2644 13289881
1373.6256 1110.1683 3503.2056 13421468
1416.8921 1128.0868 3559.7483 13355676
1438.3589 1128.3778 3560.6667 13289883
1472.3098 1138.3125 3592.0161 13618848
1494.1023 1138.6976 3593.2314 13684641
1507.4658 1132.7383 3574.4265 13618848
1530.2585 1133.9314 3578.1912 13553827
1547.9326 1131.3506 3570.0474 13356191
1568.4357 1130.879 3568.5596 13487521
1598.3934 1137.1466 3588.3372 13553057
1622.5255 1139.1594 3594.6887 13618849
1647.1604 1141.4685 3601.9751 13618850
1681.6595 1150.4668 3630.3699 13684643
1689.183 1141.0162 3600.5481 13422241
1711.6823 1141.791 3602.9929 13553571
1737.274 1144.5844 3611.8074 13487778
1761.3005 1146.2909 3617.1926 13487778
1788.1023 1149.7408 3628.0791 13422242
1818.7209 1155.5341 3646.3599 13158041
1841.8043 1156.4596 3649.2805 13421473
1862.1575 1155.6694 3646.7871 13421217
1885.7404 1156.8788 3650.6033 13750438
1906.0984 1156.1047 3648.1606 13750439
1958.0997 1174.3254 3705.6572 13355423
1995.5428 1183.5078 3734.6328 13289372
1983.2915 1163.3394 3670.99 13420958
2006.8241 1164.3708 3674.2446 13486750
2034.4825 1167.748 3684.9019 13420958
2056.3367 1167.7576 3684.9319 13420960
2081.9099 1169.8566 3691.5557 13486753
2107.2593 1171.7875 3697.6484 13420960
2126.2493 1170.1787 3692.572 13618595
2155.6047 1174.2494 3705.417 13486753
2181.2141 1176.2177 3711.6284 13420702
2210.04 1179.864 3723.1345 13223065
2237.3997 1182.6632 3731.9678 13420445
2264.8054 1185.4316 3740.7036 13485981
2288.8975 1186.429 3743.8506 13420701
2322.1309 1192.1 3761.7456 13618336
2347.5383 1193.6836 3766.7432 13815716
2373.0266 1195.2781 3771.7747 13881253
2395.9722 1195.5741 3772.7087 13749407
2426.655 1199.6898 3785.6963 13748381
2447.7183 1199.0181 3783.5762 13418648
2478.5881 1203.1184 3796.5154 13549209
2488.5405 1197.083 3777.4702 13483669
2495.0063 1189.4932 3753.5198 13483155
2516.853 1189.3053 3752.9272 13811860
2531.2754 1185.6432 3741.3711 13021574
0 0 0 0
2575.0396 1185.3761 3740.5283 14006666
2603.8635 1188.4143 3750.1155 13742207
2613.7971 1182.8524 3732.5647 11373140
2601.1885 1167.2682 3683.3877 10451786
2611.9661 1162.3503 3667.8691 6832674
2607.823 1150.9287 3631.8276 3019017
2643.2705 1157.0239 3651.061 2162688
2641.0215 1146.6533 3618.3359 3016193
2650.4556 1141.4813 3602.0154 3541760
2632.689 1124.7709 3549.2849 4266758
2670.499 1131.8815 3571.7227 4398594
2662.2136 1119.4965 3532.6409 5057801
2651.093 1106.1218 3490.4363 11243098
2672.3672 1106.3656 3491.2058 9533778
2646.3989 1087.1975 3430.7197 13947581
2692.1321 1097.5537 3463.3992 13750457
2742.2908 1109.5437 3501.2344 13158319
2865.5222 1150.6971 3631.0969 13487804
2991.0552 1192.1544 3761.918 13554106
2901.1453 1147.7639 3621.8408 13422009
2941.5964 1155.2206 3645.3708 13619901
3004.4646 1171.308 3696.1355 13618347
3097.2041 1198.7236 3782.6475 13090201
3179.2615 1221.6407 3854.9639 13156248
3188.668 1216.5138 3838.7852 13354137
3462.7585 1311.724 4139.2271 13421476
3265.5769 1228.3285 3876.0671 13553331
3333.0408 1244.9475 3928.5095 13422524
3333.2019 1236.3717 3901.4482 13488071
3411.2224 1256.5951 3965.2644 13750732
3425.8784 1253.36 3955.0554 13750988
3419.3821 1242.4827 3920.7317 13750988
3446.5923 1243.9174 3925.2588 13488329
3485.3494 1249.4722 3942.7874 13356483
3516.5706 1252.2695 3951.6145 13160116
3541.9739 1252.9718 3953.8311 12367769
3556.9824 1250.0118 3944.4905 13289130
3564.8665 1244.6033 3927.4233 13684661
3586.0498 1243.8778 3925.134 13815990
3612.6843 1245.0404 3928.8025 13684404
3594.6858 1230.9045 3884.196 13815726
3601.1816 1225.2828 3866.4565 13417368
3650.3425 1234.157 3894.4592 13021581
3674.4604 1234.5057 3895.5601 13152656
3699.7961 1235.257 3897.9304 13284239
3731.7698 1238.2012 3907.2212 13284499
0 0 0 0
0 0 0 0
0 0 0 0
0 0 0 0
0 0 0 0
0 0 0 0
0 0 0 0
-2682.7217 968.86829 3001.2002 2320
-2664.4578 968.6944 3000.6616 68113
-2502.5232 915.93414 2837.2297 68113
-2493.0681 918.64581 2845.6294 521
-2466.9551 915.21436 2835 1806
-2438.2004 910.74927 2821.1687 1034
-2415.8059 908.6145 2814.5562 521
-2398.6992 908.45282 2814.0554 263
-2385.5876 909.81256 2818.2671 264
-2372.5098 911.20428 2822.5784 521
-2368.4963 916.12189 2837.8113 521
-2353.9172 916.9939 2840.5125 778
-2330.0103 914.21851 2831.9153 1035
-2322.2634 917.78949 2842.9768 521
-2306.2878 918.1369 2844.053 521
-2302.5378 923.39215 2860.332 520
-2299.7068 929.09668 2878.0024 521
-2284.8862 930.00641 2880.8203 522
-2288.0122 938.28955 2906.4785 12
-2276.7229 940.74188 2914.0752 15
-2263.76 942.53497 2919.6294 15
-2249.6182 943.86102 2923.7371 15
-2240.5151 947.33813 2934.5078 13
-2231.7229 951.0022 2945.8577 13
-2218.28 952.72644 2951.199 12
-2200.5876 952.63861 2950.9268 14
-2188.3604 954.93414 2958.0376 12
-2172.2805 955.57208 2960.0134 12
-2164.6035 959.94684 2973.5649 11
-2145.6641 959.35779 2971.7402 11
-2175.4165 980.70996 3037.8816 11
-2175.2646 988.82471 3063.0181 11
-2161.0403 990.62524 3068.5955 11
-2154.1768 995.85919 3084.8083 11
-2143.3872 999.35217 3095.6282 11
-2122.8142 998.3045 3092.3831 11
-2111.3135 1001.5422 3102.4124 11
-2095.9036 1002.9662 3106.8232 11
-2084.8826 1006.5342 3117.8757 11
-2069.6541 1008.1168 3122.7776 11
-2053.6914 1009.3669 3126.6501 11
-1992.0447 987.98206 3060.408 11
-1977.9224 989.99133 3066.6318 11
-1961.7096 990.98181 3069.7 11
-1948.6759 993.61194 3077.8472 11
-1936.1161 996.53552 3086.9033 11
-1909.0477 991.97595 3072.7795 11
-1897.5861 995.5163 3083.7463 11
-1882.3066 997.10309 3088.6614 11
-1861.8717 995.96326 3085.1309 11
-1847.2821 997.95856 3091.3115 11
-1834.4919 1000.9758 3100.6577 11
-1815.6099 1000.6964 3099.7922 11
-1800.666 1002.6042 3105.7017 11
-1785.0411 1004.1682 3110.5464 11
-1767.6498 1004.7606 3112.3816 11
-1747.1921 1003.6043 3108.7998 11
-1730.0076 1004.3235 3111.0276 11
-1713.5739 1005.4987 3114.6682 11
-1695.7922 1005.9001 3115.9114 11
-1676.519 1005.4157 3114.4109 11
-1658.1948 1005.496 3114.6597 11
-1640.2551 1005.814 3115.6445 65805
-1658.1464 1028.361 3185.4871 11
-1630.1609 1022.6475 3167.7888 11
-1611.9005 1022.9729 3168.7966 12
-1592.3016 1022.4464 3167.1655 65805
-1573.788 1022.6124 3167.6802 65805
-1557.5552 1024.2825 3172.8533 13
-1534.3365 1021.3433 3163.7488 13
-1518.4037 1023.2411 3169.6274 12
-1504.4454 1026.5337 3179.8269 12
-1481.127 1023.4421 3170.2502 12
-1456.1379 1019.102 3156.8059 12
-1443.7018 1023.5485 3170.5796 12
-1424.8688 1023.5173 3170.4829 12
-1403.9962 1022.0005 3165.7847 65550
-1383.868 1020.9919 3162.6604 65806
-1366.2107 1021.8037 3165.1748 131599
-1346.2428 1020.8858 3162.3315 197392
-1325.4429 1019.3022 3157.426 197136
-1306.807 1019.3612 3157.6089 131343
-1290.1121 1020.958 3162.5552 65806
-1269.7748 1019.6769 3158.5869 65550
-1250.7528 1019.4295 3157.8206 131343
-1232.8536 1020.1037 3159.9089 131343
-1214.1305 1020.1063 3159.917 197391
-1196.1801 1020.7685 3161.968 12
-1175.1006 1018.739 3155.6814 11
-1154.6875 1017.2309 3151.01 11
-1136.464 1017.6339 3152.2583 65805
-1117.2759 1017.1722 3150.8281 197391
-1099.579 1018.0754 3153.626 197391
-1080.2393 1017.4626 3151.7278 131598
-1060.4543 1016.4015 3148.4409 12
-1041.0322 1015.6562 3146.1326 11
-1022.5202 1015.788 3146.5405 11
-1005.2493 1017.1805 3150.854 11
-986.19659 1016.7888 3149.6404 65805
-966.74121 1015.9585 3147.0686 11
-948.53766 1016.4371 3148.5513 65804
-932.60168 1019.4137 3157.7715 263184
-913.76154 1019.2725 3157.3342 197391
-895.68445 1019.9944 3159.5706 65805
-878.3764 1021.6417 3164.6729 11
-861.97607 1024.4396 3173.3398 10
-841.66217 1022.6074 3167.6643 12
-820.4317 1019.5526 3158.2017 12
-802.02203 1019.9424 3159.4092 12
-783.12531 1019.7165 3158.7095 12
-765.34473 1020.9687 3162.5881 11
-746.49097 1020.816 3162.1155 12
-727.74286 1020.8038 3162.0776 12
-709.53412 1021.5675 3164.4431 12
-691.05872 1021.9783 3165.7156 11
-674.27686 1024.9862 3175.0334 65549
-654.47827 1023.4496 3170.2734 131087
-636.24872 1024.3483 3173.0571 131343
-617.61786 1024.6359 3173.948 65550
-599.20282 1025.3108 3176.0388 65806
-581.13562 1026.6442 3180.1687 131600
-561.97876 1026.0771 3178.4126 65549
-543.53467 1026.8174 3180.7056 131343
-524.90753 1027.2527 3182.054 263184
-507.57166 1030.3416 3191.6221 394770
-488.07568 1029.115 3187.8225 263184
-470.12228 1031.1731 3194.1978 65805
-451.48624 1031.8438 3196.2754 13
-433.55624 1034.2574 3203.7522 11
-414.9346 1035.1666 3206.5686 11
-396.25064 1036.0004 3209.1511 131598
-377.96463 1038.0109 3215.3789 131087
-359.22781 1038.9312 3218.2297 13
-340.59369 1040.2684 3222.3718 13
-321.91888 1041.6327 3226.5979 12
-303.345 1043.5166 3232.4336 10
-284.68912 1045.3533 3238.1228 12
-265.39395 1044.9385 3236.8381 12
-246.8721 1047.7411 3245.5193 12
-228.10133 1049.8713 3252.1184 11
-209.50676 1053.2809 3262.6797 11
-190.37514 1054.4093 3266.175 11
-171.40047 1056.7606 3273.4587 11
-152.03459 1056.9923 3274.1765 11
-132.77284 1058.1217 3277.675 10
-113.51389 1059.6644 3282.4536 11
-94.170471 1060.8934 3286.2607 12
-74.813354 1062.569 3291.4507 11
-55.405453 1064.4504 3297.2791 12
-35.973331 1067.6633 3307.2314 65806
-16.371391 1067.4952 3306.7107 131343
3.2333763 1070.3074 3315.4214 12
22.884653 1070.4656 3315.9116 131343
42.614124 1072.4454 3322.0444 197137
62.332928 1072.9905 3323.7329 262929
82.229881 1075.604 3331.8286 13
102.09777 1076.8989 3335.8396 65550
122.06701 1078.6692 3341.3232 131343
142.01901 1079.8143 3344.8706 131087
162.3455 1083.1775 3355.2886 12
182.32896 1083.7678 3357.1172 13
202.85849 1087.1685 3367.6511 13
223.2617 1089.3435 3374.3887 65549
243.41014 1090.0201 3376.4846 65550
263.80176 1091.6001 3381.3789 12
284.12543 1092.6958 3384.7729 12
304.97632 1095.5409 3393.5859 12
326.1134 1098.9984 3404.2961 65805
346.51126 1099.7072 3406.4912 131599
365.41092 1095.8446 3394.5266 65805
386.14441 1097.5979 3399.9575 11
407.03598 1099.6042 3406.1726 11
427.97394 1101.5404 3412.1702 11
448.89145 1103.2516 3417.4707 11
470.45923 1106.3444 3427.051 131598
490.97617 1106.8121 3428.4998 12
511.51697 1107.2944 3429.9939 65805
532.51721 1108.6963 3434.3364 11
552.95508 1108.8673 3434.866 11
574.21887 1110.6235 3440.3064 11
595.29895 1111.9163 3444.3108 11
615.15753 1110.9172 3441.2163 11
636.06757 1111.8204 3444.0142 11
658.01758 1114.4287 3452.0935 11
677.28882 1112.4796 3446.0559 12
699.63367 1115.5454 3455.5525 65549
719.3573 1114.3762 3451.9309 10
743.76733 1120.3309 3470.3765 65547
765.23041 1121.6456 3474.4485 131085
787.84155 1124.53 3483.3833 11
806.60358 1121.9133 3475.2781 11
826.96454 1121.5956 3474.2937 65547
847.68677 1121.7714 3474.8381 11
871.2251 1125.577 3486.627 196878
890.81921 1124.2286 3482.4502 196878
910.63208 1123.2113 3479.2986 262671
933.78906 1126.2723 3488.7805 196878
955.98859 1128.071 3494.3523 328464
976.89142 1128.2958 3495.0483 460050
998.3996 1129.1958 3497.8362 394258
1024.0496 1134.6482 3514.7261 460050
1045.0081 1134.7888 3515.1616 525843
1066.6282 1135.6284 3517.7622 460048
1088.2891 1136.4784 3520.395 591377
1110.3926 1137.7499 3524.3337 657172
1133.5601 1140.0443 3531.4412 722960
1166.1868 1151.5967 3567.2261 1181452
1197.92 1161.871 3599.0522 4601646
1212.4138 1155.3577 3578.8765 10784880
1225.0344 1147.3138 3553.9597 13154962
1246.4801 1147.6677 3555.0557 13685153
1266.595 1146.8047 3552.3823 13619105
1284.9358 1144.3899 3544.9023 13420955
1300.7218 1139.8141 3530.7278 13487261
1322.6171 1140.6517 3533.323 13486749
1343.6403 1140.723 3533.5437 13025942
1362.1827 1138.7185 3527.334 13289370
1382.2672 1138.0438 3525.2446 13223576
1401.6066 1136.7852 3521.3455 13487006
1423.2192 1137.38 3523.1882 13355676
1450.3617 1142.3131 3538.469 13289883
1476.9419 1146.6689 3551.9619 13750433
1499.7086 1147.9833 3556.0332 13553056
1524.6454 1150.8993 3565.0659 13684900
1545.1709 1150.4513 3563.678 13619363
1565.561 1149.9159 3562.0195 13618850
1590.7051 1152.84 3571.0774 13750436
1607.7386 1149.8865 3561.9287 13289884
1634.8513 1154.1249 3575.0576 13289884
1658.067 1155.5392 3579.4385 13421470
1680.0308 1156.0559 3581.0393 13289885
1699.8654 1155.1133 3578.1194 13158556
1709.7354 1147.5057 3554.554 13553571
1750.863 1160.8071 3595.7568 13619367
1765.4589 1156.4099 3582.1357 13619366
1781.5597 1153.0909 3571.855 13553573
1812.9286 1159.6161 3592.0676 13684905
1835.8496 1160.6489 3595.2668 13290402
1862.6556 1164.0861 3605.9138 13487524
1884.7567 1164.5382 3607.3142 13750439
1915.6473 1170.3499 3625.3169 13684902
1938.8075 1171.3623 3628.4531 13750182
1961.194 1171.8904 3630.0884 13355421
1980.4974 1170.5845 3626.0437 13552544
2007.7229 1173.939 3636.4343 13355165
2032.4711 1175.7888 3642.1648 13289374
2048.9302 1172.8551 3633.0771 13223837
2063.4285 1168.8717 3620.7378 13486752
2091.1357 1172.3755 3631.5916 13552546
2117.1738 1174.882 3639.3555 13552545
2140.0266 1175.5881 3641.5427 13552546
2152.1499 1170.4446 3625.6104 13223068
2186.7678 1177.5157 3647.5142 13354652
2216.3958 1181.7878 3660.7473 13223066
2234.3796 1179.8286 3654.6782 13091995
2260.2715 1182.0424 3661.5359 13618337
2282.3542 1182.2412 3662.1516 13815715
2308.2087 1184.3716 3668.751 13815716
2341.2473 1190.1139 3686.5386 13749922
2369.5481 1193.3641 3696.6064 13617824
2392.9258 1194.0981 3698.8804 13748638
2414.189 1193.7732 3697.8738 13682329
2428.8496 1190.2186 3686.8628 13616279
2446.3574 1188.1102 3680.3318 13483667
2468.3733 1188.2091 3680.6379 13417872
2494.0654 1190.0604 3686.3728 13547915
2523.7607 1193.7731 3697.8733 13481607
2542.3311 1192.205 3693.0156 13414529
2561.6252 1191.0001 3689.2837 13545083
2579.8523 1189.3237 3684.0906 13347448
2566.366 1173.1782 3634.0776 13083249
2561.0591 1161.0093 3596.3828 12359013
2603.6682 1170.5837 3626.0413 12227426
2583.9463 1152.2075 3569.1184 12687468
2644.6353 1169.6946 3623.2869 9594439
2657.5647 1165.9465 3611.6768 2624516
2661.0178 1158.1342 3587.4771 1179648
2654.0549 1145.9482 3549.7292 2359552
2639.0708 1130.5178 3501.9314 2688768
2660.8633 1130.9596 3503.2998 10058825
2663.5276 1123.3273 3479.658 5386515
2672.6521 1118.5159 3464.7539 13420968
2698.064 1120.5421 3471.0305 13684914
2706.7737 1115.6536 3455.8877 13289648
2839.4683 1161.5577 3598.082 13290674
2803.7415 1138.394 3526.3293 13422263
2826.4863 1139.1384 3528.6353 12895401
2908.0144 1163.3889 3603.7542 13685695
2944.4988 1169.3967 3622.3645 13816252
2995.822 1181.1683 3658.8284 13355946
3097.7236 1212.5691 3756.0964 13024406
3103.0449 1205.9862 3735.7048 13878944
3169.9136 1223.2472 3789.1733 13154450
3189.4644 1222.134 3785.7253 12958355
3225.04 1227.1342 3801.2139 12695186
3242.5339 1225.2324 3795.3228 13289901
3293.0601 1235.7524 3827.9102 13553604
3746.9688 1396.4662 4325.7427 13750982
3785.5469 1401.2573 4340.5835 13750729
3398.4856 1249.4922 3870.4709 13750986
3409.9734 1245.311 3857.519 13685451
3451.3174 1252.0161 3878.2888 13685452
3470.5635 1250.6692 3874.1167 13618883
3512.0598 1257.3055 3894.6738 13618091
3502.2878 1245.6212 3858.48 13025694
3502.5098 1237.6199 3833.6948 12695702
3518.9768 1235.4249 3826.8953 13815723
3521.0215 1228.2269 3804.5989 14012850
3564.4854 1235.4771 3827.0569 14012592
3566.3267 1228.2998 3804.8245 13485219
3576.999 1224.2354 3792.2344 13352347
3609.2112 1227.5476 3802.4946 13220762
3608.3894 1219.6531 3778.04 13220510
0 0 0 0
0 0 0 0
0 0 0 0
0 0 0 0
0 0 0 0
0 0 0 0
0 0 0 0
0 0 0 0
-2629.8108 973.64941 2961.6431 1549
-2520.8489 939.57861 2858.0063 520
-2646.2007 992.97174 3020.4175 133392
-2545.6782 961.75684 2925.468 1034
-2400.7681 913.22919 2777.8569 263
-2368.5771 907.20483 2759.532 520
-2368.2905 913.40149 2778.3811 263
-2341.3455 909.33142 2766.0007 264
-2332.5623 912.30731 2775.0527 521
-2324.4387 915.58521 2785.0234 521
-2311.0864 916.83582 2788.8276 521
-2309.2952 922.724 2806.738 521
-2300.5945 925.91656 2816.4492 521
-2288.5305 927.7923 2822.155 267
-2281.5046 931.75323 2834.2034 269
-2268.6431 933.37201 2839.1272 15
-2262.8372 937.93945 2853.0205 17
-2255.0161 941.73425 2864.5635 16
-2241.0232 942.98944 2868.3813 14
-2229.8982 945.4798 2875.9568 14
-2221.4431 949.14941 2887.1189 15
-2213.144 952.94324 2898.6589 12
-2205.2668 956.97919 2910.9355 12
-2200.209 962.31219 2927.1575 12
-2207.5271 973.18567 2960.2324 12
-2196.8701 976.24573 2969.5405 12
-2201.9568 986.40771 3000.4512 12
-2192.9739 990.38123 3012.5378 11
-2160.9097 983.91064 2992.8555 11
-2155.2959 989.47583 3009.7837 11
-2146.4822 993.65283 3022.4893 11
-2139.4753 998.74353 3037.9741 11
-2126.8772 1001.2883 3045.7148 11
-2117.6609 1005.4825 3058.4727 11
-2097.3125 1004.4177 3055.2336 11
-2079.4109 1004.5165 3055.5342 11
-2067.9705 1007.7655 3065.4172 11
-2003.0596 984.78406 2995.5122 11
-1998.6213 991.38818 3015.6006 11
-1977.6237 989.82324 3010.8406 11
-1960.1119 989.99048 3011.3491 11
-1945.2695 991.52142 3016.0059 11
-1929.2013 992.45013 3018.8308 11
-1912.3458 992.98749 3020.4653 11
-1896.9603 994.30536 3024.4741 11
-1878.6687 994.11072 3023.8818 11
-1866.2322 997.04028 3032.7932 11
-1854.1058 1000.1943 3042.387 11
-1837.2797 1000.85 3044.3816 11
-1821.2224 1001.9417 3047.7021 11
-1802.5126 1001.5814 3046.6062 11
-1786.2999 1002.6153 3049.7512 12
-1768.6422 1002.8511 3050.4685 11
-1752.8607 1004.1666 3054.4697 11
-1732.2598 1002.7197 3050.0688 11
-1717.4589 1004.6351 3055.895 11
-1700.2556 1005.171 3057.5254 11
-1683.8835 1006.2153 3060.7017 11
-1665.1813 1005.8748 3059.6658 11
-1650.1196 1007.7499 3065.3699 11
-1634.4531 1009.2934 3070.0647 11
-1613.3036 1007.4478 3064.4504 12
-1632.2034 1030.854 3135.6475 11
-1607.3185 1026.8278 3123.4006 11
-1584.5681 1024.0873 3115.0645 11
-1567.9772 1025.3098 3118.7832 10
-1548.6761 1024.7682 3117.1357 11
-1535.8184 1028.5286 3128.574 12
-1515.1027 1027.0542 3124.0891 65550
-1494.4117 1025.5602 3119.5449 65549
-1474.5364 1024.5955 3116.6106 12
-1454.4286 1023.4427 3113.1042 65550
-1435.325 1022.9762 3111.6848 12
-1419.4323 1024.8157 3117.2803 12
-1401.6904 1025.351 3118.9087 12
-1386.0851 1027.4845 3125.3979 12
-1366.3461 1026.5698 3122.6162 11
-1346.1989 1025.3193 3118.8123 11
-1333.3165 1029.6442 3131.9675 11
-1309.9983 1025.9183 3120.6343 65806
-1290.3475 1024.9991 3117.8384 131598
-1271.6151 1024.7932 3117.2119 65806
-1254.2444 1025.6949 3119.9546 65549
-1235.542 1025.5182 3119.4172 65549
-1212.9427 1022.0525 3108.8752 13
-1197.4082 1024.5248 3116.3953 65806
-1177.9698 1023.6818 3113.8313 10
-1158.4283 1022.7209 3110.9087 11
-1136.8909 1019.9386 3102.4451 131598
-1118.6143 1020.038 3102.7476 65805
-1098.0538 1018.0235 3096.6199 12
-1081.1334 1019.3727 3100.7236 131598
-1062.7635 1019.3781 3100.7402 11
-1041.7809 1016.8334 3093 11
-1022.4346 1015.8235 3089.928 11
-1003.6136 1015.3083 3088.3606 11
-988.5058 1018.5999 3098.3733 11
-970.86401 1019.3557 3100.6721 12
-953.51013 1020.4489 3103.9971 65804
-935.21448 1020.5572 3104.3267 131598
-915.98004 1019.6248 3101.4907 65804
-899.51331 1021.7983 3108.1021 131597
-879.79498 1020.2917 3103.5195 65805
-862.1308 1021.1539 3106.1421 11
-842.51373 1019.6904 3101.6899 11
-823.23029 1018.574 3098.2944 12
-805.81592 1019.7723 3101.9392 12
-786.39868 1018.4325 3097.864 12
-767.97528 1018.3466 3097.6025 12
-750.32672 1019.309 3100.53 12
-731.56354 1018.7677 3098.8835 12
-713.25488 1018.8477 3099.1267 12
-695.53766 1019.799 3102.0205 12
-677.9895 1021.0566 3105.8459 131343
-659.88293 1021.5201 3107.2556 65550
-641.82928 1022.0943 3109.0022 65806
-624.48822 1023.8707 3114.4058 131343
-606.88574 1025.3138 3118.7957 197137
-588.82074 1026.0415 3121.009 65805
-570.04681 1025.5413 3119.4871 11
-552.16406 1026.6642 3122.9028 11
-533.56213 1026.4816 3122.3474 11
-516.43768 1029.2303 3130.7087 11
-497.83072 1029.1193 3130.3708 11
-480.53384 1031.8127 3138.5637 11
-461.31784 1030.4362 3134.3767 11
-443.86124 1033.0392 3142.2944 11
-425.08521 1032.6648 3141.1555 12
-407.53406 1035.3679 3149.3782 12
-388.90866 1035.4705 3149.6899 65550
-371.37064 1038.6244 3159.2834 65550
-352.63278 1038.5795 3159.1467 197136
-334.27689 1039.7174 3162.6082 131343
-315.94797 1041.0795 3166.7515 11
-297.48386 1042.14 3169.9775 65805
-279.14841 1043.8246 3175.1016 65805
-260.31738 1043.7657 3174.9224 65805
-242.40434 1047.6652 3186.7837 65804
-223.81117 1049.0355 3190.9521 11
-205.27014 1050.9259 3196.7024 131598
-186.42397 1051.4796 3198.3865 11
-167.91838 1054.297 3206.9565 11
-148.99797 1054.8967 3208.7808 11
-130.10255 1055.8748 3211.7554 11
-111.18582 1056.9851 3215.1331 197391
-92.364853 1059.6537 3223.2502 11
-73.39286 1061.5293 3228.9553 12
-54.202148 1060.4485 3225.6682 12
-35.189995 1063.5872 3235.2153 12
-16.032318 1064.5763 3238.2241 13
3.162658 1066.1165 3242.9089 65806
22.360405 1065.1437 3239.9497 13
41.751476 1070.0243 3254.7957 131343
61.076328 1070.6595 3256.728 197136
80.368538 1070.5549 3256.4097 13
99.949409 1073.5914 3265.646 12
119.35438 1074.0598 3267.0708 12
139.29536 1078.5479 3280.7224 12
159.12514 1081.1808 3288.7317 12
178.97357 1083.3522 3295.3362 12
198.68983 1084.3749 3298.4473 13
218.69028 1086.6263 3305.2959 65550
238.76567 1088.8495 3312.0583 131599
258.82324 1090.66 3317.5652 131343
278.92422 1092.3846 3322.8113 13
299.15826 1094.3687 3328.8462 65806
319.15125 1095.2799 3331.6182 13
338.36551 1093.5682 3326.4116 12
358.70853 1095.4923 3332.2639 12
378.70419 1096.21 3334.4473 12
399.06177 1097.8522 3339.4424 11
419.62415 1099.876 3345.5984 12
439.95609 1101.1405 3349.4448 12
460.53357 1102.8839 3354.7478 65805
481.27383 1104.8566 3360.7483 131597
501.40222 1105.3236 3362.1689 197391
521.37946 1105.4346 3362.5063 12
542.80646 1108.4979 3371.8245 11
562.40411 1107.7406 3369.521 11
582.53455 1108.0486 3370.4578 65804
602.54004 1108.1064 3370.6338 12
623.2442 1109.4043 3374.5813 11
642.97064 1108.9349 3373.1541 11
663.22064 1109.3698 3374.4766 11
683.92981 1110.5249 3377.99 11
704.23505 1110.9768 3379.3647 11
723.97583 1110.5381 3378.0303 11
745.78326 1113.2076 3386.1506 11
768.23645 1116.676 3396.7009 65547
788.75659 1117.2294 3398.3838 131085
809.0567 1117.4512 3399.0583 131085
829.37872 1117.6917 3399.7898 65548
849.78888 1118.0367 3400.8396 262671
872.85742 1121.7822 3412.2327 460050
893.20874 1121.9452 3412.7285 328464
914.04865 1122.701 3415.0276 131085
936.96368 1125.9176 3424.8118 394257
957.46893 1126.1636 3425.5598 328465
977.9588 1126.3816 3426.2231 394258
1000.1226 1128.4794 3432.6042 525843
1020.2803 1128.2754 3431.9834 394257
1041.5854 1129.3231 3435.1707 196878
1062.8838 1130.3236 3438.2139 328462
1083.5326 1130.6088 3439.0813 525329
1103.6654 1130.3549 3438.3088 722194
1122.8036 1129.1099 3434.522 656396
1137.7096 1123.7291 3418.1548 1313293
0 0 0 0
0 0 0 0
1215.8459 1140.0122 3467.6846 13553311
1241.9861 1145.1664 3483.3623 13750177
1260.4594 1143.1984 3477.3762 13684128
1289.6396 1150.8484 3500.646 13750436
1292.0378 1134.7347 3451.6316 13421726
1321.1897 1142.2537 3474.5027 13223833
1334.0238 1135.6505 3454.4172 13157527
1354.3621 1135.5387 3454.0771 13355419
1364.6578 1127.1356 3428.5168 13553055
1422.1222 1157.3665 3520.4727 13750434
1452.0881 1164.6675 3542.6809 13553055
1440.1208 1138.6067 3463.4092 13618848
1458.0062 1136.5492 3457.1506 13223576
1550.5918 1191.9722 3625.7361 13421215
1504.8871 1141.0265 3470.77 13421215
1544.9292 1155.5927 3515.0771 13487264
1543.0123 1138.8037 3464.0085 13487264
1557.389 1134.323 3450.3794 13619106
1594.8937 1146.5854 3487.6792 13619363
1609.4207 1142.2267 3474.4204 13553570
1633.7118 1144.8202 3482.3093 13487778
1649.7233 1141.6194 3472.5732 13355678
1675.4005 1145.1036 3483.1719 13355421
1694.5925 1144.1246 3480.1938 13355421
1721.4977 1148.3143 3492.9377 13356448
1749.9122 1153.3992 3508.405 13553572
1770.069 1152.9856 3507.147 13553060
1790.7999 1152.9514 3507.0432 13290402
1818.6837 1157.4702 3520.7883 13487781
1838.4303 1156.7665 3518.6477 13619367
1876.0419 1167.1935 3550.3645 13619368
1900.988 1169.5967 3557.6746 13684389
1917.5662 1166.855 3549.335 13289631
1942.9678 1169.4839 3557.3313 13158045
1968.7345 1172.2737 3565.8174 13355167
1989.1462 1171.8496 3564.5273 13486752
2001.7113 1166.8602 3549.3506 13289374
2036.8175 1174.9779 3574.043 13486496
2040.006 1164.7057 3542.7969 12894616
2073.7603 1171.916 3564.7292 13815718
2100.2104 1174.8948 3573.79 13749155
2125.873 1177.3778 3581.3433 13157274
2145.7126 1176.6187 3579.0342 13090966
2159.2725 1172.4648 3566.3987 12959637
2183.0959 1173.9103 3570.7957 13288601
2221.1709 1182.9178 3598.1951 13684130
2241.4153 1182.3486 3596.4634 13618337
2273.3887 1187.9188 3613.4067 13749666
2292.0125 1186.4745 3609.0134 13749667
2322.4543 1191.1182 3623.1384 13683358
2337.7441 1187.9768 3613.583 13617308
2357.9612 1187.3735 3611.748 13682844
2377.9072 1186.646 3609.5349 13813917
2403.3708 1188.6603 3615.6619 13616022
2433.8491 1193.0972 3629.1582 13812888
2446.1956 1188.6459 3615.6182 13548688
2467.3333 1188.5066 3615.1946 13219464
2488.8647 1188.5577 3615.3501 13613710
2533.4705 1199.533 3648.7346 13810828
2557.9246 1200.8621 3652.7773 13678985
2572.3667 1197.5078 3642.5747 13743237
2595.2327 1198.0985 3644.3711 13808003
2594.9507 1188.0812 3613.9004 13543805
2594.3188 1178.0691 3583.4458 13345912
2599.0698 1170.6439 3560.8599 13674108
2590.666 1157.4611 3520.7605 12622190
2533.7314 1122.9795 3415.8748 12819827
2599.2668 1142.8945 3476.4519 9596489
2655.8994 1158.6124 3524.2625 2427651
2636.7476 1141.2826 3471.5491 9068856
2667.8303 1145.7964 3485.2788 6635801
2667.7344 1136.9529 3458.3787 6049854
2654.1538 1122.541 3414.5408 13815985
2786.0674 1169.4166 3557.1267 13684913
2719.5986 1132.9448 3446.187 13356719
2860.3008 1182.6781 3597.4653 13422771
2804.7461 1151.1272 3501.4941 13093034
2838.6113 1156.4702 3517.7466 13684410
3003.3459 1214.6637 3694.7593 13947327
3007.8628 1207.6859 3673.5342 13947327
2983.2725 1189.2054 3617.3203 13224104
3023.7708 1196.7496 3640.2681 13285268
3073.6526 1207.8741 3674.1069 13021837
3102.3276 1210.5673 3682.2988 12822917
3135.9495 1215.1395 3696.2068 12823428
3185.313 1225.7058 3728.3469 12955014
3210.3079 1226.814 3731.7178 13222300
3276.5569 1243.5642 3782.6689 13487799
3267.6421 1231.7538 3746.7437 13619652
3327.0435 1245.6808 3789.1067 13685444
3358.7483 1249.1208 3799.5708 13685193
3647.8379 1347.5991 4099.1216 13685449
3404.1287 1249.2479 3799.9573 13685190
3410.1145 1243.2202 3781.6226 13750714
3418.7703 1238.2383 3766.4683 13355688
3421.8813 1231.326 3745.4424 13420967
3454.9387 1235.2089 3757.2534 13158047
3440.8438 1222.2924 3717.9641 13552041
3429.8623 1210.639 3682.5171 13749948
3476.436 1219.3198 3708.9224 13553856
3500.2808 1219.97 3710.8999 13750209
3501.3579 1212.7261 3688.8652 13750726
3520.7573 1211.8788 3686.2878 13816009
0 0 0 0
0 0 0 0
0 0 0 0
0 0 0 0
0 0 0 0
0 0 0 0
0 0 0 0
0 0 0 0
-2616.0017 985.99603 2946.0916 265
-2516.0237 954.68488 2852.5359 265
-2402.084 917.6167 2741.7786 520
-2503.6633 962.93445 2877.1851 262
-2357.2417 912.83594 2727.4939 263
-2346.2202 914.84094 2733.4849 262
-2334.9155 916.76276 2739.2271 263
-2329.1409 920.89789 2751.5825 262
-2320.6624 924.01459 2760.8953 521
-2306.1885 924.77167 2763.1572 266
-2292.8647 926.00397 2766.8391 267
-2295.2 933.62372 2789.6064 11
-2287.1023 937.07941 2799.9319 14
-2269.3975 936.62042 2798.5605 14
-2263.4629 941.0484 2811.791 13
-2250.3943 942.55396 2816.2896 13
-2241.9692 946.0415 2826.71 13
-2235.0046 950.20245 2839.1426 13
-2221.8091 951.75732 2843.7886 11
-2208.7229 953.38324 2848.6467 12
-2195.491 954.97076 2853.3901 12
-2187.0854 958.69861 2864.5286 12
-2178.3367 962.33307 2875.3882 12
-2170.0696 966.23926 2887.0596 12
-2211.9863 992.72998 2966.2122 12
-2194.9326 992.96741 2966.9216 12
-2179.9297 994.14374 2970.4365 12
-2172.2078 998.68683 2984.011 11
-2148.9072 996.08337 2976.2319 11
-2139.988 1000.1582 2988.4072 10
-2129.4275 1003.5275 2998.4744 11
-2119.0439 1007.0376 3008.9624 11
-2104.7075 1008.7126 3013.9673 11
-2092.2109 1011.306 3021.7161 11
-2075.0771 1011.683 3022.8428 11
-2058.7534 1012.4652 3025.1797 11
-2046.9174 1015.4873 3034.2095 11
-2035.9254 1018.9855 3044.6619 11
-2021.0526 1020.5865 3049.4458 11
-2000.0468 1019.0916 3044.9788 11
