# .PCD v0.7 - Point Cloud Data file format
VERSION 0.7
FIELDS x y z rgb
SIZE 4 4 4 4
TYPE F F F U
COUNT 1 1 1 1
WIDTH 1380
HEIGHT 1
VIEWPOINT 0 0 0 1 0 0 0
POINTS 1380
DATA ascii
-2734.7012 1232.0907 5136.7085 14
-2942.6414 1340.6998 5589.5112 14
-2821.4688 1300.1274 5420.3608 14
-2626.4146 1224.1842 5103.7456 16
-2442.4331 1151.6926 4801.521 16
-2561.0552 1221.8618 5094.0635 16
-2608.3569 1259.2729 5250.0342 16
-2530.8672 1236.6125 5155.561 16
-2338.1743 1156.4209 4821.2339 16
-2547.6423 1275.6078 5318.1357 16
-2498.9419 1266.8959 5281.8149 15
-2460.9761 1263.4742 5267.5498 16
-2214.5105 1151.5449 4800.9053 16
-2373.9119 1250.4995 5213.457 16
-2337.6602 1247.6411 5201.54 16
-2300.2981 1244.1058 5186.8008 15
-2267.1887 1242.8058 5181.3813 16
-2183.7979 1213.5291 5059.3237 17
-2202.2908 1240.8417 5173.1929 17
-2162.4128 1235.5732 5151.228 17
-2134.8899 1237.3146 5158.4873 15
-2113.824 1242.903 5181.7861 18
-2057.7307 1227.7568 5118.6406 18
-2023.5867 1225.4497 5109.022 18
-1994.674 1226.2886 5112.519 18
-1948.8278 1216.5823 5072.0527 18
-1919.7805 1217.2231 5074.7246 18
-1890.9674 1218.0353 5078.1104 18
-1857.5706 1215.8735 5069.0977 18
-1807.2307 1202.3682 5012.7925 18
-1775.0922 1200.7233 5005.9346 18
-1585.4585 1090.6776 4547.1436 18
-1552.9097 1086.7574 4530.8003 18
-1525.3705 1086.267 4528.7554 18
-1511.543 1095.6985 4568.0762 18
-1482.0552 1093.9149 4560.6401 18
-1442.8929 1084.7916 4522.6045 18
-1414.8915 1083.8727 4518.7734 18
-1389.5114 1084.9652 4523.3281 18
-1363.9152 1085.9287 4527.3447 18
-1338.6438 1087.1945 4532.6221 18
-1311.8489 1087.2495 4532.8516 19
-1284.7665 1087.0635 4532.0762 19
-1256.2245 1085.6084 4526.0093 19
-1233.0361 1088.817 4539.3867 19
-1205.1304 1087.9103 4535.6064 19
-1172.6139 1082.7051 4513.9053 18
-1142.1501 1079.1963 4499.2769 17
-1130.2747 1093.5034 4558.9248 17
-1106.9092 1097.1228 4574.0142 17
-1082.1688 1099.5271 4584.0381 17
-1057.8043 1102.4468 4596.2104 17
-1032.4811 1104.4952 4604.7505 17
-1003.7906 1102.955 4598.3291 18
-976.58643 1103.0076 4598.5483 18
-949.5191 1103.222 4599.4424 18
-926.03046 1107.7302 4618.2373 18
-899.39954 1108.6395 4622.0283 18
-873.56317 1110.6162 4630.2695 19
-848.31763 1113.4965 4642.2778 19
-822.84204 1116.2579 4653.7905 19
-795.11493 1116.0507 4652.9263 19
-769.62732 1119.0846 4665.5752 19
-742.72388 1120.2094 4670.2646 19
-715.58838 1121.0577 4673.8013 19
-682.07513 1111.5804 4634.2896 19
-653.18042 1109.1508 4624.1597 19
-627.95325 1113.0085 4640.2437 19
-603.14478 1117.9958 4661.0361 19
-571.98401 1111.1221 4632.3789 19
-546.47949 1115.0969 4648.9502 19
-520.46686 1118.4019 4662.729 19
-494.13104 1121.3441 4674.9951 19
-467.57434 1124.1047 4686.5049 19
-440.80768 1126.6776 4697.231 19
-441.37363 1204.1666 5020.2905 19
-416.73502 1219.1234 5082.647 19
-390.76593 1232.2152 5137.228 19
-357.19308 1221.5165 5092.6235 19
-328.04904 1225.386 5108.7563 19
-299.185 1231.1947 5132.9731 19
-268.78735 1231.293 5133.3833 19
-237.72333 1227.9741 5119.5464 18
-207.79462 1230.4066 5129.6875 18
-177.79405 1233.1746 5141.2275 18
-148.07083 1239.4086 5167.2178 18
-116.79955 1232.5574 5138.6543 18
-86.787056 1238.8418 5164.855 18
-55.938156 1233.5304 5142.7109 18
-25.744171 1247.2321 5199.8345 18
5.0487895 1241.731 5176.8999 18
35.825161 1245.1008 5190.9492 18
66.353012 1240.71 5172.6436 18
97.177605 1242.8893 5181.7295 19
129.29416 1256.5785 5238.8008 19
160.57675 1258.4308 5246.5229 19
191.06732 1254.4818 5230.0596 19
221.47701 1251.1783 5216.2871 19
253.17778 1255.0844 5232.5718 19
284.8056 1257.8158 5243.9595 19
316.44391 1260.0516 5253.2808 19
345.26602 1251.6775 5218.3682 18
374.97842 1247.6425 5201.5454 18
408.18646 1254.9677 5232.085 18
441.35052 1261.1327 5257.7881 18
470.58389 1255.9939 5236.3633 18
508.05432 1272.1155 5303.5762 18
534.99536 1261.5302 5259.4448 18
565.8468 1260.8235 5256.4985 17
596.55304 1259.8839 5252.5815 17
634.25537 1273.0801 5307.5977 17
664.42316 1270.6205 5297.3433 17
698.90619 1276.2628 5320.8667 17
723.64294 1264.3888 5271.3628 16
751.14209 1258.1243 5245.2456 16
756.77069 1217.1813 5074.5503 16
786.07031 1215.9854 5069.564 16
814.08105 1212.9568 5056.9375 16
853.65869 1226.7657 5114.5088 16
873.07855 1211.653 5051.502 16
903.78613 1212.6879 5055.8164 16
936.48846 1216.2471 5070.6553 16
967.13855 1217.0026 5073.8047 16
993.18243 1212.0908 5053.3271 16
1017.4458 1205.3573 5025.2549 16
1042.756 1200.2117 5003.8022 13
1072.7535 1200.5967 5005.4072 65550
1102.1666 1200.3243 5004.272 65547
1129.9141 1198.2998 4995.8315 262148
1111.8074 1148.9912 4790.2588 656131
1126.5911 1135.2817 4733.103 6640712
1142.1772 1123.0275 4682.0137 9534055
1177.9119 1130.6953 4713.9814 9927780
1204.252 1129.1989 4707.7422 10059624
1234.7657 1131.5951 4717.7324 10059367
1263.2953 1132.1071 4719.8672 9664865
1279.9979 1122.2277 4678.6787 9598303
1309.7966 1124.0056 4686.0913 9532510
1331.0499 1118.5288 4663.2578 9138008
1352.0691 1113.0819 4640.5493 9598559
1393.9169 1124.6575 4688.8091 9729632
1425.0685 1127.3193 4699.9062 9598303
1454.0774 1128.2163 4703.646 9532510
1485.9185 1131.2358 4716.2349 9729375
1519.4342 1135.3953 4733.5762 9729119
1542.8657 1132.005 4719.4419 9531740
1571.5242 1132.5024 4721.5151 9597533
1593.9823 1128.5922 4705.2134 9598303
1634.87 1137.6407 4742.938 9664096
1665.5569 1139.4053 4750.2944 9795939
1687.1438 1134.9893 4731.8833 9927525
1702.7393 1126.7529 4697.5454 9664353
1736.8596 1130.8429 4714.5967 9795938
1767.6431 1132.6652 4722.1938 9664353
1795.8699 1132.8177 4722.8301 9795938
1823.3864 1132.5247 4721.6079 9861476
1844.255 1128.1737 4703.4683 9730147
1869.558 1126.6245 4697.0098 9926755
1902.0305 1129.3779 4708.4888 9795169
1919.0327 1122.9985 4681.8926 10058340
1960.0182 1130.6357 4713.7329 9926755
1986.2671 1129.677 4709.7358 9992291
2011.3772 1128.1062 4703.187 9992548
2039.7009 1128.356 4704.2285 9860963
2062.9839 1125.8481 4693.7734 9926755
2096.1536 1128.7307 4705.791 10057829
2125.0288 1129.2556 4707.9795 9597278
2155.6533 1130.6846 4713.9365 9531228
2190.9785 1134.5109 4729.8887 9597277
2227.4927 1138.8484 4747.9722 9794400
2256.4558 1139.2651 4749.71 9794656
2281.4258 1137.6805 4743.1035 9991521
2291.3796 1128.7374 4705.8188 10123107
2320.5886 1129.3806 4708.5 9925727
2349.8271 1130.0225 4711.1763 10451813
2381.2661 1131.6952 4718.1499 10319970
2407.2261 1130.7552 4714.2314 10122848
2433.03 1129.7645 4710.1011 10057055
2471.3149 1134.526 4729.9521 10056798
2494.7878 1132.4572 4721.3267 10057311
2524.3696 1133.1764 4724.3252 10122848
2541.5789 1128.3868 4704.3569 9925468
2580.9351 1133.4269 4725.3696 9202003
2592.0647 1126.0963 4694.8076 9201490
2630.7427 1130.7623 4714.2607 10123361
2660.4775 1131.5266 4717.4473 10058084
2686.8315 1130.8522 4714.6353 9663326
2711.3262 1129.417 4708.6519 9926497
2729.928 1125.5813 4692.6606 9926242
2769.3494 1130.3208 4712.4199 9662814
2778.5813 1122.7665 4680.9253 9268059
2791.3953 1116.7948 4656.0288 9532001
2761.4946 1094.0177 4561.0688 10123367
2682.6792 1052.4916 4387.9424 9531748
0 0 0 0
2461.6355 947.40308 3949.8176 3810850
2485.6812 947.6463 3950.8318 7692633
2537.3157 958.30499 3995.2688 9995647
2538.209 949.77954 3959.7256 9995130
2925.4734 1084.6631 4522.0688 8021596
3066.7729 1126.7307 4697.4526 7231820
3084.2456 1122.9568 4681.7188 6573893
3086.5288 1113.7689 4643.4136 10521209
3119.8279 1115.8367 4652.0342 9467493
3186.4761 1129.6913 4709.7954 10585969
3265.0085 1147.4821 4783.9673 11966338
3323.5874 1158.0142 4827.8765 13216143
3379.6191 1167.4867 4867.3682 13413009
3468.0601 1187.8997 4952.4722 11965049
3478.2234 1181.3832 4925.3042 9991518
3530.043 1189.006 4957.0845 10189153
3588.2209 1198.627 4997.1948 10320995
3608.1501 1195.4181 4983.8169 11372915
3547.8162 1165.8851 4860.6914 12951690
3490.8774 1137.9348 4744.1636 12755597
3581.0391 1157.9988 4827.8125 11702910
3583.583 1149.6364 4792.9487 10189673
3624.7424 1153.6962 4809.8745 9794661
3626.531 1145.2594 4774.7007 9663333
3647.4275 1142.9409 4765.0342 9663077
3688.2815 1146.8635 4781.3882 9531747
3694.8625 1140.1505 4753.4014 9334366
3752.313 1149.1176 4790.7856 9465439
3759.5396 1142.6848 4763.9668 9334366
3781.1785 1140.6957 4755.6738 8939863
3773.1606 1129.8555 4710.48 9203035
3840.6184 1141.6094 4759.4829 9465950
3942.4375 1163.3311 4850.043 9861221
3990.7827 1169.0736 4873.9844 10717555
4076.5081 1185.6052 4942.9062 13087132
4106.8159 1185.8983 4944.1284 14207410
4090.1152 1172.7091 4889.1411 13481120
3975.1223 1131.7216 4718.2598 12428436
4056.218 1146.7434 4780.8872 13218978
4034.1296 1132.5875 4721.8701 13549231
4061.9072 1132.5304 4721.6318 14273723
4010.6008 1110.5747 4630.0967 14337717
4055.5337 1115.3861 4650.1558 9202266
4241.7915 1158.7385 4830.896 6899765
4212.541 1143.0333 4765.4199 9465694
4229.3462 1139.951 4752.5698 9465692
4200.2671 1124.6241 4688.6699 9334106
4211.9653 1120.3447 4670.8291 9268058
4220.2417 1115.2172 4649.4517 9465948
4227.9961 1110.019 4627.7803 9201752
4273.1802 1114.6515 4647.0933 7359810
4238.9268 1098.6362 4580.3237 5385515
4392.7437 1131.2581 4716.3276 917761
4340.0894 1110.6313 4630.3325 1771014
4125.6982 1049.1353 4373.9497 1245184
4184.3301 1057.4015 4408.4121 2099715
4254.1675 1068.3794 4454.1802 4142871
0 0 0 0
0 0 0 0
0 0 0 0
0 0 0 0
0 0 0 0
0 0 0 0
-4388.3086 1198.6826 4876.9326 12
-4317.3804 1187.1267 4829.917 12
-4355.4995 1205.6011 4905.0811 12
-4329.6499 1206.498 4908.7305 12
-4208.4116 1180.6464 4803.5513 12
-4278.9932 1208.623 4917.3765 12
-4162.1187 1183.6724 4815.8628 12
-4150.3892 1188.4861 4835.4478 12
-4150.1348 1196.6757 4868.7676 12
-4090.8979 1187.8534 4832.8735 12
-4063.5303 1188.2256 4834.3877 12
-4041.927 1190.3008 4842.8306 12
-4020.0544 1192.3256 4851.0688 12
-4029.8301 1203.8339 4897.8916 12
-3991.7498 1201.1094 4886.8066 12
-3954.1306 1198.485 4876.1289 12
-3934.9124 1201.4401 4888.1519 12
-3871.3542 1190.8007 4844.8643 12
-3889.7615 1205.4023 4904.2725 12
-3876.4919 1210.3336 4924.3359 12
-3829.2715 1204.6591 4901.2485 12
-3823.5776 1212.0615 4931.3662 12
-3799.5959 1213.7363 4938.1802 12
-3800.1602 1223.3386 4977.248 12
-3690.2505 1197.2498 4871.103 12
-3716.239 1215.1871 4944.083 12
-3684.3135 1214.3218 4940.562 12
-3624.3284 1204.12 4899.0557 12
-3642.6665 1219.9855 4963.605 12
-3600.2837 1215.6071 4945.7915 11
-3675.386 1251.1503 5090.4019 13
-3616.4172 1241.2646 5050.1812 12
-3458.73 1197.048 4870.2822 14
-3415.1086 1191.8969 4849.3247 14
-3560.6033 1253.2216 5098.8286 14
-3397.8054 1206.1576 4907.3457 14
-3852.1294 1379.2391 5611.541 14
-3384.5833 1222.389 4973.3843 14
-3389.1965 1234.808 5023.9121 12
-3381.3699 1242.8746 5056.7314 12
-3571.6646 1324.5592 5389.0718 12
-3275.3826 1225.6417 4986.6182 12
-3258.3064 1230.3527 5005.7847 12
-3259.811 1242.2307 5054.1118 12
-3112.4761 1197.0841 4870.4292 12
-3091.147 1200.0089 4882.3291 12
-3205.2 1256.042 5110.3042 12
-3199.3748 1265.7186 5149.6743 12
-3349.0054 1337.6744 5442.4316 12
-3161.1499 1274.9186 5187.105 12
-2976.0208 1212.0406 4931.2812 12
-3095.2061 1273.0825 5179.6348 12
-3051.4038 1267.6377 5157.4819 12
-3049.2698 1279.5679 5206.021 12
-2995.99 1270.0603 5167.3384 12
-3073.1018 1316.2028 5355.0728 12
-2974.959 1287.4637 5238.146 12
-2881.4797 1260.1582 5127.0513 12
-2914.7075 1288.2742 5241.4429 12
-2849.8794 1273.1888 5180.0674 14
-2836.7278 1281.1133 5212.3086 14
-2739.8516 1250.9844 5089.7266 14
-2697.2751 1245.2533 5066.4097 14
-2609.4521 1218.269 4956.6221 14
-2486.6807 1174.1685 4777.1953 14
-2593.292 1238.6101 5039.3809 16
-2560.0774 1236.9913 5032.7949 16
-2516.8369 1230.433 5006.1118 16
-2472.0596 1222.9578 4975.6982 16
-2449.2429 1226.2976 4989.2866 16
-2414.1614 1223.5029 4977.9165 16
-2383.8792 1223.1018 4976.2842 16
-2344.3638 1217.8939 4955.0957 16
-2357.199 1240.095 5045.4224 16
-2298.2019 1224.5907 4982.3423 15
-2260.8821 1220.384 4965.2266 15
-2236.4807 1223.1315 4976.4048 15
-2189.1284 1213.2328 4936.1313 16
-2156.1768 1211.1548 4927.6772 16
-2125.2136 1210.1522 4923.5981 17
-2098.4731 1211.5597 4929.3242 17
-2070.699 1212.4016 4932.75 16
-2038.7096 1210.7644 4926.0889 16
-2016.7017 1215.0938 4943.7026 18
-1979.9698 1210.5483 4925.2095 18
-1949.7775 1209.9249 4922.6733 18
-1924.8396 1212.5929 4933.5278 18
-1888.924 1208.3206 4916.146 18
-1851.8636 1203.171 4895.1943 18
-1820.7723 1201.7972 4889.605 18
-1788.0365 1199.2759 4879.3467 18
-1748.4929 1192.0305 4849.8687 18
-1584.9584 1098.6 4469.7388 18
-1560.3812 1099.9473 4475.2207 18
-1525.769 1094.1451 4451.6143 18
-1484.9092 1083.5797 4408.6279 18
-1474.2363 1095.0586 4455.3306 18
-1447.5554 1094.8485 4454.4761 18
-1420.6075 1094.4252 4452.7534 18
-1396.1936 1095.9746 4459.0576 18
-1365.3275 1092.4216 4444.6016 18
-1332.3977 1087.0448 4422.7261 18
-1307.1187 1087.8197 4425.8784 18
-1278.3451 1085.6584 4417.0854 19
-1255.7274 1088.744 4429.6392 19
-1231.2451 1090.3103 4436.0117 19
-1201.0535 1086.7788 4421.6436 19
-1168.4308 1080.8409 4397.4849 19
-1139.5695 1078.1908 4386.7026 18
-1115.8601 1080.4054 4395.7129 17
-1105.3993 1095.8599 4458.5908 15
-1082.6523 1099.593 4473.7793 16
-1057.5449 1101.056 4479.7319 16
-1032.8789 1103.0658 4487.9087 18
-1006.6363 1103.4535 4489.4858 18
-988.02521 1112.4547 4526.1084 18
-958.22797 1109.0121 4512.1016 18
-923.87183 1099.9442 4475.208 18
-898.3205 1101.1328 4480.0439 18
-878.38098 1109.4822 4514.0142 19
-853.51324 1111.9355 4523.9961 19
-828.51288 1114.3699 4533.8999 19
-803.10724 1116.4039 4542.1758 19
-779.29279 1120.8676 4560.3364 19
-752.42188 1121.098 4561.2739 19
-726.84979 1123.3529 4570.4482 19
-701.59302 1126.2885 4582.3916 19
-667.25806 1114.3002 4533.6167 19
-638.26526 1110.6016 4518.5684 19
-612.7804 1112.9502 4528.124 19
-582.84528 1107.0612 4504.1641 19
-556.33667 1107.4275 4505.6543 19
-531.45416 1111.2308 4521.1284 19
-506.31403 1114.8706 4535.9375 19
-485.2149 1128.3157 4590.6396 19
-456.9176 1125.625 4579.6924 19
-431.38467 1129.8346 4596.8193 19
-426.71213 1192.9297 4853.5269 19
-391.13202 1172.4944 4770.3838 19
-373.48444 1206.8188 4910.0361 19
-344.22244 1206.2439 4907.6968 19
-317.20929 1214.1707 4939.9473 19
-290.8653 1226.5309 4990.2358 19
-261.83563 1229.0824 5000.6172 19
-229.33076 1213.8904 4938.8066 18
-201.26666 1221.1974 4968.5361 18
-171.20432 1216.807 4950.6733 18
-144.39227 1238.4789 5038.8472 18
-113.32871 1225.4783 4985.9531 18
-83.626984 1223.2269 4976.7935 18
-54.5313 1232.2172 5013.3706 18
-24.935745 1237.9137 5036.5479 18
4.9431229 1245.78 5068.5522 18
34.672432 1234.8104 5023.9219 18
64.462624 1235.1431 5025.2754 18
94.468262 1238.0891 5037.2612 19
124.59129 1240.7896 5048.248 19
158.43497 1272.323 5176.5444 19
184.08574 1238.505 5038.9536 19
214.16524 1239.7648 5044.0786 19
245.17636 1245.4481 5067.2017 19
275.42044 1246.42 5071.1562 19
305.0116 1244.5365 5063.4932 19
333.12878 1237.5149 5034.9253 18
363.23062 1238.4143 5038.5845 18
395.7572 1246.8162 5072.7681 18
424.80545 1243.8469 5060.6875 18
455.30286 1245.2327 5066.3257 18
485.34622 1245.282 5066.5264 18
518.58044 1253.0359 5098.0732 18
547.4422 1249.952 5085.5269 18
578.15137 1251.1884 5090.5566 18
611.84326 1258.4369 5120.0479 18
646.12073 1266.1479 5151.4209 18
673.93005 1261.0599 5130.7197 18
705.3847 1262.938 5138.3608 16
738.45807 1267.4388 5156.6729 16
765.54388 1261.7136 5133.3794 16
779.95905 1236.3413 5030.1504 16
800.65607 1222.4282 4973.5439 16
821.64148 1209.9279 4922.6851 16
852.42834 1212.2229 4932.0229 16
881.14874 1211.5248 4929.1821 16
909.09229 1209.8374 4922.3174 16
937.66943 1209.0721 4919.2036 16
965.16565 1207.0012 4910.7778 16
989.07562 1200.6979 4885.1323 16
1015.1419 1197.2963 4871.2925 13
1047.4 1201.1838 4887.1094 65550
1076.3082 1201.1237 4886.8647 65550
1103.5884 1199.2976 4879.4351 196618
1120.6702 1186.7648 4828.4443 393216
1097.3121 1133.0974 4610.0947 3548962
1099.8147 1108.0928 4508.3613 8349788
1139.6664 1121.012 4560.9238 9861988
1163.9701 1118.3934 4550.27 9993316
1195.3386 1122.5278 4567.0913 9861988
1225.0103 1124.921 4576.8281 9796195
1249.9617 1122.9698 4568.8896 9729889
1269.5012 1116.3424 4541.9253 9664352
1296.953 1116.8035 4543.8013 9664353
1325.434 1118.1139 4549.1328 9795939
1355.7052 1120.8522 4560.2739 9795938
1388.9321 1125.8794 4580.7275 9860962
1411.4125 1122.1696 4565.6338 9992548
1436.1708 1120.3765 4558.3384 9532766
1473.5415 1128.3069 4590.604 9663840
1503.7373 1130.5557 4599.7529 9795169
1526.2128 1127.0232 4585.3809 9926754
1560.0579 1131.8632 4605.0728 9794912
1582.939 1128.7189 4592.2803 9926754
1617.9196 1134.1628 4614.4292 9861732
1646.0807 1134.7246 4616.7148 9861733
1668.2795 1131.2253 4602.4775 9927526
1689.1879 1126.9773 4585.1943 9730147
1716.5837 1127.1238 4585.7905 10058855
1742.8173 1126.5144 4583.311 9993062
1769.1898 1126.0122 4581.2676 9532767
1794.0477 1124.5757 4575.4229 9664611
1822.5365 1125.424 4578.8745 9992549
1844.4882 1122.27 4566.042 9795170
1876.7538 1125.392 4578.7441 9926756
1901.0088 1123.6897 4571.8188 9729377
1921.8761 1120.0613 4557.0557 9795173
1940.92 1115.4851 4538.4375 10124138
1986.3269 1125.9785 4581.1304 10321259
2012.902 1125.6576 4579.8252 9795171
2051.3738 1131.9098 4605.2627 10189416
2071.7412 1128.1392 4589.9214 9860449
2104.1177 1130.921 4601.2397 9860450
2135.084 1132.8833 4609.2236 9663070
2161.0083 1132.1547 4606.2588 9531485
2195.0439 1135.6407 4620.4419 9926243
2231.0549 1140.0502 4638.3823 9663069
2244.4475 1132.9351 4609.4341 9925727
2284.8091 1139.4407 4635.9028 9728349
2293.3767 1130.1244 4597.9985 9793628
2328.2842 1133.8541 4613.1733 9925468
2343.9294 1128.2257 4590.2734 9925468
2370.0967 1127.7329 4588.2686 10188384
2415.1333 1136.1278 4622.4238 10254434
2442.9048 1136.3036 4623.1392 10122847
2461.8665 1132.4232 4607.3516 10122591
2486.4426 1131.182 4602.3018 9859676
2536.4854 1141.428 4643.9883 10254434
2554.9578 1137.3997 4627.5986 9991265
2544.5854 1120.7524 4559.8677 9992291
2583.8159 1126.0728 4581.5142 9729119
2619.9824 1129.9609 4597.3335 10123620
2655.9358 1133.6782 4612.4575 10189669
2659.8093 1123.766 4572.1289 9925987
2673.8125 1118.2904 4549.8511 9860451
2663.3894 1102.8099 4486.8677 9794402
2671.6436 1095.2928 4456.2837 9794661
2532.3401 1028.0208 4182.582 10583922
2450.1479 985.01282 4007.6008 9334369
2436.4373 970.09747 3946.9167 8742749
2452.6914 967.2832 3935.4666 9532519
2399.0598 937.22015 3813.1528 10322806
2476.6489 958.50287 3899.7429 5322805
2483.0459 952.09412 3873.6687 10587781
2521.1675 957.8559 3897.1108 10982281
2480.3374 933.78955 3799.1948 10455937
2513.8777 937.90295 3815.9309 11179404
3007.3518 1112.01 4524.2988 10849666
2954.7512 1082.9056 4405.8853 8217171
3150.4495 1144.5145 4656.5459 8874586
3149.5908 1134.2675 4614.8545 9136728
3212.7083 1147.038 4666.8125 9663069
3337.9829 1181.5933 4807.4033 10913390
3388.6951 1189.3929 4839.1372 12689799
3312.1177 1152.7596 4690.0918 13281938
3426.2158 1182.547 4811.2842 12228995
3365.0835 1151.8618 4686.439 9926496
3391.2395 1151.3129 4684.2056 9268825
3374.5896 1136.3583 4623.3618 9992548
3418.1689 1141.7632 4645.3516 12624269
3423.9341 1134.5513 4616.0098 13347992
3485.4023 1145.7653 4661.6348 13348248
3514.3938 1146.2107 4663.4468 11637375
3541.4575 1146.0254 4662.6929 9597536
3591.5964 1153.2522 4692.0957 8807764
3603.5007 1148.1852 4671.4805 9005147
3648.061 1153.5215 4693.1914 9005145
3656.9021 1147.568 4668.9692 9005402
3648.2539 1136.257 4622.9492 9202781
3707.2522 1146.0259 4662.6953 8742740
3740.3618 1147.7067 4669.5332 8676690
3757.6934 1144.5569 4656.7183 8873555
3773.3481 1140.9459 4642.0269 8807762
3802.8276 1141.5374 4644.4331 7689024
3825.5684 1140.1118 4638.6333 7162425
3934.6582 1164.2571 4736.8701 8873555
3971.2036 1166.7467 4746.9995 10058599
3968.2456 1157.6768 4710.0977 11703940
3963.6143 1148.2488 4671.7393 13548712
3904.4375 1123.2594 4570.0679 13946565
3955.7998 1130.1962 4598.2905 13881799
3976.2898 1128.2778 4590.4858 13947335
3997.5505 1126.6029 4583.6709 14011840
3986.7595 1115.9784 4540.4448 12820887
3963.5789 1102.0518 4483.7827 11308158
3983.6323 1100.2513 4476.458 10321262
3967.0957 1088.4358 4428.3853 11044468
3983.1001 1085.645 4417.0308 11373689
3994.1384 1081.5459 4400.353 11571324
3995.0439 1074.774 4372.8013 8610387
4094.406 1094.4061 4452.6758 8018507
4177.3564 1109.4282 4513.7944 7821897
4288.7642 1131.7687 4604.6885 8413778
4281.4233 1122.6881 4567.7437 8151378
4262.4912 1110.7012 4518.9736 3746081
4215.9985 1091.7273 4441.7769 2364945
4241.5737 1091.5349 4440.9941 2891018
0 0 0 0
0 0 0 0
0 0 0 0
0 0 0 0
0 0 0 0
0 0 0 0
-4147.5063 1160.2224 4609.3179 12
-4145.9097 1167.4646 4638.0898 12
-4131.5986 1171.1996 4652.9282 12
-4139.6816 1181.3752 4693.354 12
-4101.4028 1178.3687 4681.4092 12
-4073.6597 1178.3687 4681.4092 12
-4052.4968 1180.285 4689.0229 12
-4032.9807 1182.7108 4698.6602 12
-4052.8435 1196.7991 4754.6294 12
-3987.8733 1185.858 4711.1631 12
-3975.2683 1190.444 4729.3823 12
-3907.7273 1178.5271 4682.0391 12
-3871.2202 1175.8662 4671.4678 12
-3912.7422 1197.0387 4755.5815 12
-3858.0251 1188.8621 4723.0977 12
-3868.4697 1200.7924 4770.4941 12
-3803.9565 1189.4598 4725.4722 12
-3766.1833 1186.3826 4713.2466 12
-3768.3301 1195.9282 4751.1699 12
-3830.5027 1224.8112 4865.9155 12
-3701.1909 1192.4403 4737.313 12
-3786.5669 1229.2708 4883.6328 12
-3927.0723 1284.7036 5103.8555 12
-3687.9043 1215.8265 4830.2217 12
-3607.2915 1198.5532 4761.5981 12
-3573.8599 1196.8073 4754.6621 12
-3570.2678 1205.1056 4787.6299 12
-3551.3025 1208.3064 4800.3457 12
-3511.9258 1204.5579 4785.4536 12
-3484.2927 1204.8091 4786.4517 12
-3471.4431 1210.2183 4807.9414 12
-3463.239 1217.35 4836.2739 12
-3447.5837 1221.9597 4854.5874 14
-3414.7966 1220.5236 4848.8818 14
-3385.9922 1220.4987 4848.7832 14
-3372.2161 1225.9369 4870.3877 14
-3381.7346 1240.0106 4926.2998 14
-3356.0874 1241.3225 4931.5117 13
-3307.0933 1233.9463 4902.2075 12
-3296.252 1240.8011 4929.4404 12
-3227.4438 1225.7632 4869.6978 12
-3250.6675 1245.7222 4948.9907 12
-3228.531 1248.5035 4960.0405 12
-3349.7312 1307.2749 5193.5269 12
-3188.6438 1255.9485 4989.6177 12
-3246.8525 1290.8463 5128.2593 12
-3231.7937 1296.9996 5152.7051 12
-3293.1929 1334.2473 5300.6826 12
-3253.0439 1330.6738 5286.4858 12
-3194.0996 1319.2677 5241.1719 12
-3060.0549 1276.3141 5070.5259 12
-3020.1604 1272.167 5054.0503 12
-3163.1003 1345.7225 5346.271 13
-3186.4675 1369.3802 5440.2583 13
-3137.4202 1362.0837 5411.2705 13
-2926.4001 1283.5911 5099.436 14
-2905.8984 1287.8983 5116.5479 14
-2849.9658 1276.4279 5070.978 14
-2827.4822 1279.8535 5084.5874 14
-2794.885 1278.7258 5080.1074 14
-2740.9355 1267.6981 5036.2964 14
-2713.3201 1268.7411 5040.4399 15
-2681.3662 1267.7562 5036.5273 16
-2633.009 1258.9062 5001.3682 16
-2588.0408 1251.4937 4971.9194 16
-2566.5225 1255.3804 4987.3608 16
-2511.4189 1242.7388 4937.1382 16
-2494.0027 1248.6678 4960.6934 16
-2438.9644 1235.6774 4909.085 16
-2411.9097 1236.7223 4913.2358 16
-2386.9351 1238.8723 4921.7773 16
-2344.646 1231.9775 4894.3862 16
-2308.8704 1228.3754 4880.0757 16
-2283.3521 1230.2085 4887.3579 16
-2261.2617 1233.9591 4902.2583 16
-2229.7324 1232.5895 4896.8174 16
-2191.5088 1227.4346 4876.3379 16
-2152.7781 1221.8539 4854.167 16
-2142.2883 1232.3679 4895.937 16
-2092.5325 1220.2723 4847.8838 16
-2072.4685 1225.3961 4868.2397 16
-2036.4222 1221.0813 4851.0977 16
-2016.009 1226.1509 4871.2383 17
-1978.6637 1220.92 4850.457 18
-1949.5485 1220.6881 4849.5356 18
-1920.0195 1220.1864 4847.5425 18
-1888.7899 1218.5721 4841.1294 18
-1860.2142 1218.6467 4841.4258 18
-1817.9675 1209.6274 4805.5938 18
-1781.6509 1204.3293 4784.5454 18
-1747.313 1200.2192 4768.2173 18
-1587.1324 1108.1124 4402.2964 18
-1555.7288 1104.3398 4387.3086 18
-1531.2615 1105.4464 4391.7046 18
-1490.4006 1094.5519 4348.4229 18
-1459.4069 1090.6477 4332.9126 18
-1441.3478 1096.4432 4355.937 18
-1415.4374 1096.3687 4355.6411 18
-1390.0968 1096.7411 4357.1201 18
-1364.5911 1096.9948 4358.1279 18
-1339.8387 1097.8755 4361.627 18
-1311.6307 1095.9036 4353.793 18
-1283.2312 1093.6892 4344.9961 18
-1257.3115 1093.5411 4344.4077 19
-1231.3947 1093.3892 4343.8042 19
-1206.9005 1094.5214 4348.3018 19
-1171.7749 1085.8507 4313.855 19
-1144.1593 1083.908 4306.1367 18
-1121.1073 1086.2985 4315.6338 18
-1096.8635 1087.6189 4320.8794 18
-1081.5231 1098.0416 4362.2871 18
-1060.8209 1103.3981 4383.5669 18
-1037.1517 1105.8597 4393.3467 18
-1012.8414 1107.7469 4400.8442 18
-990.60736 1112.0649 4417.9985 18
-970.89746 1119.5278 4447.647 18
-941.62628 1116.0746 4433.9282 18
-911.90216 1111.8708 4417.2275 18
-885.38397 1111.443 4415.5278 18
-863.01953 1116.3623 4435.0713 19
-838.95148 1119.3177 4446.8125 19
-812.93518 1119.781 4448.6533 19
-789.07092 1123.3394 4462.7896 19
-764.50073 1126.1045 4473.7749 19
-740.49353 1129.9275 4488.9629 18
-714.32086 1130.6079 4491.666 18
-689.28455 1133.2091 4502 18
-655.02045 1120.2383 4450.4697 18
-625.78992 1115.1487 4430.25 18
-599.5564 1115.188 4430.4058 18
-571.4682 1111.623 4416.2432 18
-545.64313 1112.3293 4419.0493 18
-520.73236 1115.0649 4429.917 18
-497.62726 1122.1627 4458.1152 19
-473.01312 1126.4626 4475.1978 19
-447.89301 1129.9969 4489.2388 19
-445.92365 1196.0734 4751.7466 19
-420.79483 1204.7515 4786.2227 19
-390.93729 1200.1667 4768.0088 19
-367.21848 1215.1818 4827.6602 19
-339.19946 1217.3018 4836.0825 19
-308.89694 1210.8618 4810.498 19
-284.39215 1228.1499 4879.1797 19
-255.47713 1228.15 4879.1802 19
-225.29947 1221.3057 4851.9893 18
-197.14233 1225.0142 4866.7222 18
-168.17058 1224.0641 4862.9478 18
-141.28004 1241.0024 4930.2402 18
-112.28036 1243.4163 4939.8301 18
-82.354362 1233.6569 4901.0576 18
-53.341412 1234.3918 4903.9775 18
-24.463295 1243.7415 4941.1216 18
4.8259926 1245.5861 4948.4497 18
34.038582 1241.4655 4932.0796 18
63.408836 1244.246 4943.126 18
92.437065 1240.6786 4928.9536 19
122.26633 1246.9941 4954.0439 19
151.53259 1246.2338 4951.0229 19
180.89044 1246.3511 4951.4893 19
210.97475 1250.7424 4968.9351 19
240.21701 1249.6775 4964.7041 19
270.18777 1252.2213 4974.8101 19
299.23508 1250.4058 4967.5977 19
328.36859 1249.2433 4962.9795 18
356.50806 1244.8013 4945.332 18
388.43185 1253.2438 4978.8726 18
418.36954 1254.5388 4984.0171 18
446.32959 1250.1238 4966.4771 18
478.27866 1256.7365 4992.748 18
508.12439 1257.3741 4995.2812 18
538.90015 1260.1161 5006.1748 18
568.18243 1259.2621 5002.7817 18
597.90283 1259.4154 5003.3911 18
632.84222 1270.0282 5045.5532 18
663.85767 1272.1638 5054.0376 18
696.26733 1276.6714 5071.9453 16
726.23389 1276.5117 5071.311 16
757.815 1279.0898 5081.5532 16
790.23969 1282.8403 5096.4531 16
784.39435 1226.4757 4872.5283 16
811.85492 1224.3418 4864.0508 16
839.19299 1222.1757 4855.4453 16
864.63306 1217.4805 4836.7925 16
899.30121 1225.6638 4869.3032 16
919.89777 1214.7563 4825.9697 16
946.44135 1212.1229 4815.5078 16
971.30536 1207.5557 4797.3633 16
999.35938 1207.1013 4795.5581 16
1027.4275 1206.6886 4793.9185 16
1056.0696 1206.9541 4794.9736 14
1082.2554 1204.472 4785.1128 14
1107.8016 1201.4231 4773 262151
1080.1003 1142.2162 4537.7832 918276
1073.076 1107.2209 4398.7544 6508357
1104.2257 1112.34 4419.0913 9533282
1142.6591 1124.3889 4466.9595 10190441
1163.0844 1118.5735 4443.856 9730147
1199.9485 1128.4753 4483.1938 9861476
1217.375 1120.0641 4449.7778 9466974
1242.7278 1119.1478 4446.1377 9138009
1261.8824 1112.8037 4420.9336 9795939
1298.2754 1121.61 4455.9194 10059111
1322.6226 1119.8662 4448.9917 9860962
1353.9043 1123.9474 4465.2051 9860961
1381.025 1124.4839 4467.3364 9860961
1408.0789 1124.9469 4469.1758 9729375
1438.9965 1128.4225 4482.9839 9860962
1466.9688 1129.5045 4487.2822 10321513
1488.2505 1125.488 4471.3262 10058342
1515.327 1125.918 4473.0337 10058085
1546.9739 1129.6705 4487.9419 9992548
1578.4094 1133.1445 4501.7432 9993317
1605.5188 1133.4487 4502.9521 9861731
1634.9309 1135.3423 4510.4746 10124903
1653.6562 1129.873 4488.7466 9993317
1681.7496 1130.8763 4492.7324 9927525
1696.1117 1122.7589 4460.4834 10058855
1728.4175 1126.5862 4475.6885 10059112
1749.7701 1123.2666 4462.5005 9927269
1788.0376 1130.7426 4492.2007 9795170
1809.1985 1127.3396 4478.6821 9992548
1830.0634 1123.8535 4464.8325 9860708
1859.8146 1125.8462 4472.749 10255466
1886.4115 1125.9003 4472.9634 10321259
1915.0264 1127.1405 4477.8906 9926758
1947.254 1130.4441 4491.0151 10058343
1969.8092 1128.1191 4481.7788 10124136
2011.8948 1136.8926 4516.6333 9992294
2034.9296 1134.8114 4508.3657 9926245
2059.9592 1133.8823 4504.6743 10123624
2091.0364 1136.2632 4514.1333 10057831
2123.9971 1139.5946 4527.3682 10057831
2154.6367 1141.6129 4535.3867 9794658
2179.5962 1140.6091 4531.3989 9926243
2204.094 1139.3911 4526.5601 9991521
2230.9177 1139.3904 4526.5566 10057314
2254.9041 1137.9575 4520.8647 9793885
2275.4958 1134.8655 4508.5806 9728349
2306.5889 1137.0217 4517.147 9794141
2335.884 1138.2524 4522.0361 10254436
2365.9788 1139.8403 4528.3447 10188643
2392.4424 1139.6631 4527.6401 10057057
2411.769 1136.1274 4513.5942 9728349
2440.8179 1137.1993 4517.8521 9925728
2473.9185 1140.1151 4529.436 9530970
2496.0068 1137.9478 4520.8257 9991264
2513.1152 1133.5801 4503.4736 9663325
2539.929 1133.6357 4503.6953 9663069
2561.803 1131.5088 4495.2451 9597021
2602.042 1137.4536 4518.8623 9663070
2611.0583 1129.7676 4488.3276 9597278
2618.678 1121.6384 4456.0322 9860193
2424.8645 1028.2545 4085.0376 9268313
2529.0444 1061.8308 4218.4292 4138012
2392.0811 994.49561 3950.9207 7491653
2404.2898 989.88226 3932.5928 10452850
2395.2559 976.6955 3880.2046 9861229
2386.5469 963.89069 3829.334 10058865
2397.936 959.36816 3811.3667 9533036
2490.8406 987.23834 3922.0891 9797236
2434.197 955.86816 3797.4622 10126204
2468.4167 960.42639 3815.5708 10586754
2480.8958 956.51953 3800.0498 9270894
2490.3213 951.51642 3780.1733 10060665
2481.782 939.79956 3733.6248 9073257
2656.2375 996.97382 3960.7659 9402219
2605.0527 969.198 3850.4185 8809566
2816.792 1038.8748 4127.2295 9927530
2860.6511 1045.9683 4155.4106 9137496
3077.5105 1115.6566 4432.2676 10847599
3225.1167 1159.2722 4605.5435 11637113
3286.5137 1171.428 4653.8354 12229249
3317.343 1172.5767 4658.3989 12558213
3351.99 1175.0446 4668.2036 12690314
3356.6995 1167.0635 4636.4966 11966593
3315.3293 1143.3209 4542.1724 11967619
3314.9211 1133.9733 4505.0356 13218972
3273.7935 1110.9568 4413.5962 13615789
3271.8687 1101.5032 4376.0391 14078144
3327.2261 1111.3311 4415.0835 14012349
3439.1152 1139.7407 4527.9487 13679269
3505.3733 1152.7051 4579.4531 12426634
3541.5432 1155.652 4591.1606 10387310
3586.4268 1161.3756 4613.8999 9663076
3585.3052 1152.2279 4577.5576 9531745
3587.3823 1144.2377 4545.8145 8939609
3642.3425 1153.1086 4581.0566 9202524
3685.2761 1158.069 4600.7632 8807766
3697.9485 1153.5171 4582.6797 8873560
3703.5498 1146.8419 4556.1602 9005402
3727.7617 1145.9846 4552.7544 9071451
3771.8381 1151.2024 4573.4834 9335137
3779.2937 1145.2484 4549.8296 8808792
3828.5774 1151.9644 4576.5107 8742743
3883.7524 1160.3458 4609.8086 9861737
3946.0098 1170.7115 4650.9893 10388083
3914.8938 1153.4235 4582.3071 12033681
3903.6599 1142.1908 4537.6821 13879482
3928.5789 1141.6177 4535.4053 14078404
3936.363 1136.1068 4513.5122 13881025
3907.2761 1120.1006 4449.9229 13881280
3932.1763 1119.6818 4448.2588 13550259
3939.071 1114.1755 4426.3838 11702144
3933.1045 1105.1284 4390.4414 11306874
3909.5354 1091.2867 4335.4517 11175541
3833.7366 1063.142 4223.6382 12294024
3906.02 1076.1609 4275.3594 8676179
4098.5952 1121.9404 4457.2319 9136218
4135.4922 1124.7914 4468.5581 9136474
4165.1646 1125.6537 4471.9839 8479058
4163.7974 1118.1697 4442.2515 8610899
4241.9165 1131.9911 4497.1611 8743254
4127.8042 1094.6616 4348.8594 8809046
4174.3218 1100.129 4370.5801 9532511
0 0 0 0
0 0 0 0
0 0 0 0
0 0 0 0
0 0 0 0
0 0 0 0
-4165.269 1192.624 4629.0581 12
-4156.7373 1198.0718 4650.2031 12
-4129.5122 1198.1683 4650.5781 12
-4096.8325 1196.673 4644.7739 12
-4063.4028 1194.9369 4638.0356 12
-4046.9646 1198.2079 4650.7314 12
-4019.022 1198.0941 4650.29 12
-4016.5151 1205.6138 4679.4771 12
-3971.1106 1200.2721 4658.7437 12
-3960.9373 1205.5789 4679.3413 12
-3948.0173 1210.1185 4696.9619 12
-3913.9456 1208.1935 4689.4897 12
-3897.9949 1211.8745 4703.7773 12
-3850.0171 1205.5797 4679.3447 12
-3842.0422 1211.8109 4703.5308 12
-4158.4761 1321.2021 5128.1221 12
-4143.0962 1326.0063 5146.769 12
-4125.4507 1330.1511 5162.8569 12
-4101.8838 1332.4344 5171.7192 12
-4179.0825 1367.731 5308.7192 12
-4029.7253 1328.8529 5157.8179 12
-4016.7869 1334.7103 5180.5532 12
-3641.9565 1219.4812 4733.3022 12
-3598.8096 1214.3873 4713.5303 12
-3559.9429 1210.6689 4699.0981 12
-3902.5059 1337.6318 5191.8926 12
-3893.9009 1345.2889 5221.6128 12
-3888.4429 1354.1647 5256.0635 12
-3853.1951 1352.7255 5250.4771 12
-3830.8286 1355.822 5262.4961 12
-3446.4316 1229.7863 4773.3003 12
-3427.9106 1233.3002 4786.939 12
-3767.5083 1366.7925 5305.0767 13
-3320.5002 1214.7621 4714.9849 13
-3595.5176 1326.5363 5148.8262 12
-3266.905 1215.6136 4718.2905 12
-3323.394 1247.3088 4841.3125 12
-3229.1479 1222.491 4744.9839 12
-3197.781 1221.2507 4740.1704 12
-3130.0381 1205.9734 4680.8726 12
-3049.6614 1185.5116 4601.4521 12
-3108.584 1219.3197 4732.6753 12
-3367.1418 1332.762 5172.9902 12
-3297.9214 1317.3574 5113.1992 12
-3417.0881 1377.6165 5347.0894 12
-3081.3025 1253.8704 4866.7803 12
-3086.3884 1267.8069 4920.8735 12
-3062.7197 1270.085 4929.7158 12
-3120.3999 1306.4664 5070.9272 12
-3123.1743 1320.3439 5124.791 12
-3204.4346 1368.0001 5309.7642 12
-3100.4143 1336.7191 5188.3501 14
-2945.1423 1282.4935 4977.8784 14
-2968.2778 1305.6461 5067.7432 14
-3015.0696 1339.7841 5200.2461 14
-2969.0327 1332.9514 5173.7261 14
-2808.2544 1273.9253 4944.6216 14
-2814.2593 1290.1112 5007.4453 14
-2805.533 1299.8168 5045.1167 14
-2729.3311 1278.1331 4960.9536 14
-2702.3472 1279.2767 4965.3926 14
-2677.4854 1281.4611 4973.8711 14
-2639.7083 1277.4441 4958.2793 14
-2599.9707 1272.3771 4938.6123 14
-2563.9163 1269.0177 4925.5732 16
-2547.8867 1275.6067 4951.1475 16
-2515.2151 1273.92 4944.6011 16
-2458.1633 1259.7 4889.4072 16
-2152.4724 1116.2041 4332.4414 16
-2364.5557 1240.9865 4816.7725 16
-2361.7981 1254.6859 4869.9458 16
-2344.4104 1260.8561 4893.8945 16
-2295.1123 1249.804 4850.9966 16
-2273.4131 1253.6909 4866.084 16
-2246.7397 1254.8998 4870.7759 16
-2217.7119 1254.8079 4870.4189 15
-2166.2288 1241.8403 4820.0869 17
-2136.1963 1240.9878 4816.7778 18
-2091.9116 1231.7203 4780.8071 18
-2065.259 1232.7229 4784.6982 17
-2042.4497 1236.0792 4797.7256 18
-2002.7704 1229.1764 4770.9331 18
-1975.7434 1229.9525 4773.9453 18
-1965.498 1241.3499 4818.1831 18
-1939.9753 1243.2922 4825.7222 18
-1895.5779 1233.0154 4785.8335 18
-1868.9735 1234.176 4790.3384 18
-1835.2747 1230.6152 4776.5176 18
-1788.1552 1217.803 4726.7881 18
-1769.1099 1224.0067 4750.8672 18
-1611.2181 1132.793 4396.8296 18
-1675.2812 1197.1946 4646.7983 18
-1521.8456 1105.7216 4291.7544 18
-1493.7245 1103.736 4284.0474 18
-1461.9567 1098.9404 4265.4341 18
-1426.8705 1091.4379 4236.3135 18
-1405.3425 1094.2233 4247.125 18
-1383.2723 1096.6803 4256.6616 18
-1358.6725 1097.1859 4258.624 18
-1331.9961 1096.0018 4254.0283 18
-1309.2986 1098.1094 4262.2085 18
-1282.7832 1097.0347 4258.0371 18
-1258.6946 1098.0339 4261.9155 18
-1232.3944 1097.1053 4258.3115 18
-1203.0586 1093.3789 4243.8477 18
-1178.1245 1093.5793 4244.6255 18
-1144.3376 1085.3916 4212.8457 18
-1116.2848 1082.3987 4201.229 18
-1097.6191 1088.5792 4225.2178 18
-1069.4 1085.3521 4212.6924 18
-1050.9208 1092.0922 4238.8535 18
-1028.2577 1094.7084 4249.0078 18
-1015.0691 1107.7958 4299.8052 17
-991.77228 1110.2415 4309.2979 18
-968.74243 1113.1232 4320.4834 18
-946.02246 1116.5271 4333.6953 18
-922.62048 1119.2937 4344.4336 18
-893.76233 1115.4097 4329.3584 18
-864.57745 1110.8766 4311.7632 18
-843.15497 1116.3446 4332.9868 18
-817.33307 1116.1483 4332.2251 19
-794.19037 1119.7168 4346.0757 19
-771.83099 1124.6658 4365.2847 19
-749.90808 1130.6161 4388.3804 19
-724.86945 1132.1278 4394.2476 18
-697.86487 1130.567 4388.1899 18
-671.88159 1130.6042 4388.3345 18
-643.25391 1126.0154 4370.5229 18
-652.22284 1189.6154 4617.3804 18
-583.62323 1111.1097 4312.668 18
-556.34216 1107.6786 4299.3506 18
-531.01196 1107.9888 4300.5547 18
-511.20209 1120.4296 4348.8423 18
-485.71021 1121.0765 4351.353 19
-464.74905 1132.8397 4397.0112 19
-436.24179 1126.514 4372.4585 19
-413.72894 1135.8463 4408.6807 17
-387.51886 1135.6022 4407.7334 18
-362.37338 1138.6681 4419.6333 18
-336.92587 1141.1886 4429.4165 18
-318.67142 1170.557 4543.4072 18
-301.0918 1208.0537 4688.9473 18
-275.26892 1216.7386 4722.6567 18
-248.56342 1223.0464 4747.1401 19
-219.08153 1215.5598 4718.0815 18
-191.2058 1216.098 4720.1704 18
-163.57451 1218.642 4730.0444 18
-135.50468 1218.295 4728.6978 18
-109.22472 1238.0553 4805.3955 18
-79.58223 1220.1978 4736.083 18
-51.923698 1229.8737 4773.6392 18
-23.931366 1245.343 4833.6821 18
4.7180104 1246.3853 4837.7275 18
33.392174 1246.563 4838.417 18
61.208767 1229.3524 4771.6162 18
89.435532 1228.6539 4768.9048 19
118.51 1237.14 4801.8433 19
147.33778 1240.2634 4813.9663 19
175.85468 1240.1809 4813.646 19
204.81361 1242.8037 4823.8262 19
233.28664 1242.1968 4821.4702 19
261.88156 1242.3004 4821.8726 19
291.24542 1245.6725 4834.9609 19
318.01364 1238.3331 4806.4741 18
346.64951 1238.8752 4808.5781 18
378.29828 1249.2848 4848.9814 18
406.80731 1248.5879 4846.2769 18
437.54288 1254.3658 4868.7036 18
462.61728 1244.2036 4829.2593 18
492.37906 1247.0974 4840.4917 18
520.80847 1246.4839 4838.1104 18
549.78302 1247.1709 4840.7769 18
580.11584 1250.7183 4854.5454 18
610.27191 1253.5671 4865.6035 18
647.39056 1269.8159 4928.6714 18
673.5376 1264.0706 4906.3711 16
706.8761 1271.7388 4936.1348 16
733.83112 1267.7695 4920.7285 16
762.55792 1267.0475 4917.9263 16
795.38196 1272.9362 4940.7822 16
800.37512 1235.4471 4795.272 16
821.81464 1225.0449 4754.897 16
846.4903 1219.9962 4735.3013 16
869.17328 1212.4921 4706.1743 16
896.50928 1211.7435 4703.269 16
924.0946 1211.3671 4701.8076 16
949.30994 1207.9966 4688.7256 16
969.58746 1198.7135 4652.6938 16
997.66876 1199.3246 4655.0659 16
1024.8054 1198.7979 4653.0215 14
1056.4445 1203.4276 4670.9912 14
1079.3534 1198.13 4650.4292 262153
1087.5867 1177.2113 4569.2354 458755
1066.1238 1125.9464 4370.2554 3087385
1100.4636 1134.6494 4404.0352 8480344
1112.1044 1120.0872 4347.5132 9861733
1142.2151 1124.3656 4364.1196 9795683
1171.9349 1128.0785 4378.5308 9664096
1192.0839 1122.6171 4357.333 10058597
1218.4641 1123.1312 4359.3286 10255976
1237.3307 1116.8422 4334.918 10189927
1263.4899 1117.2573 4336.5293 9992547
1291.2042 1119.0035 4343.3076 9926755
1319.6674 1121.318 4352.2905 9860705
1347.5503 1123.0602 4359.0527 9795169
1374.9886 1124.3732 4364.1489 9729376
1404.8765 1127.6038 4376.688 9663583
1425.6918 1123.5673 4361.021 9992548
1453.6781 1125.2252 4367.4561 9992548
1481.3444 1126.5818 4372.7217 10124135
1504.4517 1124.4843 4364.5801 9992548
1538.1068 1130.2081 4386.7969 9861733
1565.9161 1131.5176 4391.8794 9861476
1591.7346 1131.3693 4391.3037 9927525
1607.3723 1124.1058 4363.1113 9927526
1638.8009 1127.9409 4377.9966 9993319
1660.8314 1125.2886 4367.7021 9795940
1683.8715 1123.3914 4360.3379 10058855
1709.188 1123.0472 4359.0024 10124648
1728.2793 1118.6838 4342.0664 10123878
1765.9659 1126.3083 4371.6602 10123878
1783.2418 1120.8828 4350.6016 9926756
1807.9844 1120.2384 4348.1001 9663584
1841.981 1125.2655 4367.6123 9729377
1869.2166 1126.08 4370.7739 9926242
1895.5287 1126.3237 4371.7197 9926243
1924.4552 1128.0933 4378.5879 9794400
1952.595 1129.3606 4383.5073 9860449
1989.4821 1135.5878 4407.6772 9728864
2012.5691 1133.8785 4401.043 9992036
2038.6437 1133.8746 4401.0278 9925986
2072.0833 1137.9154 4416.7119 9860450
2104.2261 1141.1522 4429.2754 10123621
2139.4077 1145.9369 4447.8467 9992036
2159.9675 1142.8685 4435.937 10452330
2189.7419 1144.6909 4443.0103 10057058
2205.2146 1139.0825 4421.2422 9925729
2228.7615 1137.7275 4415.9829 9728092
2257.5667 1139.0571 4421.1436 9662556
2273.6138 1133.9929 4401.4873 9662555
2301.5991 1134.9304 4405.126 9991520
2326.9138 1134.5447 4403.6289 9991521
2349.801 1132.9972 4397.6226 9926241
2387.0134 1138.3149 4418.2627 9860705
2410.926 1137.2438 4414.105 9860448
2429.2395 1133.5828 4399.895 10058084
2455.5752 1133.7031 4400.3623 9926497
2480.7104 1133.2727 4398.6919 9860705
2506.9927 1133.3698 4399.0684 9794657
2526.334 1130.3593 4387.3833 9860450
2536.1975 1123.2125 4359.644 9728864
2564.3389 1124.2233 4363.5669 9860707
2497.1487 1083.8368 4206.811 8344902
2287.543 983.04749 3815.6064 1638400
2353.3765 1001.4396 3886.9939 4532516
2367.6406 997.74335 3872.6475 9466198
2376.1545 991.71826 3849.2615 7360320
2380.5151 984.09076 3819.656 10190962
2383.2485 975.94055 3788.0217 8875362
2389.9272 969.54303 3763.1904 9928054
2395.7075 962.90277 3737.4167 9862516
2392.5476 952.82367 3698.2957 7955031
2420.6392 955.26038 3707.7537 9600368
2416.6191 945.09497 3668.2976 9862771
2443.6572 947.1488 3676.2693 9665390
2513.4319 965.58447 3747.8257 10322807
2561.5635 975.45544 3786.1387 10652542
2570.9172 970.51642 3766.9683 10257269
2619.4387 980.32074 3805.0229 10848634
2871.5774 1065.5109 4135.6802 10519410
2885.8621 1061.749 4121.0796 10058855
3120.8193 1138.558 4419.2061 10388077
3176.3979 1149.1907 4460.4761 12032644
3185.1362 1142.8416 4435.832 12229767
3178.0107 1130.9508 4389.6797 11967108
3199.4895 1129.35 4383.4658 12231305
3220.9478 1127.7676 4377.3242 12363150
3164.5859 1099.1808 4266.3672 13880997
3210.2002 1106.1865 4293.5591 13946801
3236.4424 1106.4592 4294.6177 13881263
3275.7214 1111.1498 4312.8237 13815717
3358.3721 1130.366 4387.4092 13877656
3437.854 1148.2284 4456.7407 12952705
3441.5842 1140.7107 4427.5615 12491899
3458.092 1137.5099 4415.1377 10123360
3495.3623 1141.1354 4429.21 7558209
3555.8477 1152.2292 4472.27 8940121
3594.8777 1156.2583 4487.9082 9400417
3582.3008 1143.7512 4439.3628 9334111
3604.1355 1142.3333 4433.8594 9136989
3640.9136 1145.6378 4446.6855 8742230
3662.0493 1144.0082 4440.3608 8940379
3665.9351 1137.0515 4413.3589 8940379
3703.9714 1140.7108 4427.562 8940122
3754.3176 1148.083 4456.1763 9136731
3782.7891 1148.7094 4458.6079 9399905
3814.7642 1150.3839 4465.1074 9926504
3882.2249 1162.6626 4512.7656 11046268
3831.3713 1139.5825 4423.1826 13282719
3846.9109 1136.4296 4410.9448 14010554
3878.2336 1137.9502 4416.8467 13946821
3884.3906 1132.1158 4394.2012 13947079
3903.8523 1130.2109 4386.8081 13815231
3917.0125 1126.5192 4372.4785 13281948
3882.4211 1109.2329 4305.3833 12228746
3848.1384 1092.2599 4239.5044 11899522
3851.6296 1086.1595 4215.8262 9069912
3974.5161 1113.5901 4322.2954 9728094
4020.6775 1119.3099 4344.4966 9333853
4081.1497 1128.9156 4381.7803 9334367
4113.3027 1130.616 4388.3799 9729124
4062.5037 1109.6372 4306.9526 8677207
4057.9875 1101.4832 4275.3037 8808536
4096.7554 1105.1063 4289.3667 8677207
0 0 0 0
0 0 0 0
0 0 0 0
0 0 0 0
0 0 0 0
0 0 0 0
-4113.0854 1204.7716 4571.064 12
-3992.9939 1177.3495 4467.021 12
-4109.2041 1219.7008 4627.7075 12
-4036.5103 1206.1737 4576.3838 12
-4271.5146 1285.0306 4875.5776 12
-4032.7703 1221.4698 4634.4194 12
-4019.2893 1225.7344 4650.5996 12
-3992.0942 1225.8466 4651.0254 12
-3949.8474 1221.3063 4633.7988 12
-3947.0366 1228.9814 4662.9194 12
-3890.6597 1219.9686 4628.7236 12
-3886.157 1227.209 4656.1948 12
-3863.7874 1228.8705 4662.4985 12
-3792.4109 1214.8572 4609.3301 12
-3777.0979 1218.7299 4624.0239 12
-3741.7561 1216.1498 4614.2344 12
-3705.3218 1213.1737 4602.9429 12
-3640.5969 1200.8221 4556.0796 12
-3698.1038 1228.9045 4662.6274 12
-4008.2891 1342.0084 5091.7588 12
-4050.187 1366.322 5184.0078 12
-3677.3369 1250.0234 4742.7559 12
-3623.0957 1241.0712 4708.7896 266
-3782.3401 1305.6758 4953.9082 267
-3389.5466 1179.2354 4474.1763 266
-3820.6475 1339.6968 5082.9883 12
-3536.1941 1249.8079 4741.938 12
-3789.7915 1350.1674 5122.7148 12
-3359.7288 1206.6169 4578.0654 12
-3368.5339 1219.6281 4627.4316 12
-3769.5757 1376.0334 5220.8545 12
-3361.6309 1237.2738 4694.3818 12
-3143.333 1166.582 4426.168 12
-3201.5071 1198.1705 4546.019 12
-3166.6775 1195.1931 4534.7222 12
-3122.9866 1188.7915 4510.4336 12
-3184.6685 1222.7367 4639.2261 12
-3137.8484 1215.2515 4610.8262 12
-3452.7649 1348.9618 5118.1411 12
-3404.3743 1341.8436 5091.1338 12
-3446.2075 1370.4781 5199.7769 12
-3443.7263 1381.8474 5242.9136 12
-3421.2681 1385.335 5256.1455 12
-3081.3621 1259.1648 4777.439 12
-3071.9224 1266.9482 4806.9707 12
-3073.5437 1279.4822 4854.5259 12
-3234.083 1359.0337 5156.355 12
-3167.3921 1343.7047 5098.1953 12
-3043.9365 1303.7676 4946.668 11
-3181.8772 1376.1024 5221.1162 15
-3055.3022 1334.3365 5062.6509 14
-2957.7375 1304.5377 4949.5898 14
-2908.0657 1295.4767 4915.2114 14
-2886.7666 1298.9999 4928.5791 15
-2835.1821 1288.8279 4889.9849 15
-2790.0051 1281.3885 4861.7588 15
-2771.5525 1286.1959 4879.999 15
-2731.3145 1280.8881 4859.8604 16
-2707.105 1283.0641 4868.1162 15
-2671.5127 1279.8339 4855.8604 15
-2642.7754 1279.853 4855.9331 14
-2610.7983 1278.2864 4849.9888 14
-2559.071 1266.9072 4806.8149 16
-2523.106 1263.163 4792.6089 16
-2509.3213 1270.5643 4820.6904 16
-2465.6699 1262.8394 4791.3809 17
-2433.4075 1260.8353 4783.7773 18
-2413.6355 1265.332 4800.8389 18
-2366.9077 1255.6362 4764.0513 17
-2330.239 1251.1069 4746.8667 16
-2304.0811 1252.1792 4750.9351 16
-2268.9207 1248.325 4736.3115 15
-2236.3574 1245.8209 4726.811 17
-2203.6331 1243.1626 4716.7246 18
-2177.9729 1244.4724 4721.6943 16
-2145.9968 1242.1603 4712.9219 17
-2117.6001 1241.8864 4711.8828 17
-2083.4626 1238.1937 4697.8721 17
-2053.9993 1237.2162 4694.1631 18
-2015.0042 1230.3917 4668.27 18
-1984.8564 1228.8546 4662.4385 18
-1961.5281 1231.5558 4672.687 18
-1927.4816 1227.5085 4657.3311 18
-1909.5198 1233.736 4680.959 18
-1865.6545 1223.1642 4640.8481 18
-1841.5988 1225.4578 4649.5503 18
-1805.345 1219.5809 4627.2524 18
-1779.5599 1220.704 4631.5137 18
-1745.504 1216.0997 4614.0444 18
-1712.8473 1212.3392 4599.7769 18
-1685.603 1212.3501 4599.8179 18
-1505.6215 1100.7008 4176.2061 18
-1477.6215 1098.2845 4167.0381 18
-1456.5054 1100.9896 4177.3018 18
-1432.8242 1101.8159 4180.4365 18
-1407.3312 1101.2534 4178.3022 18
-1377.0853 1096.885 4161.728 18
-1347.6733 1093.0336 4147.1152 18
-1323.4258 1093.3054 4148.1465 18
-1299.2751 1093.6692 4149.5269 18
-1275.2804 1094.1808 4151.4678 18
-1250.1304 1093.7018 4149.6504 18
-1225.7241 1093.8673 4150.2783 18
-1203.9359 1096.4238 4159.978 18
-1182.175 1099.1127 4170.1802 18
-1154.7671 1096.554 4160.4717 18
-1124.4041 1091.0162 4139.4609 18
-1103.0177 1094.1359 4151.2974 18
-1077.8251 1093.536 4149.0215 18
-1049.6581 1089.8202 4134.9229 18
-1034.5381 1099.7965 4172.7749 17
-1007.9758 1097.7996 4165.1982 17
-986.21033 1101.0577 4177.5601 17
-968.09833 1108.6678 4206.4336 18
-944.64355 1110.3998 4213.0049 18
-922.27844 1113.5415 4224.9248 18
-901.30603 1118.5869 4244.0679 18
-878.37659 1121.4235 4254.8301 18
-849.13782 1116.1346 4234.7637 18
-825.76099 1118.4633 4243.5986 18
-803.047 1121.8643 4256.5024 18
-776.08002 1119.3517 4246.9697 18
-757.97644 1129.8831 4286.9268 18
-739.24915 1140.1827 4326.0054 18
-748.09277 1195.2743 4535.0303 19
-729.68384 1209.306 4588.2686 19
-700.76062 1206.3242 4576.9551 19
-673.58868 1206.2384 4576.6294 18
-604.62427 1128.165 4280.4087 18
-576.74774 1123.2767 4261.8618 18
-550.65839 1121.5807 4255.4268 18
-525.33612 1121.3595 4254.5874 19
-539.27863 1209.1539 4587.6914 19
-512.08844 1209.1481 4587.6689 19
-485.89319 1211.6223 4597.0566 19
-459.24448 1213.1926 4603.0146 18
-432.64874 1215.11 4610.2896 18
-383.7345 1150.3784 4364.689 19
-356.40012 1145.6584 4346.7812 19
-342.14752 1185.5311 4498.0635 19
-325.64969 1223.7047 4642.8989 19
-297.82303 1222.4247 4638.042 19
-270.41675 1222.7852 4639.4102 19
-243.90192 1227.7147 4658.1133 19
-216.22324 1227.2963 4656.5259 18
-189.1698 1230.8236 4669.9092 18
-161.83284 1233.399 4679.6807 18
-134.13417 1233.7129 4680.8711 18
-106.68204 1237.0492 4693.5293 18
-78.833145 1236.5151 4691.5034 18
-51.23941 1241.5823 4710.7285 18
-23.364155 1243.7928 4719.1162 18
4.6118445 1246.363 4728.8677 18
32.653069 1247.0101 4731.3228 18
60.680904 1246.7844 4730.4663 18
88.990891 1250.6665 4745.1958 19
117.13841 1250.9493 4746.2686 19
145.59401 1253.7756 4756.9917 19
173.60519 1252.4786 4752.0708 19
201.93163 1253.5007 4755.9487 19
230.44131 1255.2706 4762.6641 19
258.93625 1256.5826 4767.6421 19
