# .PCD v0.7 - Point Cloud Data file format
VERSION 0.7
FIELDS x y z rgb
SIZE 4 4 4 4
TYPE F F F U
COUNT 1 1 1 1
WIDTH 1406
HEIGHT 1
VIEWPOINT 0 0 0 1 0 0 0
POINTS 1406
DATA ascii
1632.7743 1118.6234 2500.9612 8611163
1650.3757 1120.5111 2505.1814 8676956
1658.6614 1116.0966 2495.3115 8545370
1677.1841 1118.5875 2500.8809 8611163
1697.486 1122.2112 2508.9824 8611163
1699.2203 1113.6033 2489.7373 8874335
1704.0193 1107.1349 2475.2756 9203303
1715.947 1105.369 2471.3276 8480091
1739.8817 1111.3022 2484.5928 8677468
1758.9546 1114.0563 2490.7502 9269605
1778.7458 1117.2161 2497.8147 10453879
1795.901 1118.6814 2501.0908 9138019
1814.8276 1121.2173 2506.7605 8940384
1845.3188 1130.7987 2528.1821 7822160
1861.4493 1131.4966 2529.7422 6572093
1849.3251 1115.1455 2493.1853 8019282
1870.8643 1119.1919 2502.2322 8940641
1876.7799 1113.9017 2490.4048 8414297
1893.9885 1115.3445 2493.6304 8743262
1908.3436 1115.0977 2493.0784 8743518
1935.126 1122.0602 2508.645 8743520
1938.9412 1115.7009 2494.4272 8481119
1944.7733 1110.5897 2482.9998 8284514
1967.5389 1115.1527 2493.2014 7429719
1961.2716 1103.3153 2466.7358 8876397
1942.9131 1084.9012 2425.5669 1708820
1968.0415 1090.8621 2438.8938 7440780
0 0 0 0
1984.6244 1084.1299 2423.8423 12964300
2009.558 1089.8622 2436.6582 13029324
2026.9059 1091.4279 2440.1587 13029583
2042.9528 1092.2759 2442.0544 13029583
2058.967 1093.0946 2443.885 13095376
2078.4514 1095.7313 2449.78 13095376
2096.364 1097.5085 2453.7534 13095120
2112.9224 1098.557 2456.0977 12964560
2121.8757 1095.6644 2449.6306 12701646
2143.1357 1099.1226 2457.3621 12767183
2171.9463 1106.3802 2473.5886 13161684
2211.1685 1118.8087 2501.3755 3487813
2264.8423 1138.3352 2545.0317 7369602
2263.0466 1129.9082 2526.1912 4342857
2297.6125 1139.6276 2547.9211 5198165
2301.3044 1134.0062 2535.3533 5197908
2290.8179 1121.5165 2507.4294 3619131
2301.3767 1119.4247 2502.7524 4539976
2329.4324 1125.8157 2517.0413 5263443
2333.8486 1120.7732 2505.7676 4013378
2398.0273 1144.3125 2558.3955 5330008
2396.7124 1136.4994 2540.9272 5329750
2413.4526 1137.2921 2542.6997 3487288
2429.1802 1137.6007 2543.3896 1776413
0 0 0 0
0 0 0 0
0 0 0 0
0 0 0 0
0 0 0 0
0 0 0 0
0 0 0 0
0 0 0 0
0 0 0 0
-2304.5173 1184.1038 2612.741 16
-2290.1067 1184.6588 2613.9658 16
-2278.3569 1186.6073 2618.2651 16
-2267.3098 1188.9509 2623.4365 16
-2257.594 1192.0298 2630.2302 16
-2254.9512 1198.9121 2645.416 16
-2250.7085 1205.0343 2658.9246 16
-2238.7083 1207.0599 2663.3943 16
-2231.1816 1211.5437 2673.2878 16
-2309.3345 1262.9486 2786.7134 16
-2295.8198 1264.6012 2790.3599 16
-2254.7373 1250.9823 2760.3096 16
-2148.1331 1200.5457 2649.0205 16
-2140.21 1204.9232 2658.6797 16
-2135.6638 1211.2811 2672.7085 16
-2114.6194 1208.3068 2666.1453 16
-2092.2993 1204.5531 2657.863 15
-2077.1162 1204.8827 2658.5901 16
-2065.2156 1207.1357 2663.5615 16
-2051.3193 1208.2482 2666.0161 16
-2041.0514 1211.5314 2673.2607 16
-2037.8243 1219.0782 2689.9128 16
-2147.7153 1294.9476 2857.3196 16
-2082.6108 1265.6722 2792.7231 16
-2076.9236 1272.327 2807.407 16
-1989.4055 1228.5547 2710.8228 16
-1960.0057 1220.2528 2692.5044 16
-1946.8605 1222.0172 2696.3977 16
-1928.729 1220.6553 2693.3926 16
-1917.5171 1223.6863 2700.0806 16
-1898.1189 1221.5001 2695.2568 16
-1886.9509 1224.6184 2702.1375 16
-1877.0908 1228.646 2711.0244 16
-1861.2162 1228.7726 2711.3035 16
-1835.5822 1222.402 2697.2466 16
-1823.8666 1225.2698 2703.5745 16
-1814.2195 1229.5902 2713.1077 15
-1795.0492 1227.4761 2708.4429 16
-1759.2877 1213.876 2678.4341 16
-1856.8546 1292.8602 2852.7136 16
-1769.708 1243.5046 2743.8101 16
-1751.3418 1242.0111 2740.5146 16
-1816.4507 1300.2424 2869.0029 16
-1823.7115 1317.7747 2907.6877 16
-1681.1876 1226.3776 2706.0188 16
-1658.9011 1221.7744 2695.8621 16
-1736.4407 1291.3181 2849.3113 16
-1666.1049 1251.1793 2760.7441 16
-1614.3468 1224.3335 2701.5088 16
-1630.369 1248.8701 2755.6492 16
-1616.8732 1251.0636 2760.489 16
-1671.1993 1306.3158 2882.4038 16
-1664.0406 1314.1525 2899.6953 16
-1673.0365 1335.0436 2945.7917 16
-1634.7053 1318.2112 2908.6509 16
-1614.5566 1315.8384 2903.4153 17
-1609.3914 1325.7572 2925.3013 18
-1592.1665 1325.8497 2925.5056 18
-1574.8882 1325.8992 2925.6147 18
-1557.5016 1325.8577 2925.5232 18
-1534.2828 1320.7946 2914.3513 18
-1436.8677 1251.0167 2760.3855 16
-1505.188 1325.5919 2924.9368 16
-1478.8204 1317.5435 2907.1775 16
-1488.5884 1341.8793 2960.875 16
-1453.2394 1325.6401 2925.043 16
-1446.8077 1335.7057 2947.2529 16
-1433.1995 1339.3108 2955.2075 16
-1417.6768 1341.1938 2959.3625 16
-1404.1675 1345.0529 2967.8774 16
-1387.2933 1345.7455 2969.4058 16
-1370.239 1346.2789 2970.583 14
-1342.2083 1335.9016 2947.6853 14
-1336.167 1347.4252 2973.1121 15
-1311.5243 1340.248 2957.2756 14
-1287.6104 1333.6312 2942.6755 13
-1255.5701 1318.3003 2908.8477 13
-1238.3079 1318.2749 2908.7917 13
-1222.3768 1319.6862 2911.9055 15
-1223.9137 1340.2662 2957.3157 15
-1188.9933 1320.941 2914.6746 16
-1172.5397 1321.8649 2916.7129 16
-1098.6855 1257.1375 2773.8909 16
-1101.9863 1280.0668 2824.4849 16
-1087.0065 1282.141 2829.0618 16
-1113.9998 1334.564 2944.7336 16
-1096.3241 1334.2906 2944.1306 16
-1079.8564 1335.5024 2946.8044 16
-1062.6136 1335.7799 2947.4165 16
-1009.2229 1289.8665 2846.1079 16
-992.16559 1289.6187 2845.5613 16
-975.38379 1289.7264 2845.7991 16
-958.70966 1289.983 2846.3652 16
-925.31042 1267.3414 2796.4062 16
-896.28394 1249.9724 2758.0813 16
-891.41876 1266.2797 2794.0635 16
-874.70294 1266.0516 2793.5603 16
-904.28076 1334.1132 2943.739 16
-889.73499 1338.4749 2953.3633 16
-870.01208 1335.0673 2945.8442 16
-810.93597 1269.8943 2802.0393 16
-834.52057 1334.1461 2943.8118 16
-817.39685 1334.6719 2944.9717 16
-800.2962 1335.2589 2946.2671 16
-782.5307 1334.7383 2945.1184 16
-762.25568 1329.8157 2934.2566 16
-745.67291 1331.2551 2937.4326 16
-728.85522 1332.334 2939.8132 16
-673.56335 1261.4132 2783.3254 16
-664.47913 1275.6393 2814.7156 16
-679.58807 1338.239 2952.8428 16
-661.33386 1336.7129 2949.4753 16
-641.40186 1331.6207 2938.2393 16
-622.63007 1328.7202 2931.8394 16
-604.755 1327.6218 2929.4155 16
-585.8576 1324.1477 2921.75 16
-569.39185 1326.1252 2926.1135 16
-550.24823 1321.7946 2916.5579 16
-533.89294 1324.0983 2921.6409 16
-516.71234 1324.4409 2922.397 16
-501.8602 1330.9825 2936.8313 14
-478.48935 1314.5901 2900.6611 14
-464.27307 1323.0643 2919.3596 14
-446.09723 1320.474 2913.644 14
-433.43536 1334.6541 2944.9324 14
-384.37448 1233.24 2721.1609 14
-398.28741 1333.839 2943.134 14
-381.40302 1335.7906 2947.4404 13
-342.10608 1255.6666 2770.6455 16
-340.22299 1311.7107 2894.3076 16
-305.92847 1242.1108 2740.7346 16
-289.23193 1240.1627 2736.436 16
-275.29947 1250.5387 2759.3308 16
-256.5394 1238.9114 2733.6748 16
-240.79497 1241.2612 2738.8601 16
-224.41025 1240.4121 2736.9863 16
-208.1346 1240.0804 2736.2544 16
-191.44875 1237.042 2729.55 16
-174.06856 1228.5424 2710.7954 16
-158.36732 1231.3688 2717.032 16
-141.92441 1228.4155 2710.5159 16
-125.92968 1229.0829 2711.988 16
-110.56789 1237.0265 2729.5159 16
-94.280807 1235.5669 2726.2952 16
-77.801743 1230.467 2715.0425 16
-61.69416 1230.1149 2714.2651 16
-45.789814 1234.9957 2725.0349 16
-29.539011 1230.7598 2715.6882 16
-13.423644 1228.7808 2711.3215 16
2.6427467 1228.0935 2709.8052 16
18.712372 1228.799 2711.3616 16
34.668819 1224.8539 2702.657 16
50.886841 1229.7233 2713.4014 16
66.963341 1229.6555 2713.2517 16
83.076988 1230.1639 2714.3738 16
99.070824 1229.0211 2711.8521 16
118.702 1267.0223 2795.7021 16
135.68849 1270.9427 2804.3525 16
145.20392 1211.665 2673.5554 16
160.71049 1209.1259 2667.9526 16
178.47729 1222.5236 2697.5149 16
192.06366 1207.4376 2664.2275 16
210.61151 1223.4653 2699.593 16
226.60361 1223.4314 2699.5183 16
251.20468 1266.8169 2795.2488 16
267.47064 1265.401 2792.1245 16
284.81689 1268.9631 2799.9846 16
302.1821 1272.213 2807.1553 16
317.75394 1267.9674 2797.7874 16
336.5679 1276.4386 2816.4792 16
353.40323 1276.9598 2817.6294 16
371.90247 1283.1749 2831.3433 16
387.61603 1279.6571 2823.5811 16
404.59528 1280.4359 2825.2996 17
419.02753 1273.4128 2809.803 16
433.49203 1267.0206 2795.6982 16
432.94617 1218.8416 2689.3904 16
449.35876 1220.1305 2692.2346 16
465.17981 1219.7799 2691.4609 16
481.07111 1219.6305 2691.1313 16
523.74347 1285.2087 2835.8306 16
533.24884 1267.8513 2797.5312 16
531.90948 1226.5337 2706.3635 16
563.9657 1262.3881 2785.4766 16
579.77155 1260.8625 2782.1104 16
595.52722 1259.3153 2778.6965 16
591.89496 1217.9562 2687.437 16
604.08667 1210.4727 2670.9246 16
663.4682 1295.5164 2858.5745 16
676.10315 1287.3184 2840.4856 17
650.69904 1208.8508 2667.3459 15
667.29327 1210.2782 2670.4954 16
678.28156 1201.7073 2651.5837 18
692.76355 1199.5743 2646.8772 16
708.78137 1200.1361 2648.1169 65550
717.95935 1189.3433 2624.302 131083
729.27295 1182.4707 2609.1377 327687
0 0 0 0
0 0 0 0
0 0 0 0
735.74445 1099.699 2426.5007 9006689
749.29346 1098.4807 2423.8127 9993327
765.68774 1101.4011 2430.2566 9335142
779.27667 1100.2528 2427.7229 11112321
804.47327 1115.2379 2460.7876 8678235
813.10016 1107.1278 2442.8926 9927019
829.80383 1110.1064 2449.4651 9926506
840.00562 1104.4341 2436.949 10123884
853.3714 1103.0431 2433.8796 9465954
870.27618 1106.1968 2440.8384 10189678
894.18622 1118.0061 2466.8958 9334112
902.81256 1110.6335 2450.6282 10321264
924.96686 1119.873 2471.0151 9465698
932.06769 1110.8829 2451.1785 9465957
946.81708 1111.1449 2451.7563 9466472
960.05078 1109.6471 2448.4514 9597800
966.0946 1100.0073 2427.1812 9861228
976.9668 1096.0673 2418.4875 9663848
1000.1038 1105.8024 2439.968 9400422
1018.0089 1109.5575 2448.2539 9334884
1030.5603 1107.4541 2443.6125 9203555
1041.1646 1103.3453 2434.5466 9598312
1056.6923 1104.4952 2437.0837 9663078
1080.0792 1113.718 2457.4341 9400163
1087.0396 1105.9825 2440.3657 9268578
1099.1664 1103.6378 2435.1919 9136993
1113.8082 1103.8464 2435.6521 9071199
1122.5614 1098.2881 2423.3877 8281683
1147.8102 1108.8053 2446.5942 9202528
1160.9929 1107.5498 2443.8237 8939613
1169.197 1101.6339 2430.7705 9992300
1183.5044 1101.543 2430.5696 9728617
1200.1229 1103.5791 2435.0625 10255217
1211.7194 1101.0038 2429.3801 10123886
1223.6937 1098.8284 2424.5798 9992302
1246.802 1106.5852 2441.6956 9992301
1262.0798 1107.2939 2443.2593 9992815
1291.4148 1120.1798 2471.6921 9597800
1311.6289 1124.9541 2482.2266 9400678
1309.7091 1110.849 2451.1035 9795436
1323.037 1109.8441 2448.8865 9926765
1333.463 1106.4532 2441.4043 8611163
1357.8782 1114.6182 2459.4204 9466471
1377.2861 1118.5431 2468.0808 9532007
1393.515 1119.8309 2470.9224 9729643
1403.958 1116.4908 2463.5522 8545370
1402.793 1104.0831 2436.1746 8413784
1418.9668 1105.436 2439.1597 8940128
1434.7717 1106.4769 2441.4565 9861230
1451.241 1108.0045 2444.8271 9861230
1470.5466 1111.6459 2452.8621 10058353
1479.2782 1107.3009 2443.2747 9400678
1509.5374 1118.9983 2469.085 8676699
1499.3745 1100.7944 2428.918 8084819
1533.0516 1114.8167 2459.8582 10848125
1556.6317 1121.3014 2474.167 6440250
1559.2722 1112.7224 2455.2373 7887184
1585.1346 1120.7203 2472.8848 9334886
1601.5698 1121.9675 2475.6367 9005921
1620.694 1125.0586 2482.4573 8742749
1629.7246 1121.1505 2473.834 9071714
1659.5614 1131.4978 2496.6655 9071714
1669.7145 1128.3604 2489.7427 9005921
1679.2812 1124.8853 2482.0747 9268836
1689.3773 1121.8218 2475.3152 8874079
1703.2157 1121.2749 2474.1084 8940387
1701.6843 1110.7052 2450.7864 8150871
1731.8126 1120.8042 2473.0698 8216664
1752.3005 1124.5468 2481.3279 8940386
1759.6553 1119.8691 2471.0066 8085076
1778.9062 1122.777 2477.4229 8414296
1795.5422 1124.0004 2480.1223 9006177
1787.5874 1109.9352 2449.0872 8743262
1828.7236 1126.3323 2485.2676 8874848
1851.0493 1130.9741 2495.51 9006434
1857.8438 1126.1284 2484.8176 7690832
1847.1091 1110.8171 2451.0332 8217177
1885.6409 1125.1414 2482.6399 8546142
1892.0106 1120.2018 2471.7407 8940900
1905.5577 1119.5551 2470.3135 8546398
1918.3456 1118.4753 2467.9312 8613216
1929.2371 1116.3148 2463.1638 8547943
1924.9706 1105.4816 2439.2603 7101523
1926.0356 1097.849 2422.4187 9008237
1926.2029 1089.8213 2404.7056 5400945
1929.3882 1083.6066 2390.9927 12441043
1936.8209 1079.8505 2382.7048 13161167
1970.7009 1090.7875 2406.8374 12898508
1991.5557 1094.4095 2414.8296 13029583
2005.9176 1094.4375 2414.8914 12963790
2021.9208 1095.3541 2416.9138 12963790
2034.6798 1094.5126 2415.0571 13029326
2051.2549 1095.7214 2417.7244 13095119
2070.1428 1098.1404 2423.0618 13095376
2101.2598 1106.9684 2442.541 13029839
2101.4504 1099.4948 2426.05 13029585
2186.4763 1136.2075 2507.0574 12963794
2126.9175 1097.7979 2422.3059 12898511
2178.998 1117.1392 2464.9829 13029330
2161.1589 1100.6149 2428.5217 11581113
2238.989 1132.7084 2499.3364 5132893
2272.0769 1141.8934 2519.6035 4803414
2274.5132 1135.6545 2505.8374 3619394
2303.4846 1142.6595 2521.2939 3290424
2332.0598 1149.3789 2536.1204 5987932
2339.7183 1145.7693 2528.1555 7434611
2342.2449 1139.7084 2514.7822 6119008
2344.4746 1133.5806 2501.2612 4342597
2363.7502 1135.72 2505.9817 4342597
2389.5391 1140.9425 2517.5054 4474437
2402.729 1140.1221 2515.6948 5790297
0 0 0 0
0 0 0 0
0 0 0 0
0 0 0 0
0 0 0 0
0 0 0 0
0 0 0 0
0 0 0 0
0 0 0 0
-2281.2014 1187.4506 2586.3066 16
-2269.439 1189.3186 2590.3752 16
-2261.884 1193.432 2599.3345 16
-2248.4832 1194.4965 2601.6528 16
-2228.7566 1192.1917 2596.6328 16
-2227.7866 1199.9578 2613.5476 16
-2203.4473 1195.157 2603.0916 16
-2190.0039 1196.2402 2605.4509 16
-2174.5425 1196.2285 2605.4255 16
-2164.4885 1199.2129 2611.9253 16
-2254.3027 1257.9697 2739.8997 16
-2138.9099 1202.2362 2618.5105 16
-2111.8035 1195.675 2604.22 16
-2112.7332 1205.0077 2624.5466 16
-2093.0879 1202.6566 2619.426 16
-2068.9731 1197.6833 2608.594 17
-2063.3962 1203.4469 2621.1472 15
-2052.0198 1205.8898 2626.4678 16
-2035.7618 1205.4795 2625.5742 16
-2027.6459 1209.9214 2635.2488 16
-2003.1349 1204.5729 2623.5999 16
-1987.5153 1204.5295 2623.5054 16
-1975.7223 1206.8229 2628.5002 16
-1960.7703 1207.2076 2629.3384 16
-1944.5969 1206.8407 2628.5391 16
-1934.9614 1210.558 2636.6355 16
-1920.5577 1211.3285 2638.3137 16
-1894.8173 1204.9027 2624.3179 16
-1882.5281 1206.9948 2628.8748 16
-1865.733 1206.2089 2627.1628 16
-1857.0425 1210.6932 2636.9299 16
-1843.6273 1212.1475 2640.0974 16
-1833.597 1215.8712 2648.2078 16
-1819.7469 1217.1042 2650.8936 16
-1809.2448 1220.6176 2658.5457 16
-1795.5681 1222.0322 2661.6267 16
-1762.748 1210.3278 2636.134 16
-1746.5564 1209.9332 2635.2747 16
-1735.7137 1213.2708 2642.5439 16
-1793.3882 1264.9988 2755.2092 16
-1786.6254 1271.8076 2770.0391 16
-1711.4863 1229.6179 2678.1487 16
-1782.6107 1292.7048 2815.5542 16
-1680.5223 1230.1879 2679.3899 16
-1667.5977 1232.371 2684.1448 16
-1654.6406 1234.5718 2688.9382 16
-1641.821 1236.9192 2694.0508 16
-1669.6139 1270.2096 2766.5586 16
-1672.5839 1285.0884 2798.9651 16
-1649.6855 1280.1908 2788.2979 16
-1638.4093 1284.3043 2797.2573 16
-1559.011 1234.5571 2688.9065 16
-1605.3206 1284.3569 2797.3718 16
-1597.0037 1291.035 2811.9172 16
-1574.0691 1285.9125 2800.76 16
-1494.0149 1233.5204 2686.6482 18
-1547.2533 1291.2368 2812.3564 18
-1536.7286 1296.4183 2823.6421 18
-1445.6351 1232.9958 2685.5059 18
-1494.9706 1289.2679 2808.0684 18
-1506.4127 1313.7598 2861.4124 17
-1486.3114 1310.9867 2855.3726 16
-1489.6333 1329.048 2894.7104 16
-1442.9409 1302.3875 2836.6431 16
-1454.7166 1328.4932 2893.5022 16
-1426.6754 1318.4261 2871.5759 16
-1406.6952 1315.6553 2865.5408 16
-1393.38 1319.1265 2873.1011 16
-1376.1431 1318.9249 2872.6621 16
-1358.984 1318.7938 2872.3767 16
-1333.9977 1310.9674 2855.3303 15
-1324.6083 1318.4642 2871.6589 14
-1309.4177 1320.307 2875.6724 16
-1295.6073 1323.6083 2882.8625 15
-1278.208 1323.2822 2882.1526 15
-1260.5963 1322.7246 2880.938 14
-1236.3331 1315.0765 2864.2803 13
-1219.8081 1315.561 2865.3357 14
-1204.0782 1316.9291 2868.3152 14
-1190.1646 1320.3511 2875.7683 13
-1178.8994 1326.8535 2889.9309 13
-1155.6978 1319.9149 2874.8184 14
-1079.9243 1251.8284 2726.5237 16
-1122.9486 1321.4734 2878.2129 16
-1101.66 1316.4167 2867.1992 16
-1095.235 1329.2411 2895.1311 16
-1076.3718 1327.1376 2890.5496 16
-1067.0117 1336.8727 2911.7529 16
-994.49518 1266.4974 2758.4734 16
-962.25732 1245.9225 2713.6604 16
-971.98187 1279.9041 2787.6736 16
-955.37994 1279.7948 2787.4355 16
-913.96753 1245.8617 2713.5281 16
-897.71844 1245.6283 2713.0198 16
-882.50201 1246.8456 2715.6709 16
-866.75488 1247.3442 2716.7571 16
-862.71979 1265.0355 2755.2893 16
-846.48206 1265.171 2755.5845 16
-867.91284 1322.7197 2880.9272 16
-855.86017 1330.5243 2897.926 16
-839.18976 1331.3229 2899.6653 16
-822.53656 1332.1825 2901.5376 16
-763.04456 1262.2157 2749.1477 16
-786.14813 1328.8051 2894.1814 16
-772.56165 1334.9653 2907.5989 16
-755.27246 1334.8625 2907.375 16
-739.48859 1337.4777 2913.0708 16
-731.25824 1354.2061 2949.5056 16
-706.65692 1340.6941 2920.0762 16
-687.27466 1336.6541 2911.2769 16
-669.414 1335.4414 2908.6357 16
-652.31134 1335.7169 2909.2358 16
-633.42877 1332.2638 2901.7148 16
-575.05225 1243.2339 2707.8047 16
-558.82336 1242.8295 2706.9238 16
-542.3606 1241.8657 2704.8247 14
-526.05798 1241.2208 2703.4202 13
-543.64124 1323.0001 2881.5381 14
-498.39587 1252.2257 2727.3892 14
-508.40952 1320.1995 2875.4382 14
-465.54294 1250.8104 2724.3066 14
-453.78598 1263.0232 2750.9062 14
-435.87186 1258.3702 2740.7722 14
-436.62653 1309.3405 2851.7871 14
-400.21606 1248.4784 2719.2273 14
-403.35831 1311.0709 2855.5559 14
-386.54727 1311.4496 2856.3806 13
-369.11237 1309.6493 2852.4595 13
-334.52695 1243.9039 2709.2639 16
-316.15927 1234.8734 2689.5952 16
-301.05682 1238.3148 2697.0908 16
-281.82819 1224.2186 2666.3887 16
-265.91742 1223.7163 2665.2947 16
-250.06291 1223.4255 2664.6614 16
-234.19858 1223.0444 2663.8313 16
-218.39984 1222.9756 2663.6814 16
-214.22333 1293.0474 2816.3 16
-190.94016 1249.8887 2722.2988 16
-180.58797 1291.2214 2812.3232 16
-165.08757 1300.4064 2832.3281 16
-147.48195 1293.2106 2816.6555 16
-130.68465 1292.1703 2814.3896 16
-114.12571 1293.5273 2817.3455 16
-97.192245 1290.3772 2810.4844 16
-80.465286 1289.2328 2807.9917 16
-63.815254 1289.0454 2807.5837 16
-47.076218 1286.2941 2801.5911 16
-30.611565 1292.1265 2814.2942 16
-13.886094 1287.7341 2804.7278 16
2.7348204 1287.4988 2804.2151 16
19.353868 1287.5435 2804.3123 16
35.817734 1281.9926 2792.2224 16
52.532265 1286.0865 2801.1392 16
69.118896 1285.8351 2800.5916 16
85.62101 1284.4131 2797.4944 16
101.3762 1274.0654 2774.9568 16
117.75471 1273.3467 2773.3911 16
134.62729 1277.4921 2782.4202 16
151.2119 1278.2986 2784.1768 16
159.45065 1215.3342 2647.0381 16
185.7403 1288.9098 2807.2883 16
190.23729 1211.5944 2638.8928 16
206.58423 1215.7628 2647.9717 16
222.47301 1216.8367 2650.3105 16
238.39156 1217.921 2652.6724 16
254.1857 1218.2749 2653.4431 16
281.9382 1272.5632 2771.6848 16
297.96356 1270.8562 2767.9668 16
314.3537 1270.8019 2767.8486 16
331.91907 1275.2683 2777.5767 16
349.29929 1278.6349 2784.9092 16
369.49246 1291.5302 2812.9956 16
377.62979 1262.9912 2750.8367 16
394.06308 1263.412 2751.7532 16
392.05826 1207.0337 2628.9595 16
429.7525 1272.5156 2771.5811 16
420.27527 1198.6415 2610.6809 16
458.52826 1261.3083 2747.1714 16
473.94525 1259.0149 2742.1763 16
496.61249 1275.4951 2778.0708 16
508.12643 1263.1908 2751.2715 16
522.57288 1258.715 2741.5229 16
540.55353 1262.7653 2750.3445 16
550.79608 1249.0308 2720.4304 16
535.74213 1180.3445 2570.8293 16
585.95691 1255.2802 2734.0417 16
601.04578 1252.9587 2728.9856 16
617.76654 1254.0715 2731.4094 16
603.87738 1194.5757 2601.8254 16
618.995 1193.9945 2600.5596 16
626.46918 1179.0559 2568.0229 16
648.30957 1191.2229 2594.5229 16
664.19208 1192.1326 2596.5042 18
669.1272 1173.7969 2556.5686 16
689.41772 1182.6135 2575.7715 65550
707.81622 1187.8729 2587.2266 12
716.26837 1176.5712 2562.6108 262153
715.81274 1151.41 2507.8093 458755
0 0 0 0
0 0 0 0
724.39178 1096.8884 2389.0593 8151638
737.93024 1095.9681 2387.0549 10453366
755.78442 1101.3716 2398.824 8479573
778.578 1113.6407 2425.5464 9795689
790.24896 1109.844 2417.2771 9203296
805.05829 1110.5118 2418.7314 9664104
819.4574 1110.6001 2418.9238 9532518
833.51337 1110.2284 2418.1143 9071967
850.32074 1113.4722 2425.1792 10322034
863.55157 1112.0026 2421.9783 10782584
875.1601 1108.526 2414.4062 9861226
892.67755 1112.5254 2423.1172 9071966
910.23486 1116.4471 2431.6589 9927275
923.04242 1114.5118 2427.4436 9664106
933.57574 1109.9318 2417.4683 10256240
944.46301 1105.9048 2408.6973 9729640
958.32245 1105.426 2407.6545 9269345
971.45905 1104.1398 2404.853 11308675
987.54974 1106.1998 2409.3398 9795433
1003.0125 1107.5077 2412.1885 9663847
1008.5868 1098.0135 2391.51 9532518
1031.5485 1107.4493 2412.0613 9795689
1044.7925 1106.3372 2409.6389 10058861
1063.6738 1111.1439 2420.1082 9466467
1073.7979 1106.7961 2410.6387 9202785
1085.6375 1104.3077 2405.2188 9729129
1103.1118 1107.5411 2412.2612 9466470
1109.2546 1099.4603 2394.6611 9203042
1130.4553 1106.3201 2409.6018 9531750
1150.314 1111.7117 2421.345 9202784
1150.2397 1097.9438 2391.3582 9202528
1154.6284 1088.7192 2371.2666 10649975
1183.0114 1102.0691 2400.343 9465702
1201.4227 1105.9227 2408.7366 10189168
1216.1613 1106.3447 2409.6555 9728873
1234.3633 1109.871 2417.3359 9268323
1248.739 1109.9155 2417.4329 8808286
1261.6548 1108.6761 2414.7334 9203043
1282.1827 1114.0786 2426.5002 9597801
1286.2155 1105.1877 2407.1355 9729643
1308.615 1112.1006 2422.1919 9992816
1317.6129 1107.5979 2412.3848 8676956
1342.4691 1116.3793 2431.5112 9334886
1343.2454 1105.1622 2407.0801 9532265
1368.3887 1114.0186 2426.3694 9203300
1381.0343 1112.6219 2423.3276 9203300
1385.3107 1104.5808 2405.8137 9466472
1403.3988 1107.6042 2412.3987 9663850
1410.8684 1102.2706 2400.782 9203043
1431.829 1107.4784 2412.1248 8347735
1447.8423 1108.7946 2414.9912 10255988
1461.7054 1108.4543 2414.2502 9137507
1469.5835 1103.6261 2403.7341 8150355
1486.8291 1105.8578 2408.595 8216405
1509.1831 1111.8104 2421.5601 9597801
1526.0663 1113.6586 2425.5852 9729387
1531.2761 1107.0331 2411.1545 8676699
1559.0974 1116.7256 2432.2654 9071457
1575.5066 1118.1415 2435.3494 9005920
1589.5441 1117.8638 2434.7444 8808542
1600.2249 1115.2516 2429.0549 8743262
1615.3564 1115.7604 2430.1631 9334629
1637.694 1121.1934 2441.9963 9203043
1650.8226 1120.282 2440.0112 8808542
1677.8376 1128.7279 2458.407 9400679
1674.5558 1116.8225 2432.4766 9137507
1698.364 1123.0336 2446.0044 8414297
1726.0261 1131.6661 2464.8064 8743262
1737.0226 1129.3188 2459.6938 8743263
1755.2101 1131.6469 2464.7644 7229769
1752.9596 1120.868 2441.2878 8414043
1763.7681 1118.5476 2436.2336 8940388
1780.1663 1119.7809 2438.9199 8743007
1789.8564 1116.8087 2432.4463 8479836
1810.8739 1120.8954 2441.3472 9335142
1815.0519 1114.5764 2427.5845 8546140
1829.7335 1114.7563 2427.9763 9598828
1842.4254 1113.7307 2425.7424 8019539
1854.7362 1112.4923 2423.0452 8085588
1875.92 1116.5541 2431.8918 8875106
1890.0857 1116.4088 2431.5752 8283229
1889.9271 1107.8687 2412.9746 7032907
1903.0269 1107.1704 2411.4539 6376268
1882.645 1087.1483 2367.8452 3093047
1896.1901 1086.8691 2367.2371 12768462
1900.6064 1081.3998 2355.3247 13226447
1929.2567 1089.6984 2373.3992 13160910
1949.5547 1093.1934 2381.0115 13095631
1967.0946 1095.1027 2385.1699 13160912
1982.241 1095.6615 2386.3872 13095376
1996.3082 1095.6205 2386.2979 13095376
2013.0508 1097.0378 2389.3848 13095376
2027.7253 1097.3163 2389.9912 13029840
2045.8228 1099.4303 2394.5957 13029839
2062.4097 1100.7091 2397.3809 12964303
2078.8232 1101.8784 2399.9277 13095377
2142.6235 1127.9785 2456.7747 13095378
2107.554 1102.028 2400.2534 12964049
2117.9531 1100.0411 2395.926 13226194
2150.4248 1109.4686 2416.4595 13160659
2121.3833 1087.2449 2368.0554 13358291
2233.5969 1137.2332 2476.9314 7699070
2246.3767 1136.2726 2474.8394 1578780
2280.7732 1146.1877 2496.4351 5329500
2311.7227 1154.2542 2514.0037 5658714
2328.6194 1155.2455 2516.1628 3026994
2301.6514 1134.601 2471.1985 4935761
2315.1877 1134.058 2470.0159 5988194
2332.9006 1135.5548 2473.2761 5725022
2348.9788 1136.2422 2474.7732 5725277
2366.4868 1137.6083 2477.7485 4606538
0 0 0 0
0 0 0 0
0 0 0 0
0 0 0 0
0 0 0 0
0 0 0 0
0 0 0 0
0 0 0 0
0 0 0 0
-2270.4089 1197.0872 2574.0708 16
-2255.1064 1197.0618 2574.0161 16
-2234.3501 1194.1211 2567.6929 16
-2211.458 1189.991 2558.8118 16
-2172.2639 1176.9712 2530.8157 16
-2204.6196 1202.8066 2586.3691 16
-2151.6992 1182.1528 2541.9578 16
-2177.4878 1204.7557 2590.5603 16
-2178.5681 1213.9121 2610.249 16
-2150.3125 1206.7362 2594.8188 16
-2138.2607 1208.6161 2598.8611 16
-2095.3337 1192.9448 2565.1636 16
-2097.4517 1202.8776 2586.5217 16
-2068.5737 1195.0496 2569.6895 16
-2076.5215 1208.5383 2598.6938 16
-2056.4531 1205.8013 2592.8083 18
-2201.4302 1300.5259 2796.4929 16
-2167.2905 1290.0691 2774.0078 16
-2133.5527 1279.6937 2751.6978 16
-2123.8542 1283.6881 2760.2869 16
-2141.6289 1304.4784 2804.9919 16
-1984.4584 1218.2004 2619.4702 16
-1972.8123 1220.5995 2624.6289 16
-1961.1786 1223.0444 2629.886 16
-1954.5352 1228.6654 2641.9727 16
-2017.6545 1278.5858 2749.3157 16
-2004.5104 1280.5975 2753.6414 16
-1977.1537 1273.4878 2738.3535 16
-1967.1031 1277.4998 2746.9802 16
-1953.7753 1279.4326 2751.1362 16
-1850.6434 1222.0945 2627.8435 16
-1952.2037 1300.1014 2795.5801 16
-1941.3926 1303.9677 2803.8936 16
-1888.796 1279.5924 2751.48 16
-1894.3339 1294.5197 2783.5776 16
-1771.4983 1221.2126 2625.9473 16
-1758.7286 1223.1547 2630.123 16
-1834.6506 1287.3657 2768.1948 16
-1847.2422 1307.8961 2812.3408 16
-1852.1594 1323.3171 2845.5002 16
-1828.317 1318.2848 2834.6792 16
-1705.6792 1241.2632 2669.0615 16
-1692.7522 1243.3864 2673.627 16
-1676.2014 1242.8627 2672.5007 16
-1768.4441 1323.766 2846.4656 16
-1749.8374 1322.4528 2843.6416 16
-1684.4392 1285.4069 2763.9827 16
-1669.3693 1286.4163 2766.1531 16
-1602.9969 1247.5201 2682.5156 16
-1654.2272 1300.2848 2795.9744 16
-1670.1041 1326.0469 2851.3701 16
-1636.5647 1312.6985 2822.6675 16
-1603.5933 1299.5349 2794.3618 16
-1649.3881 1350.5938 2904.1528 16
-1561.3572 1291.9915 2778.1414 16
-1511.9437 1264.4358 2718.8892 18
-1575.6149 1331.8777 2863.908 18
-1560.306 1333.299 2866.9639 18
-1545.6154 1335.2855 2871.2356 18
-1530.9236 1337.3154 2875.6006 18
-1434.5073 1267.1982 2724.8291 16
-1520.124 1358.1174 2920.3306 16
-1457.2865 1316.9702 2831.8528 16
-1392.1815 1272.7915 2736.8562 16
-1377.2028 1273.939 2739.3235 16
-1414.8588 1324.3827 2847.7915 16
-1406.1952 1332.1633 2864.5222 16
-1387.8217 1330.823 2861.6399 16
-1371.2898 1331.2373 2862.531 16
-1356.7688 1333.6387 2867.6943 14
-1341.3546 1335.2119 2871.0774 14
-1319.3914 1330.2225 2860.3489 14
-1351.5748 1380.405 2968.2554 14
-1311.1287 1356.7542 2917.3992 14
-1311.2247 1374.9847 2956.6001 14
-1254.6332 1333.46 2867.3101 14
-1239.3273 1335.2769 2871.217 14
-1273.8457 1391.5734 2992.2703 14
-1218.8005 1350.2373 2903.3862 14
-1239.0348 1392.3092 2993.8525 14
-1178.9402 1344.0262 2890.0308 14
-1161.8085 1344.0208 2890.0188 14
-1145.7181 1345.2377 2892.6357 16
-1129.4409 1346.269 2894.8533 16
-1119.455 1354.9467 2913.5127 16
-1075.7601 1322.4573 2843.6514 16
-1058.0341 1321.3658 2841.3044 16
-1040.3099 1320.2413 2838.8865 16
-1023.0321 1319.6559 2837.6274 16
-1033.0253 1354.8167 2913.2329 16
-1009.567 1346.5554 2895.469 16
-992.9549 1347.2977 2897.0652 16
-976.68738 1348.5417 2899.7402 16
-960.36218 1349.7496 2902.3374 16
-916.49805 1311.5906 2820.2849 16
-946.90942 1380.2833 2967.9934 16
-928.55579 1379.1475 2965.5513 16
-952.69507 1442.2986 3101.3438 16
-933.16968 1440.5294 3097.5393 16
-913.58246 1438.5916 3093.3726 13
-894.0827 1436.7151 3089.3376 13
-874.57916 1434.754 3085.1206 13
-854.98962 1432.5648 3080.4133 14
-784.77728 1343.6096 2889.1348 14
-768.00458 1344.2203 2890.448 14
-765.85919 1371.0448 2948.1282 14
-747.61725 1369.6329 2945.092 14
-716.85742 1344.6725 2891.4204 14
-699.5506 1344.3425 2890.7109 14
-682.06653 1343.6471 2889.2153 14
-665.35864 1344.484 2891.0151 14
-651.01105 1350.2609 2903.4368 14
-631.97455 1346.3619 2895.053 14
-614.06213 1344.707 2891.4946 14
-598.26288 1347.7174 2897.9678 14
-584.04889 1354.5824 2912.7295 14
-565.97791 1352.6479 2908.5696 14
-547.59064 1349.8119 2902.4714 14
-503.03729 1280.2009 2752.7886 14
-498.81848 1312.0132 2821.1936 14
-493.28513 1342.4545 2886.6509 14
-473.50378 1334.9147 2870.4382 14
-453.78757 1327.0032 2853.4265 14
-415.38403 1261.7173 2713.0435 14
-398.87881 1260.3676 2710.1414 14
-378.117 1244.8905 2676.8613 14
-361.73151 1243.0972 2673.0051 14
-346.19727 1244.199 2675.3743 13
-332.39398 1251.9259 2691.9893 16
-316.29861 1251.3639 2690.7808 16
-302.90347 1261.9921 2713.6345 16
-283.59329 1247.7865 2683.0884 16
-281.68982 1313.0306 2823.3813 16
-264.8613 1312.5522 2822.3528 16
-247.72624 1310.3876 2817.6982 16
-220.06952 1248.2314 2684.0452 16
-203.20425 1242.3679 2671.437 16
-187.36691 1242.3293 2671.354 16
-171.19029 1239.8262 2665.9717 16
-155.4729 1240.4784 2667.374 16
-139.48607 1238.8849 2663.9475 16
-123.66287 1238.5237 2663.1707 16
-107.7588 1237.1282 2660.1699 16
-91.897072 1235.8239 2657.3652 16
-76.182198 1236.3632 2658.5251 16
-60.462456 1237.0844 2660.0757 16
-44.947727 1243.9882 2674.9209 16
-29.998156 1282.578 2757.8999 16
-13.635791 1280.844 2754.1714 16
2.5852618 1232.7992 2650.8616 16
19.082403 1285.8698 2764.978 16
33.551258 1216.371 2615.5361 16
51.942032 1288.0502 2769.6665 16
67.142586 1265.1917 2720.5144 16
83.36805 1266.7585 2723.8835 16
99.395134 1265.2916 2720.7292 16
115.55952 1265.7382 2721.6895 16
131.72447 1266.0807 2722.426 16
147.48738 1262.906 2715.5994 16
163.07887 1259.0323 2707.27 16
179.05797 1258.5771 2706.2913 16
194.00699 1251.5516 2691.1846 16
209.92838 1251.3899 2690.8367 16
216.82266 1201.239 2582.9983 16
228.93306 1184.6949 2547.4241 16
241.06927 1170.3234 2516.521 16
256.04031 1170.5865 2517.0872 16
271.05667 1171.0167 2518.012 16
285.3559 1168.4655 2512.5261 16
305.5701 1189.1865 2557.0823 16
314.62427 1166.5702 2508.4507 16
331.38687 1173.2866 2522.8928 16
347.23618 1176.3291 2529.4351 16
362.09518 1175.9038 2528.5205 16
376.89349 1175.3229 2527.2715 16
391.36035 1173.7925 2523.9807 16
406.32864 1173.8231 2524.0466 16
422.13644 1176.1909 2529.1379 16
439.43417 1182.4052 2542.5005 16
454.26562 1181.7915 2541.1807 16
493.43759 1242.5079 2671.738 16
511.93552 1249.009 2685.7173 16
497.50842 1177.2106 2531.3306 16
541.33228 1243.4147 2673.688 16
552.39087 1232.7335 2650.7205 16
571.50903 1240.1318 2666.6289 16
559.79156 1182.0214 2541.675 17
603.0285 1239.9539 2666.2461 16
616.21429 1234.7144 2654.9795 16
597.79657 1167.9879 2511.4993 16
646.83258 1233.0945 2651.4966 16
664.94733 1237.5638 2661.1069 16
643.29968 1169.5371 2514.8303 18
697.73236 1239.7751 2665.8618 15
709.89978 1233.4661 2652.2957 15
724.03015 1230.7672 2646.4922 14
739.16577 1229.8552 2644.5312 65547
709.51935 1156.0181 2485.7607 327686
0 0 0 0
0 0 0 0
0 0 0 0
729.93652 1098.089 2361.197 8940895
749.54028 1106.3708 2379.0054 9533031
768.46179 1113.3585 2394.0308 9598054
783.21564 1114.1642 2395.7632 9664360
796.20471 1112.4752 2392.1316 9795689
811.63989 1114.2035 2395.8477 10190448
825.12335 1113.239 2393.7737 10584692
839.58044 1113.5985 2394.5469 10057578
852.24561 1111.6089 2390.2686 9597284
862.8656 1107.0603 2380.488 9071710
878.13812 1108.5312 2383.6509 10387827
895.11792 1112.0768 2391.2747 10650999
914.95093 1119.0013 2406.1643 9927020
922.90125 1111.4034 2389.8269 9861483
933.84113 1107.5812 2381.6079 9795179
949.7525 1109.6813 2386.1238 9795435
956.48199 1101.1492 2367.7773 9466214
977.88251 1109.5095 2385.7544 9137760
996.9436 1115.0151 2397.593 9729896
999.36401 1102.016 2369.6414 10058861
1015.9111 1104.739 2375.4966 10321777
1029.975 1104.7242 2375.4648 9663595
1039.3677 1099.7673 2364.8059 9663850
1054.1936 1100.6145 2366.6277 10058608
1066.2615 1098.5978 2362.2913 9203299
1080.4862 1098.827 2362.7839 10255987
1088.8162 1093.1322 2350.5386 9269092
1103.9795 1094.355 2353.168 10716538
1116.2786 1092.7433 2349.7024 10321523
1134.9601 1097.3424 2359.5916 8150611
1150.5396 1098.8667 2362.8694 9203300
1158.0814 1092.7701 2349.76 10386804
1175.8923 1096.3932 2357.5505 9597287
1193.2374 1099.5018 2364.2351 10321010
1213.3544 1105.0629 2376.1929 10057838
1219.7183 1098.1144 2361.2517 9400678
1241.6222 1105.1556 2376.3923 9334885
1250.1527 1100.2688 2365.8843 9203299
1267.5829 1103.2362 2372.2649 9466471
1275.0646 1097.5748 2360.0916 9466471
1302.3092 1108.8635 2384.3655 9400678
1314.8932 1107.5612 2381.5649 9729387
1328.4751 1107.118 2380.6121 10124401
1346.1862 1110.0892 2387.001 9400678
1353.401 1104.4332 2374.8389 8413784
1363.0247 1100.839 2367.1104 9992818
1384.1819 1106.5382 2379.3652 9532267
1399.8234 1107.7576 2381.9873 9137251
1413.4727 1107.3917 2381.2007 9466472
1418.7659 1100.5514 2366.4919 9071714
1436.8418 1103.6635 2373.1838 8874335
1467.7375 1116.467 2400.7148 9663851
1485.5988 1119.2047 2406.6018 9532264
1493.6553 1114.5741 2396.6448 8940128
1511.666 1117.3888 2402.697 9203300
1532.4954 1122.2147 2413.0742 8216405
1543.3584 1119.7208 2407.7117 9269093
1558.8689 1120.6135 2409.6313 9071714
1573.0759 1120.5618 2409.5198 7887184
1575.1504 1111.9459 2390.9934 8611163
1600.3159 1119.639 2407.5359 9071714
1616.3745 1120.8811 2410.2065 9269093
1611.4686 1107.6908 2381.8438 9203043
1640.3459 1117.7499 2403.4734 8808542
1662.2156 1122.9016 2414.551 8940384
1670.8992 1119.1337 2406.449 8019539
1685.7949 1119.5551 2407.3552 9664107
1704.5211 1122.4921 2413.6704 9203813
1725.7737 1127.0299 2423.4282 8742751
1729.816 1120.3463 2409.0566 8677468
1755.229 1127.5 2424.439 8282711
1757.1562 1119.5736 2407.395 8480090
1773.4645 1120.8638 2410.1692 8940641
1786.4236 1120.0337 2408.3843 9138020
1793.1124 1115.3165 2398.2412 9269863
1818.3441 1122.1166 2412.863 8480347
1813.5417 1110.4209 2387.7141 8611934
1826.2429 1109.5406 2385.8213 8348762
1853.2582 1117.3035 2402.5137 8217432
1849.1104 1106.3036 2378.8608 8217433
1872.7084 1111.9446 2390.9905 7164497
1845.0189 1087.2769 2337.948 2500137
1860.8772 1088.4486 2340.4675 12836050
1870.7496 1086.1274 2335.4766 13291724
1895.101 1092.1852 2348.5022 13357522
1909.5903 1092.5122 2349.2056 13226703
1932.153 1097.4199 2359.7585 13291726
1947.3578 1098.1082 2361.2383 13357262
1964.1558 1099.6785 2364.615 13226704
1977.1581 1099.1166 2363.4065 13226705
1993.5918 1100.4565 2366.2881 13160912
2008.7329 1101.0695 2367.6057 13160912
2025.4161 1102.5131 2370.7102 13029583
2039.283 1102.4144 2370.498 13095376
2056.2576 1103.9857 2373.8767 12897997
2134.7229 1138.325 2447.7158 13095376
2079.7031 1101.5013 2368.5347 13095376
2157.1338 1134.8527 2440.249 13029583
2174.9783 1136.6205 2444.0505 13160658
2125.7034 1103.5212 2372.8779 13226449
2142.4573 1104.9095 2375.863 13161170
2187.6528 1120.8517 2410.1431 13357273
2234.9756 1137.6698 2446.3069 6975096
2269.2083 1147.6509 2467.769 2632501
2251.656 1131.4818 2433.001 4671567
2255.2729 1126.0884 2421.4036 4211268
2277.5405 1130.017 2429.8511 4934479
2319.7622 1143.7341 2459.3469 3093302
2308.0659 1130.8624 2431.6692 4211013
2322.9148 1131.0759 2432.1282 4079171
0 0 0 0
0 0 0 0
0 0 0 0
0 0 0 0
0 0 0 0
0 0 0 0
0 0 0 0
0 0 0 0
0 0 0 0
-2252.9546 1203.0215 2554.282 16
-2242.8496 1205.7268 2560.0259 16
-2231.7322 1207.921 2564.6846 16
-2220.7544 1210.2213 2569.5686 16
-2213.9885 1214.8645 2579.4272 16
-2201.8748 1216.6173 2583.1489 16
-2190.0752 1218.5696 2587.2942 16
-2179.0198 1220.9663 2592.3828 16
-2165.4824 1221.9966 2594.5703 16
-2158.2036 1226.5985 2604.3413 16
-2144.8904 1227.8126 2606.9189 16
-2124.238 1224.8124 2600.5488 16
-2112.4629 1226.9243 2605.033 16
-2100.2019 1228.7832 2608.9797 16
-2088.2612 1230.8583 2613.3857 16
-2079.5713 1234.8948 2621.9561 19
-2066.9746 1236.6548 2625.6929 16
-2056.4316 1239.6793 2632.1147 16
-2045.4523 1242.4852 2638.0723 16
-2035.0579 1245.6924 2644.8818 16
-2011.182 1240.6329 2634.1394 16
-2012.0742 1250.8926 2655.9229 16
-1998.8416 1252.4634 2659.2581 16
-1982.8263 1252.3019 2658.915 16
-1956.0674 1245.2977 2644.0439 16
-1971.771 1265.4321 2686.7935 16
-1913.2056 1237.8422 2628.2139 16
-1889.8942 1232.7959 2617.4995 16
-1881.7457 1237.6387 2627.782 16
-1869.746 1240.0084 2632.8135 16
-1849.5967 1236.9678 2626.3574 16
-1838.4532 1239.9493 2632.688 16
-1841.5906 1252.6962 2659.7524 16
-1809.1218 1241.234 2635.4155 16
-1807.9315 1251.219 2656.616 16
-1799.8542 1256.5714 2667.9802 16
-1923.3529 1354.6925 2876.3132 16
-1909.826 1357.1932 2881.6228 16
-1857.4104 1331.8538 2827.8215 16
-1825.2903 1320.7383 2804.2209 16
-1715.0649 1252.3842 2659.0898 16
-1703.9387 1255.7979 2666.3379 16
-1689.4286 1256.7584 2668.3774 16
-1770.2087 1329.2927 2822.384 16
-1759.7104 1334.014 2832.4082 16
-1722.2278 1318.1726 2798.7734 16
-1645.6107 1271.7788 2700.269 16
-1692.34 1320.7358 2804.2158 16
-1703.4576 1342.5962 2850.6301 16
-1695.6394 1349.8207 2865.9692 16
-1572.7534 1264.6643 2685.1633 16
-1557.8954 1265.5211 2686.9824 16
-1554.9205 1276.1484 2709.5466 16
-1539.5944 1276.7546 2710.834 17
-1581.8993 1325.67 2814.6921 18
-1587.9417 1344.9154 2855.5542 18
-1570.2958 1344.2961 2854.2395 18
-1587.475 1373.8011 2916.885 18
-1541.7039 1348.8788 2863.9695 18
-1522.4098 1346.825 2859.6086 18
-1507.83 1348.9424 2864.1045 16
-1492.5111 1350.4395 2867.283 16
-1475.9396 1350.8243 2868.1003 16
-1457.9604 1349.915 2866.1694 16
-1376.1725 1289.2076 2737.2742 16
-1405.7397 1332.6146 2829.437 16
-1399.0582 1342.2917 2849.9836 16
-1378.8983 1339.1158 2843.2405 14
-1362.8326 1339.8866 2844.877 13
-1392.1953 1385.8995 2942.5728 13
-1374.7092 1385.8513 2942.4705 14
-1342.6808 1370.9535 2910.8389 16
-1324.8125 1370.3143 2909.4817 16
-1322.0658 1385.5051 2941.7354 15
-1308.3794 1389.4845 2950.1843 14
-1213.6583 1306.348 2773.6672 14
-1237.604 1350.412 2867.2246 14
-1165.8328 1289.8073 2738.5474 14
-1150.2247 1290.5042 2740.0271 14
-1134.7847 1291.4122 2741.9551 14
-1171.6082 1352.6877 2872.0569 14
-1167.8062 1368.1743 2904.938 14
-1138.548 1353.854 2874.533 16
-1133.507 1368.3329 2905.2749 16
-1106.1011 1355.8438 2878.7576 16
-1110.7922 1382.9238 2936.2546 16
-1020.611 1290.8711 2740.8062 16
-1049.9553 1349.4622 2865.208 16
-995.37213 1300.3376 2760.9058 16
-1016.1305 1349.6411 2865.5881 16
-963.74957 1301.8248 2764.0632 16
-947.54694 1302.0691 2764.582 16
-967.10437 1352.3262 2871.2891 16
-950.93988 1353.5381 2873.8621 16
-892.99994 1294.2478 2747.9756 16
-865.91125 1278.299 2714.1128 16
-849.78687 1278.2388 2713.9851 16
-840.69067 1288.9521 2736.7317 16
-828.06433 1294.5677 2748.655 16
-813.13617 1296.7383 2753.2634 15
-823.84216 1340.7144 2846.6345 14
-807.18304 1341.0642 2847.3772 14
-790.85724 1341.9946 2849.353 14
-774.27405 1342.5195 2850.4673 14
-758.33826 1344.2153 2854.0679 13
-743.38531 1347.7704 2861.6162 16
-726.70331 1348.2837 2862.7058 16
-711.33441 1351.3157 2869.1436 16
-691.76099 1346.3134 2858.5225 15
-674.27899 1345.2325 2856.2275 14
-656.52002 1343.5292 2852.6108 14
-643.89203 1352.5135 2871.6868 14
-626.24316 1351.1528 2868.7976 14
-602.67474 1336.5881 2837.8735 14
-590.53754 1347.2666 2860.5464 14
-571.75793 1342.9744 2851.4331 14
-555.59723 1344.7594 2855.2231 14
-540.74323 1349.9187 2866.1772 14
-526.66223 1357.4049 2882.0723 14
-505.40375 1346.2738 2858.4385 14
-476.82617 1314.1982 2790.335 14
-466.47794 1331.8656 2827.8467 14
-447.68259 1325.8331 2815.0383 14
-425.96729 1310.3513 2782.167 14
-411.81729 1317.8322 2798.0505 14
-377.67673 1259.2861 2673.7444 14
-358.58563 1247.9894 2649.7588 14
-346.44223 1260.9454 2677.2673 13
-329.18152 1255.6256 2665.9722 16
-330.40491 1323.8295 2810.7842 16
-293.19522 1237.1105 2626.6606 16
-279.0441 1243.4159 2640.0483 16
-266.108 1256.2062 2667.2048 16
-247.54143 1242.3535 2637.7925 16
-231.59581 1240.6741 2634.2268 16
-215.82433 1239.7522 2632.2695 16
-196.55415 1217.0234 2584.0112 16
-181.92171 1221.5961 2593.72 16
-166.54716 1221.5697 2593.6638 16
-151.90993 1227.4955 2606.2456 16
-138.55908 1246.3339 2646.2437 16
-122.92156 1246.7871 2647.2061 16
-106.96047 1243.6108 2640.4622 16
-91.246376 1242.7098 2638.5493 16
-74.53376 1225.0248 2600.9998 16
-59.911587 1241.4338 2635.8398 16
-43.64682 1223.3771 2597.5015 16
-28.286118 1224.7906 2600.5027 16
-12.830039 1220.515 2591.4246 16
2.5393689 1226.3455 2603.804 16
17.964128 1225.9403 2602.9436 16
33.334774 1223.9226 2598.6597 16
48.49456 1217.8846 2585.8396 16
63.690102 1215.4286 2580.625 16
79.678688 1226.1274 2603.3411 16
98.418465 1268.824 2693.9951 16
114.31493 1268.0615 2692.3765 16
131.0968 1276.1045 2709.4536 16
145.69649 1263.4686 2682.6245 16
163.22255 1276.1996 2709.6553 16
178.5159 1270.7565 2698.0984 16
195.41922 1276.7266 2710.7744 16
211.39377 1276.1829 2709.6199 16
225.34653 1264.3721 2684.5427 16
242.90817 1273.0322 2702.9304 16
259.10089 1273.8906 2704.7529 16
275.37057 1275.0052 2707.1194 16
291.28574 1274.4462 2705.9324 16
306.44742 1270.8207 2698.2346 16
321.25836 1266.1724 2688.3652 16
337.77432 1268.3658 2693.0225 16
353.90479 1268.9791 2694.3247 16
369.93768 1269.2047 2694.8037 16
385.96548 1269.3948 2695.2073 16
400.33261 1264.3252 2684.4434 16
417.55713 1268.3223 2692.9302 16
431.56732 1262.6211 2680.8252 16
423.48337 1194.9797 2537.2075 16
433.67648 1181.7827 2509.1873 16
449.0083 1182.9995 2511.7708 16
462.44287 1179.3 2503.916 16
478.80017 1183.0521 2511.8826 16
492.13544 1179.3362 2503.9927 16
506.88937 1179.1378 2503.5715 16
520.81506 1177.0789 2499.2 16
541.20111 1189.3308 2525.2136 16
561.22089 1200.1404 2548.1648 16
566.67041 1180.042 2505.4915 16
580.70093 1178.3831 2501.969 16
596.63831 1180.5798 2506.6333 16
610.18921 1178.0623 2501.2881 16
637.21484 1201.0623 2550.1221 15
650.59967 1197.8811 2543.3679 17
653.73431 1176.3988 2497.7561 16
678.78101 1194.4255 2536.031 15
692.84106 1192.7576 2532.4893 14
693.20453 1168.0806 2480.0947 65547
713.94019 1178.0439 2501.249 262152
0 0 0 0
0 0 0 0
0 0 0 0
724.66833 1104.0557 2344.1555 9138019
740.21954 1106.536 2349.4219 9532776
757.43512 1111.3669 2359.679 9927533
773.29181 1114.0648 2365.4072 10124655
789.44891 1117.0918 2371.8342 10124654
800.76709 1113.2855 2363.7527 9664104
817.42462 1116.9058 2371.439 9795690
828.02448 1112.2662 2361.5884 9927276
840.56055 1110.3387 2357.4958 9399905
854.37347 1110.1333 2357.0596 8874588
873.56659 1116.8127 2371.2417 10058605
884.20599 1112.5184 2362.124 10255984
897.42462 1111.5525 2360.073 9927276
910.77026 1110.7711 2358.4141 10388342
923.77173 1109.6001 2355.9275 10124914
937.85284 1109.7413 2356.2275 9795949
951.61853 1109.5107 2355.7378 9663849
965.71515 1109.667 2356.0696 9992559
977.53009 1107.2344 2350.9045 9335141
990.75537 1106.4452 2349.229 9729641
1005.7841 1107.6641 2351.8169 9795434
1010.7175 1097.8835 2331.0508 9597541
1029.0612 1102.7372 2341.356 9532263
1041.5118 1101.2308 2338.1577 9005919
1057.8132 1103.782 2343.5745 9598057
1073.9417 1106.089 2348.4727 9203299
1088.5905 1106.8324 2350.0513 8808541
1098.433 1102.7321 2341.3452 9466471
1118.3953 1108.7666 2354.158 8808541
1120.4591 1097.1268 2329.4441 9137506
1139.2423 1101.9423 2339.6682 9728873
1147.4547 1096.5402 2328.1982 9268578
1165.8715 1100.902 2337.4595 9663336
1178.6471 1099.8973 2335.3264 9794666
1182.9069 1091.0613 2316.5654 8149842
1206.1193 1099.7084 2334.9253 9334886
1220.4501 1100.1534 2335.8701 9598058
1238.5242 1103.9247 2343.8774 9005920
1250.291 1102.053 2339.9033 9137506
1270.5823 1107.6537 2351.7949 8282197
1280.5297 1104.2131 2344.49 9795436
1299.8217 1108.818 2354.2671 10058607
1306.4872 1102.6683 2341.21 9663850
1321.1676 1103.3414 2342.6392 9729643
1334.4994 1102.8859 2341.6719 9005921
1351.4506 1105.4001 2347.0103 8742493
1360.3854 1101.3732 2338.46 9334887
1389.2222 1113.3776 2363.948 9334886
1398.9193 1109.9562 2356.6836 9005921
1407.7159 1105.895 2348.0608 9729387
1430.9906 1113.1758 2363.5195 10189937
1440.6984 1109.8641 2356.488 9598056
1444.376 1102.015 2339.8228 9400678
1465.249 1107.3101 2351.0654 9400679
1480.6259 1108.391 2353.3606 10124402
1501.1384 1113.2605 2363.6995 9137507
1512.6235 1111.407 2359.7639 9400422
1522.1259 1108.1439 2352.8357 8677212
1561.52 1126.5044 2391.8191 9598316
1560.8158 1115.8673 2369.2344 8479578
1565.2466 1109.0582 2354.7771 8347993
1580.4299 1109.9209 2356.6089 8545371
1594.67 1110.1119 2357.0144 9005921
1613.5734 1113.5178 2364.2456 9203299
1629.674 1114.9471 2367.2808 9072227
1643.3389 1114.7003 2366.7566 8677469
1670.3118 1123.408 2385.2449 9006434
1679.4528 1120.077 2378.1726 9006177
1705.4786 1127.969 2394.9287 9335143
1714.3995 1124.511 2387.5867 8940640
1710.5792 1112.8207 2362.7656 8677469
1726.9963 1114.379 2366.0742 8545626
1755.063 1123.3688 2385.1614 8808800
1763.4084 1119.6926 2377.3562 9005923
1769.7603 1114.819 2367.0083 8085591
1784.5226 1115.2782 2367.9834 8019798
1797.3354 1114.5215 2366.3767 7624782
1815.2209 1116.8977 2371.4219 7756882
1814.2296 1107.7118 2351.9182 8019542
1818.4857 1101.8453 2339.4626 7361871
1832.1177 1101.7057 2339.166 1380112
1819.7474 1086.0498 2305.925 10929605
1845.9495 1093.4761 2321.6926 13094602
1861.9608 1094.8005 2324.5046 13291980
1881.7115 1098.288 2331.9094 13161166
1897.1531 1099.2278 2333.905 13357519
1915.444 1101.7931 2339.3516 13291982
1930.1139 1102.2537 2340.3296 13423055
1944.1622 1102.3551 2340.5449 13357519
1959.8496 1103.3781 2342.7168 13226703
1976.4349 1104.8884 2345.9236 13161169
1990.2524 1104.8413 2345.8235 13161169
2005.2329 1105.436 2347.0862 13160912
2024.0302 1108.1118 2352.7678 13161169
2038.4343 1108.3627 2353.3003 13095376
2050.6221 1107.4131 2351.2842 12963790
2070.0698 1110.3705 2357.5632 13029583
2128.7688 1134.2012 2408.1611 13095375
2105.9009 1114.5453 2366.4275 13029329
2115.2979 1112.1127 2361.2625 13160658
2131.6267 1113.3325 2363.8523 13226194
2126.0691 1103.1798 2342.2959 13226194
2195.0173 1131.568 2402.5703 13029841
2135.1152 1093.5938 2321.9426 12042437
2235.2537 1137.5527 2415.2773 7173765
2195.1243 1110.0225 2356.8245 10396591
2224.2192 1117.6239 2372.9639 3356482
2271.1423 1134.0319 2407.8015 7370624
2299.1077 1140.8279 2422.2312 7173244
2309.5999 1138.9232 2418.1873 4146509
0 0 0 0
0 0 0 0
0 0 0 0
0 0 0 0
0 0 0 0
0 0 0 0
0 0 0 0
0 0 0 0
0 0 0 0
-2220.9487 1200.8533 2517.9954 16
-2209.7656 1202.8887 2522.2632 15
-2197.7354 1204.4874 2525.6155 16
-2187.1521 1206.9066 2530.6882 16
-2176.324 1209.2234 2535.5459 16
-2148.5637 1202.0985 2520.6064 16
-2137.571 1204.3213 2525.2671 16
-2124.9495 1205.651 2528.0554 16
-2111.6702 1206.6239 2530.0952 16
-2100.3071 1208.7134 2534.4766 16
-2057.4695 1192.589 2500.6665 16
-2107.958 1230.7189 2580.6187 16
-2082.7773 1224.9041 2568.4258 16
-2080.6758 1232.6764 2584.7231 16
-2067.4697 1233.9366 2587.3657 16
-2019.5262 1214.3284 2546.2505 18
-2039.8552 1235.7858 2591.2429 16
-1991.1354 1215.4202 2548.5396 16
-2061.5266 1268.006 2658.8037 16
-2049.8582 1270.54 2664.1172 16
-1960.2378 1224.4222 2567.4155 16
-1947.9761 1226.2814 2571.314 16
-1934.9995 1227.7164 2574.3228 16
-1921.0283 1228.538 2576.0457 16
-1908.624 1230.3829 2579.9141 16
-1902.0154 1236.0238 2591.7422 16
-1877.7999 1230.2219 2579.5764 16
-1864.9032 1231.8007 2582.887 16
-1856.2443 1236.228 2592.1704 16
-1847.7108 1240.8135 2601.7854 16
-1836.6005 1243.7312 2607.9033 16
-1885.2731 1287.5264 2699.7346 16
-1855.1755 1277.8156 2679.3728 16
-1858.6227 1291.2418 2707.5254 16
-1844.9169 1292.8813 2710.9631 16
-1750.9606 1237.8177 2595.5037 16
-1806.7252 1288.5592 2701.9004 16
-1733.4613 1247.3619 2615.5164 16
-1775.5602 1289.183 2703.2083 16
-1780.8274 1304.7795 2735.9119 16
-1748.995 1293.2307 2711.6958 16
-1671.5022 1247.3928 2615.5811 16
-1658.2764 1249.1062 2619.1738 16
-1704.708 1296.214 2717.9512 16
-1690.8981 1297.9773 2721.6487 16
-1677.1801 1299.8458 2725.5667 16
-1696.5443 1327.6396 2783.8457 16
-1683.1104 1330.0605 2788.9221 16
-1661.2576 1325.8109 2780.0112 16
-1623.124 1308.3525 2743.4038 16
-1648.335 1342.1176 2814.2036 16
-1631.735 1342.1814 2814.3376 16
-1614.9479 1342.0909 2814.1479 16
-1598.1715 1342.0077 2813.9734 16
-1581.4011 1341.928 2813.8059 16
-1561.4023 1339.0775 2807.8291 18
-1549.704 1343.361 2816.8108 18
-1533.757 1344.0146 2818.1816 18
-1520.5193 1347.0831 2824.6157 18
-1505.1465 1348.3073 2827.1824 18
-1486.396 1346.4991 2823.3911 16
-1469.8865 1346.7029 2823.8184 16
-1453.5928 1347.1116 2824.675 16
-1426.4871 1337.3928 2804.2966 16
-1414.0798 1341.3879 2812.6738 16
