# .PCD v0.7 - Point Cloud Data file format
VERSION 0.7
FIELDS x y z rgb
SIZE 4 4 4 4
TYPE F F F U
COUNT 1 1 1 1
WIDTH 1478
HEIGHT 1
VIEWPOINT 0 0 0 1 0 0 0
POINTS 1478
DATA ascii
4615.062 944.28589 5595.9214 10389372
4639.9595 942.60681 5585.9707 9270122
4663.9312 940.76477 5575.0547 8677469
4649.3008 931.21698 5518.4736 8742747
4772.4497 949.20599 5625.0781 10847859
5035.2817 994.53448 5893.6992 11636860
5137.4634 1007.7266 5971.8765 12492423
5268.8252 1026.4229 6082.6724 12492166
5310.6641 1027.5435 6089.313 12097667
5313.853 1021.2212 6051.8467 12031106
5356.2197 1022.4625 6059.2021 11044469
5376.4302 1019.4858 6041.5625 10452589
5412.5771 1019.5505 6041.9458 10123370
5483.9341 1026.2031 6081.3696 9662564
5482.436 1019.2246 6040.0146 8742488
5393.0591 996.10535 5903.0078 8676695
5306.144 973.73584 5770.4438 8808538
5316.4604 969.38147 5744.6396 8282197
5083.1914 920.95093 5457.6362 8479830
5002.187 900.54486 5336.708 8414547
4820.9028 862.45532 5110.9863 8743001
4852.6343 862.71173 5112.5059 8151376
4479.5425 791.44135 4690.1509 6900544
0 0 0 0
0 0 0 0
0 0 0 0
-7177.2437 1366.2568 7821.8604 12
-5742.5503 1100.2552 6298.9932 12
-5705.2036 1100.2518 6298.9741 12
-5687.2202 1104.0072 6320.4736 12
-5667.0352 1107.3822 6339.7954 12
-5652.9263 1111.9976 6366.2183 12
-5627.9497 1114.5226 6380.6743 12
-5606.7651 1117.8379 6399.6548 12
-5578.5977 1119.7968 6410.8687 12
-5562.7061 1124.2634 6436.4409 12
0 0 0 0
0 0 0 0
0 0 0 0
0 0 0 0
0 0 0 0
-6003.4482 1265.4021 7244.4639 12
-5399.2837 1146.254 6562.3374 12
-5364.7466 1147.1847 6567.666 12
-5186.4893 1117.1718 6395.8408 12
-5149.7051 1117.4146 6397.231 12
-5773.9663 1262.1624 7225.9165 12
-5753.7627 1267.1437 7254.4346 12
-5728.9629 1271.1802 7277.5435 12
-5169.7378 1155.7966 6616.9692 12
-5136.8516 1157.2219 6625.1294 12
-5086.9014 1154.7955 6611.2383 12
-5569.5957 1274.1875 7294.7607 12
-5615.1387 1294.6556 7411.9414 12
-5781.8906 1343.6134 7692.2256 12
-5492.8486 1286.5886 7365.7573 12
-5451.6812 1287.175 7369.1143 12
-5426.4062 1291.5535 7394.1812 13
-5060.4429 1214.2551 6951.6455 14
-5266.5708 1274.0876 7294.1895 14
-5248.7261 1280.2791 7329.6348 14
-5229.0967 1286.1346 7363.1587 14
-5242.3398 1300.2422 7443.9243 14
-5269.9053 1318.1715 7546.5703 14
-5388.9155 1359.4769 7783.0449 14
-5105.4453 1299.0839 7437.2935 14
-5093.4282 1307.3121 7484.3999 14
-4960.6143 1284.408 7353.2734 14
-4993.0723 1304.2697 7466.9819 14
-4888.3179 1288.3237 7375.6909 14
-5179.4595 1377.3706 7885.4873 14
-4927.6416 1322.3354 7570.4092 14
-4673.8071 1265.7428 7246.4146 14
-5122.6797 1400.1698 8016.0132 270
-4459.9238 1230.4307 7044.2515 270
-4591.5464 1278.7124 7320.666 14
-4260.9585 1197.9653 6858.3862 14
-4235.6685 1202.3236 6883.3379 14
-4263.9136 1222.111 6996.6211 14
-4307.4341 1246.7079 7137.4395 14
-4135.8179 1208.9081 6921.0337 14
-3810.3347 1124.9247 6440.2266 14
-3767.2683 1123.4634 6431.8604 14
-3731.9724 1124.3131 6436.7256 14
-3774.6931 1148.9268 6577.6392 14
-3950.3452 1214.9375 6955.5527 13
-4075.5562 1266.6636 7251.6855 12
-3687.771 1158.3562 6631.6226 12
-3646.2571 1157.6534 6627.5996 12
-3629.5073 1164.8833 6668.9912 12
-3542.6213 1149.5144 6581.0039 12
-3563.5991 1169.1929 6693.6636 12
-3754.5349 1245.7042 7131.6934 12
-3717.6064 1247.4946 7141.9434 12
-3322.1921 1127.646 6455.8066 12
-3310.1816 1136.6592 6507.4067 268
-3259.6829 1132.5127 6483.668 268
-3219.6091 1131.9326 6480.3467 268
-3298.3228 1173.6052 6718.9243 268
-3167.6853 1140.895 6531.6572 270
-3554.3057 1295.9791 7419.5186 270
-3039.2256 1122.0502 6423.77 270
-2990.0522 1117.8983 6400.001 270
-2929.0134 1109.1469 6349.8979 14
-2894.636 1110.3949 6357.043 14
-2820.8564 1096.3616 6276.7021 14
-2759.4934 1086.8438 6222.2119 14
-2705.3718 1079.9586 6182.7949 14
-2678.6272 1083.9633 6205.7212 16
-2626.1042 1077.5024 6168.7329 16
-2591.8494 1078.4604 6174.2173 16
-2564.4263 1082.3292 6196.3662 16
-2586.6228 1107.5569 6340.7959 16
-2550.1436 1108.0338 6343.5259 16
-2472.1995 1090.2391 6241.6509 16
-2396.3865 1072.8578 6142.1426 16
-2359.5046 1072.6385 6140.8872 18
-2463.9973 1137.6887 6513.3013 18
-2297.1653 1077.5381 6168.937 18
-2251.3984 1073.1489 6143.8086 18
-2250.2664 1090.2406 6241.6592 18
-2231.6833 1099.3074 6293.5669 18
-2635.5378 1320.3082 7558.8027 18
-2601.6377 1325.8605 7590.5898 18
-2561.4509 1328.3481 7604.8315 18
-2520.4956 1330.519 7617.2603 18
-2479.1836 1332.5774 7629.0444 18
-2428.1328 1329.3802 7610.7407 18
-2386.5581 1331.3484 7622.0088 18
-2365.1946 1344.8851 7699.5063 18
-2322.4709 1346.5696 7709.1499 18
-2172.6838 1285.0005 7356.6655 18
-1944.7744 1173.7596 6719.8086 18
-2951.1287 1818.375 10410.25 18
-2873.302 1808.222 10352.124 18
-2801.1736 1801.2903 10312.439 18
-2726.323 1792.2596 10260.739 18
-2646.4087 1779.4126 10187.188 18
-2560.71 1761.9851 10087.416 18
-2478.6653 1746.2991 9997.6133 18
-2403.259 1734.6361 9930.8428 18
-1983.7067 1467.7528 8402.9277 18
-2241.801 1701.4296 9740.7334 18
-1901.7236 1481.4729 8481.4756 18
-1823.2079 1458.8661 8352.0508 18
-1769.7012 1455.5673 8333.165 19
-1716.6248 1452.4431 8315.2793 19
-1663.6538 1449.2263 8296.8633 19
-1612.5663 1447.5043 8287.0039 19
-1561.5649 1445.7538 8276.9824 19
-1509.7867 1443.147 8262.0586 19
-1458.5568 1440.9072 8249.2354 19
-1407.5743 1438.765 8236.9717 19
-1353.9924 1433.7164 8208.0684 19
-1201.623 1319.7894 7555.833 19
-1171.931 1336.9999 7654.3628 19
-1197.8215 1421.5607 8138.4766 19
-1039.3311 1285.2152 7357.8945 19
-1026.2299 1324.5868 7583.2979 19
-852.77893 1151.1174 6590.1812 19
-907.01367 1283.0875 7345.7139 19
-758.12988 1126.5408 6449.479 19
-813.09619 1272.3638 7284.3198 19
-765.2561 1264.6436 7240.1211 19
-735.22528 1287.1854 7369.1743 19
-656.58112 1222.0907 6996.5049 19
-614.17529 1220.217 6985.7783 19
-546.9339 1165.1639 6670.5977 19
-506.16943 1162.3325 6654.3877 19
-467.11127 1163.2717 6659.7646 19
-426.55643 1160.3131 6642.8262 19
-386.09781 1157.0411 6624.0947 19
-346.01553 1154.2842 6608.3105 19
-306.11172 1151.4946 6592.3403 19
-267.07309 1151.6196 6593.0562 19
-227.27437 1147.9484 6572.0376 19
-187.8923 1145.2981 6556.8652 19
-148.56322 1141.6733 6536.1128 19
-109.86253 1142.0236 6538.1187 19
-71.446915 1147.3336 6568.5186 19
-32.441612 1144.5514 6552.5903 18
6.3858509 1143.7302 6547.8887 18
46.627666 1180.1157 6756.1968 18
84.858543 1155.4995 6615.2686 18
125.95844 1173.1625 6716.3892 18
165.3725 1170.4115 6700.6396 18
205.20488 1171.1132 6704.6572 18
244.7605 1170.2639 6699.7954 18
286.22549 1177.507 6741.2612 19
323.20682 1166.7893 6679.9023 19
364.41437 1172.0027 6709.75 19
404.21085 1172.0986 6710.2983 19
441.8699 1166.5345 6678.4443 19
481.43015 1166.4917 6678.1992 19
516.76782 1157.0016 6623.8677 19
492.37622 1024.5634 5865.6553 19
525.37073 1021.1298 5845.9976 19
597.53857 1089.5493 6237.7017 19
679.07904 1166.0913 6675.9062 19
716.42615 1162.4958 6655.3228 19
753.07562 1158.2028 6630.7451 18
802.98755 1173.7213 6719.5884 18
846.3866 1178.7031 6748.1094 18
880.82379 1171.3181 6705.8301 18
922.05237 1173.2118 6716.6719 18
956.74817 1166.9806 6680.998 18
997.99225 1168.9146 6692.0698 18
958.52802 1079.7826 6181.7866 18
957.41431 1038.8245 5947.3003 18
998.34515 1044.7748 5981.3662 18
1025.99 1036.8899 5936.2251 18
1058.9131 1034.6853 5923.603 18
1103.4077 1043.5659 5974.4458 16
1136.434 1041.3855 5961.9624 16
1166.5048 1036.7098 5935.1938 16
1216.9999 1049.9283 6010.8706 15
1442.9152 1209.4294 6924.019 65550
1269.5668 1034.7068 5923.7266 65547
1366.2806 1083.5673 6203.4541 196614
1314.1013 1014.8773 5810.2021 787460
1300.9745 979.08514 5605.291 7627349
1374.3635 1008.5643 5774.0601 9665897
1389.8783 995.17224 5697.3901 9730658
1415.3218 989.35596 5664.0918 9796451
1445.8146 987.25702 5652.0752 9861731
1474.9124 984.32214 5635.2729 9664866
1545.7289 1008.7429 5775.0825 9665122
1554.6855 992.61041 5682.7236 8283469
1601.2635 1000.6725 5728.8794 8348492
1627.5981 996.01196 5702.1978 8085577
1636.1388 980.87341 5615.5288 9599072
1672.8824 982.90912 5627.1836 9664866
1696.4685 977.28564 5594.9888 9796195
1732.1079 978.68817 5603.0186 9993574
1786.9796 990.70032 5671.7886 10190954
1805.2473 982.35052 5623.9854 10190697
1838.9404 982.54504 5625.0991 10059111
1886.3052 989.90735 5667.2485 9993319
1907.6757 983.60938 5631.1924 9993319
1940.1237 983.1413 5628.5127 9993319
1971.9436 982.37616 5624.1323 10190697
2003.2567 981.38824 5618.4761 10124390
2029.6427 978.05817 5599.4116 10058854
2072.0208 982.41772 5624.3701 9993061
2104.5352 982.03668 5622.1885 9664096
2133.8044 980.1767 5611.54 9533023
2151.9202 973.3291 5572.3374 9598559
2193.8701 977.30579 5595.104 9795938
2240.071 983.0296 5627.873 9795938
2282.6348 987.01276 5650.6768 10059111
2321.7847 989.4259 5664.4922 9795938
2378.7495 999.25403 5720.7583 9598560
2394.0884 991.56549 5676.7412 9532511
2426.6133 991.10938 5674.1299 9466717
2477.5337 998.07642 5714.0166 9598303
2510.6353 997.77405 5712.2852 9664351
2544.7004 997.85742 5712.7632 9729630
2572.26 995.42133 5698.8159 9861215
2604.0415 994.66083 5694.4619 9926752
2616.2842 986.552 5648.0391 9663836
2633.2368 980.40179 5612.8286 9400921
2642.2566 971.48828 5561.7988 9203543
2666.375 968.27728 5543.416 9269337
2682.6929 962.34637 5509.4609 9006166
2658.6968 942.27032 5394.5249 8479567
2703.001 946.59003 5419.2559 4664349
2732.0022 945.51215 5413.0845 6177842
2746.1101 939.36481 5377.8906 11636344
2728.4453 922.61456 5281.9951 11307120
2751.7327 919.93506 5266.6553 11963252
2774.3779 917.10352 5250.4443 12161657
2815.9131 920.5097 5269.9448 12293756
2856.7551 923.61707 5287.7349 12030585
2895.4358 925.96588 5301.1816 12359551
2963.9226 937.69397 5368.3252 12557443
3061.9211 958.41034 5486.9272 12294529
2959.3462 916.56982 5247.3887 12426116
3136.2754 961.26727 5503.2832 11571322
3216.9285 975.83972 5586.7109 10321513
3215.2625 965.39874 5526.936 8874327
3259.0017 968.66388 5545.6289 8743514
3306.9744 973.10956 5571.0806 10059116
3428.7385 998.96655 5719.1128 10059373
3425.1536 988.1543 5657.2124 10124909
3496.2388 998.88507 5718.6465 10913910
3511.1758 993.52222 5687.9438 11176566
3547.3162 994.20386 5691.8462 10847600
3587.8921 996.10431 5702.7261 10912621
3607.0229 992.07098 5679.6353 12162945
3617.1904 985.66974 5642.9878 12557446
3662.8442 988.96692 5661.8647 12755336
3721.9155 995.79431 5700.9512 12755338
3763.3225 997.81512 5712.5205 13018768
3782.0952 993.85217 5689.8325 13413527
3784.2642 985.6347 5642.7876 13676699
3846.2527 993.00519 5684.9834 11834494
3941.3945 1008.7326 5775.0234 9992036
3954.2791 1003.3182 5744.0259 9531485
4008.8911 1008.4932 5773.6533 9860451
4041.2441 1008.0285 5770.9927 9860195
4021.9927 994.80774 5695.3037 9728866
4121.73 1010.993 5787.9644 9728866
4175.9141 1015.8297 5815.6548 9663072
4193.1479 1011.6725 5791.8545 9662816
4186.7881 1001.9366 5736.1162 9597280
4281.2144 1016.2822 5818.2451 9465953
4185.7988 985.69373 5643.125 9136732
4191.5566 979.22607 5606.0977 9005399
4352.1084 1008.7385 5775.0576 12230023
4460.978 1025.905 5873.3359 14137763
4497.231 1026.235 5875.2256 13413783
4632.1953 1048.9121 6005.0527 11900031
4621.0854 1038.4188 5944.9775 10254950
4640.3022 1034.8473 5924.5308 10978159
4513.0625 998.91309 5718.8066 10518379
4495.0088 987.50146 5653.4746 9926501
4475.8516 976.01807 5587.7319 9992036
4569.4351 989.1073 5662.668 5783349
4541.8481 975.96826 5587.4468 9665141
4440.8149 947.3512 5423.6133 10126459
4451.8872 942.88885 5398.0664 9599345
4515.5869 949.55688 5436.2407 8809314
4550.4844 950.1167 5439.4458 9730412
4545.8232 942.46716 5395.6519 10124653
4566.9468 940.23279 5382.8604 9335135
4753.061 971.7619 5563.3652 9597792
4945.1777 1004.0753 5748.3608 10452332
5072.1777 1022.8157 5855.6499 10978931
5103.3184 1022.1024 5851.5664 12031875
5246.1724 1043.6221 5974.7666 12952207
5262.9697 1039.9448 5953.7139 12689804
5269.4487 1034.291 5921.3462 12163462
5311.4385 1035.636 5929.0464 11373432
5374.6348 1041.0712 5960.1631 10583148
5213.707 1003.3058 5743.9556 9070169
5210.2329 996.13367 5702.894 8938839
5099.4536 968.67059 5545.6675 8675926
5068.7627 956.67517 5476.9932 8545110
5019.7529 941.39685 5389.5244 8479575
0 0 0 0
4747.6167 879.17291 5033.2905 11442055
4686.9097 862.51202 4937.9062 13745063
4432.397 810.61395 4640.7886 5586216
0 0 0 0
0 0 0 0
0 0 0 0
-7088.9956 1395.2421 7725.6865 12
-5641.3589 1117.5387 6187.9971 12
-5604.6714 1117.5355 6187.979 12
-5582.54 1120.4537 6204.1382 12
-5559.5474 1123.2367 6219.5474 12
-5594.2192 1137.7849 6300.1035 12
-5561.9248 1138.817 6305.8188 12
-5505.792 1134.9493 6284.4023 12
-5476.7227 1136.6455 6293.7949 12
-5453.7104 1139.6309 6310.3252 12
-5430.2793 1142.5693 6326.5952 12
-5407.6885 1145.7266 6344.0776 12
-5380.8115 1148.0137 6356.7417 12
-5350.3906 1149.5714 6365.3672 12
-5332.8091 1153.9297 6389.4995 12
-6062.2314 1321.145 7315.3984 12
-6041.0547 1326.0126 7342.3516 12
-5955.0669 1316.6216 7290.3521 12
-5911.1323 1316.459 7289.4517 12
-5873.2837 1317.6593 7296.0977 12
-5844.0454 1320.8235 7313.6182 12
-5810.5264 1323.0601 7326.0029 12
-5768.125 1323.2928 7327.2915 12
-5743.916 1327.7341 7351.8843 12
-5697.1797 1326.9963 7347.7988 12
-5000.9727 1173.8064 6499.5601 12
-4968.6255 1175.266 6507.6421 12
-4928.8018 1174.9662 6505.9819 12
0 0 0 0
0 0 0 0
0 0 0 0
0 0 0 0
0 0 0 0
-4691.7109 1173.5265 6498.0103 13
-4653.7563 1173.666 6498.7832 12
-4619.6216 1174.7794 6504.9482 14
-4577.5469 1173.8755 6499.9429 14
0 0 0 0
-4504.3706 1174.8833 6505.5239 14
-4469.8545 1175.9454 6511.4048 14
0 0 0 0
0 0 0 0
0 0 0 0
0 0 0 0
0 0 0 0
0 0 0 0
0 0 0 0
0 0 0 0
0 0 0 0
0 0 0 0
-4439.2046 1290.4235 7145.2886 14
-4330.1089 1270.8328 7036.812 14
-4316.1626 1279.058 7082.3555 14
-4274.4526 1279.1362 7082.7896 14
-4235.1221 1279.9351 7087.2129 14
-4173.6226 1273.9832 7054.2559 11
-4193.8472 1293.109 7160.1587 12
-4173.2168 1299.9001 7197.7622 12
-4173.7417 1313.489 7273.0063 12
-3917.1248 1245.594 6897.0601 12
0 0 0 0
-3979.9873 1292.558 7157.1079 12
-4078.917 1338.9561 7414.0215 12
-3906.6113 1296.3585 7178.1519 12
-3612.8799 1212.0861 6711.5215 12
-3675.7444 1246.9036 6904.3115 12
-3344.1648 1147.1934 6352.1997 12
0 0 0 0
0 0 0 0
-3766.9683 1337.3976 7405.3921 12
-3718.2661 1335.6676 7395.813 12
-3560.8926 1294.3939 7167.2734 12
-3525.9221 1297.1547 7182.5601 12
-3490.6318 1299.8639 7197.5615 14
-3444.3704 1298.504 7190.0317 14
-3399.0115 1297.4546 7184.2207 14
-3264.5684 1261.9423 6987.5835 14
-3325.9841 1302.201 7210.5029 14
-2987.4326 1184.873 6560.8379 14
-2957.782 1188.582 6581.376 14
-2923.7727 1190.6155 6592.6353 14
-2887.2966 1191.6858 6598.562 16
-2851.6501 1193.1327 6606.5732 16
-2801.1829 1188.3324 6579.9937 16
0 0 0 0
-2590.9016 1130.6035 6260.3389 16
-2465.7539 1091.6235 6044.5005 16
-2472.6079 1110.7949 6150.6553 16
-2379.6284 1085.0197 6007.9336 16
-2357.5056 1091.26 6042.4873 16
-2324.3052 1092.4862 6049.2769 18
-2276.3726 1086.7177 6017.3359 18
-2232.0481 1082.5155 5994.0679 18
-2160.717 1064.8678 5896.3496 18
0 0 0 0
0 0 0 0
0 0 0 0
0 0 0 0
0 0 0 0
0 0 0 0
0 0 0 0
0 0 0 0
0 0 0 0
0 0 0 0
0 0 0 0
0 0 0 0
-2938.0879 1833.4327 10152.021 19
-2345.4805 1494.2295 8273.7959 19
-2270.7419 1477.5032 8181.1802 19
-2216.2769 1473.5264 8159.1592 19
-2161.8154 1469.3741 8136.1685 20
-1812.4025 1259.9827 6976.7324 18
-1769.5393 1258.903 6970.7544 19
-1727.6683 1258.4945 6968.4927 19
-1943.4718 1450.3616 8030.8921 19
-1889.8707 1445.7651 8005.4409 19
-1850.761 1452.3035 8041.645 18
-1797.2375 1447.578 8015.479 18
-1737.58 1437.521 7959.792 18
-1681.2084 1429.6971 7916.4702 19
-1633.2104 1428.7496 7911.2236 19
-1580.1133 1423.1533 7880.2358 19
-1530.1766 1420.1493 7863.6021 19
-1480.8666 1417.5565 7849.2451 19
-1435.2715 1418.4668 7854.2856 19
-1380.8218 1410.394 7809.5854 19
-1331.5798 1407.2651 7792.2603 19
-1287.5255 1409.5908 7805.1377 19
-1233.1227 1400.338 7753.9033 19
-1191.7885 1405.7841 7784.0591 19
-1132.7289 1389.9188 7696.2109 19
-1077.2645 1377.3188 7626.4429 19
-1001.1155 1336.0112 7397.7153 19
-1145.7749 1599.0892 8854.4219 19
-1089.3855 1593.3613 8822.7051 19
-1034.3419 1589.1233 8799.2393 19
-979.85455 1585.3356 8778.2656 19
-842.80487 1440.0532 7973.8135 19
-770.97247 1395.5641 7727.4692 19
-696.77917 1340.9124 7424.854 19
-678.70636 1394.1736 7719.77 19
-601.69525 1325.3147 7338.4873 19
-570.33124 1354.1033 7497.8945 19
-525.8728 1354.0408 7497.5479 19
-483.0303 1358.5115 7522.3027 19
-438.96744 1360.1099 7531.1533 19
-374.7067 1292.4054 7156.2632 19
-334.60019 1301.3627 7205.8608 19
-279.46219 1245.9258 6898.8975 19
-244.32089 1275.9177 7064.9678 19
-196.73335 1239.8746 6865.3911 19
-156.80278 1245.875 6898.6162 19
-114.99352 1235.9164 6843.4736 19
-74.749664 1241.0969 6872.1592 19
-33.65638 1227.6949 6797.9507 18
6.6897693 1238.8141 6859.519 18
46.219772 1209.4806 6697.0942 18
86.517738 1218.0623 6744.6128 18
128.44044 1236.8666 6848.7354 18
168.72992 1234.689 6836.6772 18
207.91147 1226.817 6793.0894 18
248.97826 1230.8188 6815.2476 18
290.55811 1235.8857 6843.3042 19
320.91608 1197.8257 6632.5591 19
360.51096 1198.7864 6637.8784 19
393.71014 1180.3831 6535.9766 19
435.47321 1188.6522 6581.7637 19
473.74454 1186.8143 6571.5879 19
497.53302 1151.7296 6377.3179 19
491.73767 1057.9507 5858.0483 19
570.49677 1146.4587 6348.1318 19
555.9541 1048.1178 5803.6021 19
675.44623 1199.2042 6640.1924 19
679.65497 1140.2463 6313.7324 19
659.17462 1048.1819 5803.957 18
685.99182 1036.729 5740.5405 18
728.18439 1048.4971 5805.7017 18
756.59033 1040.2478 5760.0239 18
790.60114 1040.084 5759.1177 18
816.14441 1029.2555 5699.1582 18
848.8609 1027.9744 5692.0645 18
885.68384 1031.574 5711.9961 18
920.56873 1032.7344 5718.4214 18
966.39771 1045.6542 5789.96 18
992.52551 1037.1018 5742.6045 18
1026.2512 1036.7925 5740.8916 18
1059.7574 1036.2883 5738.1001 16
1106.2728 1048.1411 5803.731 16
1137.9202 1045.6172 5789.7554 16
1165.5973 1039.6995 5756.9883 16
1198.4386 1038.5938 5750.8657 14
1240.5719 1045.3793 5788.4385 65550
1394.1577 1143.1891 6330.0269 196618
1289 1029.2665 5699.2188 327683
1386.835 1079.1124 5975.2241 2364690
1285.3228 975.22388 5399.9761 7692882
1339.8931 991.93176 5492.4907 9007450
1363.3462 985.3573 5456.0864 9533023
1397.3612 986.54413 5462.6582 9730659
1439.3643 993.18915 5499.4531 9730659
1471.2982 992.74579 5496.998 9599072
1497.1442 988.30292 5472.397 9467487
1509.3396 975.22839 5400.001 9796195
1580.6239 1000.083 5537.6255 9730659
1573.3744 975.24805 5400.1099 9599073
1613.2076 980.00531 5426.4517 9599073
1643.2561 978.74866 5419.4937 9796452
1686.2272 985.08942 5454.6035 9862244
1716.1893 983.73499 5447.1035 9993317
1733.1281 975.10321 5399.3081 9861732
1778.0747 982.25671 5438.918 9993318
1810.5404 982.38336 5439.6196 10059110
1848.3951 985.3786 5456.2046 9861732
1882.8436 986.48608 5462.3369 9795425
1908.4879 983.02136 5443.1519 9992805
1944.8123 985.08136 5454.5586 10321513
1976.9969 985.01154 5454.1719 10058084
2010.2892 985.48688 5456.8037 9992548
2042.9622 985.64832 5457.6982 9730147
2077.4788 986.68042 5463.4131 9861732
2106.0759 984.91266 5453.6245 9927268
2140.3186 985.79852 5458.5298 10124647
2173.3088 986.08984 5460.1426 10124134
2221.3416 993.09747 5498.9453 10058340
2256.8645 994.39062 5506.1055 10058341
2286.936 993.27936 5499.9521 10058084
2324.5142 995.4137 5511.7705 10058341
2366.3574 999.28992 5533.2339 9992291
2398.4907 999.01605 5531.7173 9861217
2423.8052 995.94757 5514.7266 10189925
2455.9231 995.71912 5513.4614 9926753
2493.3442 997.61847 5523.9785 10190181
2510.1047 991.30927 5489.0435 9927009
2539.6475 990.14478 5482.5957 9861216
2563.478 986.81097 5464.1357 9795423
2598.8362 987.9425 5470.4014 9927520
2598.4331 975.61908 5402.1646 9532762
2554.7722 947.55151 5246.7495 4205083
2599.8223 952.66571 5275.0679 7690309
2609.2234 944.75061 5231.2407 10519152
2549.6775 912.35004 5051.8335 9860192
2598.064 918.87482 5087.9619 11175536
2578.8481 901.61475 4992.3901 11570290
2619.5898 905.47076 5013.7417 12753791
2654.7388 907.32892 5024.0303 13016952
2697.2981 911.65033 5047.9585 12556649
2739.8745 915.88257 5071.3936 12030814
2772.0066 916.5697 5075.1982 13346673
2831.3679 926.1488 5128.2393 13479038
2863.0479 926.56592 5130.5488 12623992
2936.6194 940.3891 5207.0903 12425595
2976.0349 943.10089 5222.106 11439220
3094.9778 970.69958 5374.9243 11570295
3179.0515 986.91107 5464.6899 10781805
3228.2275 992.07123 5493.2627 9729119
3249.8328 988.74005 5474.8174 9465947
3293.2644 992.04956 5493.1431 9466205
3335.3594 994.89575 5508.9023 9597792
3405.4873 1005.9675 5570.2085 9598048
3361.6777 983.49304 5445.7637 9597792
3378.2148 978.93323 5420.5151 9795171
3418.9253 981.39813 5434.1641 9663327
3454.8208 982.448 5439.9771 9992035
3491.4851 983.69482 5446.8813 10452585
3554.7671 992.34949 5494.8037 11242358
3677.4932 1017.2909 5632.9082 12426632
3661.6128 1003.7863 5558.1309 13150354
3724.1653 1011.8321 5602.6821 12952974
3712.8359 999.84003 5536.2798 13281938
3738.0957 997.82477 5525.1211 13610906
3810.7969 1008.3984 5583.6689 13610906
3795.6943 995.75568 5513.6641 12097667
3872.155 1007.1443 5576.7246 9597534
3912.4192 1009.0051 5587.0283 9334107
3915.9761 1001.4473 5545.1797 9005141
3942.5007 999.84021 5536.2808 8610125
3999.4802 1005.9193 5569.9414 9728862
4039.6084 1007.6953 5579.7759 9004883
3981.9963 985.25867 5455.5405 9070677
4061.7361 996.89465 5519.9707 9662813
4105.5498 999.59741 5534.9365 9334106
4129.8745 997.55005 5523.5996 9268313
4183.2515 1002.497 5550.9922 9202520
4253.2026 1011.3077 5599.7783 9466203
4380.8198 1033.5874 5723.1445 12098180
4466.3364 1045.6681 5790.0376 13941925
4508.9795 1047.6035 5800.7539 14139818
4432.7798 1022.1069 5659.5752 13676443
4385.7734 1003.6741 5557.5098 11242103
4458.3179 1012.6711 5607.3276 9531228
4430.1802 998.8349 5530.7144 9925218
4421.543 989.56641 5479.3931 9729381
4393.6157 976.14734 5405.0894 9992298
4365.0083 962.77234 5331.0298 11506562
4294.1587 940.33948 5206.8154 13085851
4281.7749 930.93817 5154.7588 11901834
4208.5161 908.52838 5030.6724 9401699
4369.8164 936.71405 5186.7407 10124653
4461.6611 949.7215 5258.7651 10321774
4534.583 958.5484 5307.6411 9992810
4680.6973 982.61896 5440.9238 10255723
4800.1382 1000.799 5541.5898 10255723
4846.374 1003.5728 5556.9487 10386795
4935.5615 1015.1435 5621.0176 10583916
5037.5825 1029.1809 5698.7451 10057827
5205.9717 1056.5001 5850.0161 11768190
5149.8818 1038.2035 5748.7046 13018769
5261.6089 1053.7563 5834.8237 13149842
5219.0195 1038.4027 5749.8076 12228741
5135.4258 1015.1426 5621.0132 11110260
4998.2905 981.66693 5435.6523 10058084
4862.9858 948.97705 5254.6431 9400154
4774.1099 925.70587 5125.7866 9598046
4609.6812 888.17169 4917.9536 10849133
4623.5752 885.25171 4901.7852 11967871
4613.749 877.85486 4860.8276 12560784
4711.9375 890.9743 4933.4722 14274996
0 0 0 0
0 0 0 0
0 0 0 0
-6954.8462 1413.7567 7579.4883 12
-5587.3647 1143.163 6128.771 12
-5532.4741 1139.3386 6108.2676 12
-5509.8916 1142.1613 6123.4004 12
-5485.0444 1144.5486 6136.1997 12
-5463.1895 1147.5966 6152.54 12
-5466.7036 1156.0502 6197.8623 12
-5442.8789 1158.7977 6212.5923 12
-5419.6807 1161.7169 6228.2432 12
-5363.4946 1157.5566 6205.939 12
0 0 0 0
-6652.8779 1455.7982 7804.8828 12
0 0 0 0
0 0 0 0
0 0 0 0
0 0 0 0
0 0 0 0
0 0 0 0
0 0 0 0
0 0 0 0
0 0 0 0
0 0 0 0
-5614.1685 1330.2369 7131.7192 12
-6526.2808 1558.085 8353.2666 12
-5747.4829 1382.6422 7412.6763 12
0 0 0 0
-4920.125 1201.983 6444.1187 12
-4881.4565 1201.865 6443.4863 12
-4844.1479 1202.0828 6444.6533 12
-4824.8779 1206.8156 6470.0273 12
-4787.6318 1207.0919 6471.5093 12
-4747.4263 1206.6207 6468.9829 12
-4701.9883 1204.8011 6459.228 12
-4665.8877 1205.3639 6462.2446 12
-5189.4629 1351.7166 7246.8765 12
-5201.4141 1366.1353 7324.1782 11
-5196.6665 1376.3738 7379.0693 14
-5208.8242 1391.3015 7459.1011 14
-4480.3169 1206.9567 6470.7837 14
-4966.458 1349.4688 7234.8252 14
-5252.876 1439.7222 7718.6958 14
-5249.3599 1451.3977 7781.2905 14
-4391.0039 1224.8301 6566.6074 14
-4373.8228 1230.9467 6599.4004 14
-4943.9116 1403.9434 7526.8765 14
-4325.9521 1239.6434 6646.0254 14
-4313.7227 1247.4967 6688.1289 14
-4842.3394 1413.3549 7577.3345 14
-4970.8154 1464.4341 7851.1821 14
-4935.6274 1467.8064 7869.2622 14
-4890.6465 1468.303 7871.9238 14
0 0 0 0
0 0 0 0
0 0 0 0
0 0 0 0
0 0 0 0
0 0 0 0
0 0 0 0
0 0 0 0
0 0 0 0
0 0 0 0
-4174.6313 1400.2603 7507.1309 12
-4162.6279 1411.2739 7566.1777 12
0 0 0 0
0 0 0 0
0 0 0 0
0 0 0 0
0 0 0 0
0 0 0 0
0 0 0 0
0 0 0 0
0 0 0 0
0 0 0 0
-3860.5562 1484.7932 7960.332 14
-3788.0876 1474.9447 7907.5322 14
-3746.4294 1476.9961 7918.5303 14
-3799.2375 1516.8146 8132.0063 14
-3750.1978 1516.4718 8130.1685 14
-3615.9517 1481.2166 7941.1567 16
-3610.8127 1498.6158 8034.4385 16
-3593.5054 1511.3621 8102.7744 16
-3556.6665 1516.1278 8128.3242 16
-3470.583 1499.7444 8040.4888 16
-3422.9138 1499.7357 8040.4429 16
-3374.2146 1499.2694 8037.9424 17
-3327.2856 1499.5874 8039.6475 17
-3276.0991 1497.9679 8030.9648 18
-3100.6565 1438.6479 7712.9365 18
-3212.2195 1512.7109 8110.0059 18
-3163.3357 1512.3179 8107.8984 18
-3115.0518 1512.2039 8107.2871 18
-3079.7043 1518.4647 8140.8535 18
-3032.4358 1518.9535 8143.4741 18
-2984.3142 1519.024 8143.8521 18
0 0 0 0
0 0 0 0
0 0 0 0
0 0 0 0
0 0 0 0
0 0 0 0
0 0 0 0
0 0 0 0
0 0 0 0
0 0 0 0
-2461.0151 1523.7203 8169.0298 18
-2412.9395 1523.9323 8170.1665 18
-2366.1541 1524.9847 8175.8086 18
-2317.9275 1525.1327 8176.6021 18
-2269.4575 1525.1237 8176.5532 18
-2218.824 1523.6283 8168.5366 18
-2167.6902 1521.7152 8158.2798 18
0 0 0 0
-2042.9431 1501.1033 8047.7749 19
-2012.5856 1514.1454 8117.6963 19
-1962.1003 1512.3125 8107.8696 19
-1910.7782 1509.7262 8094.0044 19
-1858.7886 1506.4661 8076.5259 19
-1807.0322 1503.2273 8059.1621 19
-1756.0575 1500.4808 8044.4375 18
-1705.0392 1497.5427 8028.6851 19
-1654.2264 1494.6216 8013.0249 19
-1604.4567 1492.498 8001.6396 19
-1555.2858 1490.8191 7992.6387 19
-1506.0295 1488.9503 7982.6196 19
-1457.6814 1487.8875 7976.9209 19
-1409.4949 1486.9236 7971.7534 19
-1361.1268 1485.6948 7965.166 19
-1312.7318 1484.3473 7957.9414 19
-1264.0525 1482.5658 7948.3906 19
-1215.752 1481.1079 7940.5747 19
-1160.2791 1470.443 7883.3975 19
-863.13715 1139.7622 6110.5381 19
-924.34082 1274.0321 6830.3916 19
-1016.7048 1465.5159 7856.9819 19
-969.49109 1464.5317 7851.7056 19
0 0 0 0
0 0 0 0
0 0 0 0
-599.60913 1120.9891 6009.8916 19
-578.20569 1149.2378 6161.3389 19
-539.99884 1145.6451 6142.0781 19
-500.06134 1137.5958 6098.9238 19
-601.48846 1474.9397 7907.5049 19
-530.73145 1411.3936 7566.8188 19
-508.06705 1475.816 7912.2036 19
-461.29865 1476.2034 7914.2798 19
-414.4848 1476.5164 7915.9575 19
-351.00391 1409.9589 7559.127 19
-306.35681 1410.6489 7562.8271 19
-273.33276 1474.2666 7903.897 19
-226.31914 1473.1377 7897.8442 19
-172.43034 1415.0007 7586.1582 19
-132.70956 1473.127 7897.7866 19
-81.363838 1395.244 7480.2378 19
-36.949104 1392.0323 7463.019 18
7.2522135 1387.0365 7436.2349 18
54.419842 1470.7899 7885.2573 18
101.09615 1470.0133 7881.0938 18
143.63496 1428.5765 7658.9409 18
188.48099 1424.4766 7636.96 18
219.0024 1334.6658 7155.4634 18
256.67743 1310.517 7025.9956 18
278.15738 1221.9634 6551.2388 19
348.25266 1342.514 7197.5396 19
423.50415 1454.465 7797.7354 19
403.18942 1248.469 6693.3418 19
438.0499 1234.9211 6620.7085 19
476.27203 1232.2986 6606.6484 19
515.12006 1231.5709 6602.7466 19
602.86981 1339.6082 7181.9604 19
576.10022 1195.7092 6410.4834 19
615.39514 1198.2502 6424.1064 19
690.4068 1265.9885 6787.2676 19
743.06494 1287.5355 6902.7866 19
737.18939 1210.703 6490.8687 18
853.1593 1331.6766 7139.4375 18
882.40594 1312.25 7035.2866 18
873.41168 1240.2729 6649.4009 18
938.67169 1275.402 6837.7354 18
884.13751 1151.5911 6173.9561 18
911.37207 1139.8921 6111.2349 18
1090.7521 1312.1093 7034.5322 18
1127.1371 1305.9648 7001.5903 18
1204.996 1346.6044 7219.4688 18
1196.9331 1291.7303 6925.2759 18
1246.2283 1300.3433 6971.4521 17
1285.7875 1298.5707 6961.9487 16
1303.1885 1275.2256 6836.79 16
1318.9017 1251.6866 6710.5923 17
1338.1323 1232.766 6609.1538 16
1366.9821 1223.5312 6559.6445 14
1395.8516 1214.8243 6512.9644 65550
1398.7294 1184.5739 6350.7842 65549
1387.7874 1144.5114 6135.9995 262152
1280.0311 1028.6906 5515.0562 393216
1302.5116 1020.6951 5472.1909 5456698
1284.9651 982.48358 5267.3296 9402724
1327.326 990.80341 5311.9346 9730913
1357.3944 989.77435 5306.4175 9862244
1398.9196 996.95667 5344.9238 9862243
1438.8719 1002.7249 5375.8486 9599070
1478.2672 1007.8635 5403.3975 9927522
1498.0288 999.68188 5359.5342 7427133
1507.7479 985.27759 5282.3091 9269593
1539.2247 985.38812 5282.9019 9533023
1580.7397 991.79254 5317.2373 9664865
1611.0732 991.06812 5313.354 9796452
1643.5131 991.64233 5316.4321 9861988
1673.0143 990.45532 5310.0684 9795939
1700.0156 987.85938 5296.1509 10059111
1726.7017 985.17786 5281.7744 10190440
1768.5426 991.08435 5313.4409 9927525
1804.1019 993.32568 5325.457 9992548
1839.7035 995.51282 5337.1826 10123877
1868.8236 994.17804 5330.0264 9992291
1902.6357 995.34216 5336.2676 9794912
1929.2039 992.74054 5322.3198 9992291
1963.3542 994.06165 5329.4023 10123877
1995.9493 994.5658 5332.1055 10058084
2021.1902 991.44684 5315.3843 10058084
2051.7788 991.00659 5313.0234 10189927
2078.8022 988.88367 5301.6426 10255463
2109.5461 988.56744 5299.9473 10124134
2158.7766 996.79657 5344.0654 10124134
2205.2061 1003.5131 5380.0742 10124133
2229.1489 999.95105 5360.9775 9992548
2262.9329 1000.8417 5365.752 9992548
2315.0488 1009.703 5413.2598 10058084
2343.2192 1008.0211 5404.2427 9794912
2371.4163 1006.3958 5395.5293 9926754
2400.283 1005.0943 5388.5513 9926498
2427.5898 1003.1823 5378.3008 9992291
2457.9961 1002.584 5375.0933 10057827
2482.3853 999.57819 5358.978 10189155
2499.47 993.7442 5327.7007 10057315
2556.0842 1003.576 5380.4111 6636338
2528.4019 980.47644 5256.5688 2296584
2514.3694 963.16797 5163.7744 1310720
2556.1716 967.40698 5186.5005 4532245
2548.2366 952.94537 5108.9683 9465171
2537.741 937.87695 5028.1831 9925204
2572.6421 939.74103 5038.1768 12030065
2587.7576 934.41779 5009.6377 13082237
2621.8367 935.98535 5018.042 13148537
2642.0146 932.61078 4999.9497 12687980
2661.5972 929.10309 4981.1445 12951405
2687.4866 927.84991 4974.4258 13411954
2726.0557 930.9541 4991.0679 12819816
2782.7864 940.12714 5040.2471 12819822
2777.3035 928.31055 4976.8955 10386257
2827.2783 935.08441 5013.2114 11241577
2912.7046 953.32037 5110.979 11834234
3018.7029 977.84479 5242.4604 11833979
3110.2471 997.23529 5346.4175 11242358
3111.9978 987.73462 5295.4819 10124135
3168.678 995.68402 5338.1006 9992549
3216.3855 1000.6845 5364.9097 9729637
3259.854 1004.2812 5384.1924 9729637
3315.0454 1011.3848 5422.2764 9466721
3328.4822 1005.7354 5391.9883 9663327
3309.0164 990.34607 5309.4824 9203289
3342.0247 990.80359 5311.9355 8939606
3367.3145 988.98553 5302.1885 8150355
3389.0842 986.17706 5287.1313 7296078
3308.0793 953.78772 5113.4844 8085848
3382.3159 966.33954 5180.7778 9336168
3529.2859 999.25873 5357.2656 10651253
3566.1599 1000.6971 5364.9771 11439736
3618.3384 1006.3666 5395.3726 12360838
3654.1404 1007.422 5401.0308 13084817
3615.3672 988.07764 5297.3208 13282708
3671.5183 994.78571 5333.2847 13813414
3737.7361 1004.0835 5383.1323 13946543
3759.0708 1001.269 5368.043 13683886
3824.2544 1010.0831 5415.2979 14012594
3720.1682 974.41431 5224.0684 14078133
3707.6926 963.13159 5163.5791 13414789
3792.0857 976.9906 5237.8809 12755318
3867.5149 988.33405 5298.6953 13018497
3991.6384 1011.8381 5424.7065 8413004
4048.0488 1017.9391 5457.416 7821903
4080.1631 1017.8825 5457.1118 7430235
4120.7539 1019.9246 5468.0601 7892333
4130.9453 1014.4695 5438.814 7957873
4158.7837 1013.3989 5433.0742 8615544
4158.2656 1005.4882 5390.6631 9272439
4380.4976 1051.1493 5635.4634 10324608
4398.0894 1047.3853 5615.2837 12627096
4348.9854 1027.9139 5510.8931 14007974
4366.2808 1024.3098 5491.5703 13876132
4319.4561 1005.828 5392.4849 12887952
4380.2197 1012.4867 5428.1836 11177078
4310.1421 989.02478 5302.3989 10782575
4226.502 962.81287 5161.8706 13941406
4226.5771 955.91144 5124.8701 12953228
4271.2109 959.11407 5142.0405 13019021
4199.1665 936.25659 5019.4961 9926496
4292.7534 950.39044 5095.271 9268824
4412.0669 969.98285 5200.3105 9334872
4437.8003 968.87274 5194.3589 9729374
4502.9019 976.3136 5234.2515 9992293
4591.9902 988.81805 5301.2905 9663583
4687.3804 1002.5002 5374.6436 9794657
4716.9932 1002.0247 5372.0942 9991265
4801.5435 1013.1476 5431.7271 9794657
4909.8511 1029.1018 5517.2617 9728607
4969.8887 1034.7947 5547.7822 10320744
5067.9185 1048.271 5620.0322 11505019
5087.981 1045.5497 5605.4424 12031618
5079.4683 1037.0298 5559.7651 12426377
4835.731 980.90533 5258.8687 10913648
4764.0386 960.17468 5147.7266 11308148
4596.9385 920.60132 4935.564 11572345
4469.2505 889.37109 4768.1313 9861464
4546.5024 899.05969 4820.0747 9862494
4559.4326 895.9873 4803.6025 12427909
4675.7427 913.14252 4895.5757 12362894
0 0 0 0
0 0 0 0
0 0 0 0
-7096.3135 1488.345 7733.6616 12
-5517.1631 1164.6639 6051.7666 12
-5457.2983 1159.5643 6025.2681 12
-5454.3291 1166.5663 6061.6514 12
-5406.0464 1163.9052 6047.8237 12
-6108.4663 1323.9111 6879.2388 12
-5392.6011 1176.6117 6113.8486 12
-5366.0986 1178.7489 6124.9541 12
-5344.2114 1181.936 6141.5146 12
-5315.5991 1183.6692 6150.521 12
-5283.9204 1184.7389 6156.0791 12
-5936.5156 1340.3151 6964.4761 12
-5902.6738 1342.0046 6973.2554 12
-6192.9849 1417.9355 7367.8032 12
-6213.3071 1432.6896 7444.4673 12
-5731.0508 1330.9392 6915.7573 12
-5130.2417 1199.9929 6235.3413 12
-5089.7915 1199.1687 6231.0586 12
-5053.147 1199.2356 6231.4062 12
-5014.6792 1198.8678 6229.4946 12
-4980.7197 1199.58 6233.1958 12
-4950.1108 1201.116 6241.1772 12
-4913.4951 1201.2068 6241.6489 12
-4881.1772 1202.3574 6247.6279 12
-5621.1074 1395.204 7249.6865 11
0 0 0 0
0 0 0 0
0 0 0 0
0 0 0 0
0 0 0 0
0 0 0 0
0 0 0 0
0 0 0 0
0 0 0 0
0 0 0 0
0 0 0 0
0 0 0 0
0 0 0 0
-4350.7173 1209.2817 6283.6069 14
-4325.5537 1212.6667 6301.1963 14
-4349.7524 1230.0699 6391.626 14
-4337.6992 1237.4371 6429.9067 14
-4318.728 1242.944 6458.5215 14
-4303.8057 1249.7249 6493.7559 14
-4279.8716 1253.9878 6515.9062 14
-4245.2427 1255.1661 6522.0293 14
-4248.6514 1267.7159 6587.2402 14
-4220.4766 1270.9872 6604.2378 14
-4188.0732 1273.0345 6614.876 14
-5872.1709 1801.8092 9362.4678 14
-4830.3799 1496.2853 7774.9204 12
-5895.9878 1843.9629 9581.5049 11
-5901.9429 1863.7747 9684.4492 12
-5869.501 1871.731 9725.792 12
-5794.5444 1866.1532 9696.8096 12
-5765.0078 1875.2379 9744.0146 12
-5784.2759 1900.5421 9875.499 12
-5800.7056 1925.4216 10004.776 12
-5741.4155 1925.4216 10004.776 12
-4704.769 1594.2388 8283.9014 12
-4829.5332 1653.7722 8593.2461 12
-4712.2549 1630.8091 8473.9258 12
-4794.8218 1677.2579 8715.2812 12
-4636.957 1639.6984 8520.1162 12
-4290.7422 1533.9751 7970.7622 12
-4199.3184 1518.002 7887.7632 12
-4131.6255 1510.3441 7847.9722 12
-4679.1909 1729.9844 8989.2559 12
-4073.6465 1523.4476 7916.0601 12
-4573.8169 1730.4272 8991.5566 12
-4513.7476 1727.8304 8978.0635 12
-4148.5537 1606.9792 8350.1025 12
-4080.3503 1599.6409 8311.9717 14
0 0 0 0
-3990.2263 1603.0126 8329.4912 14
-4260.4746 1733.0195 9005.0273 13
-4211.0396 1734.6385 9013.4395 14
0 0 0 0
0 0 0 0
0 0 0 0
0 0 0 0
0 0 0 0
-3898.689 1738.2694 9032.3057 16
0 0 0 0
0 0 0 0
0 0 0 0
0 0 0 0
0 0 0 0
0 0 0 0
0 0 0 0
0 0 0 0
0 0 0 0
0 0 0 0
0 0 0 0
0 0 0 0
0 0 0 0
-2462.8438 1359.3743 7063.5107 18
-2422.4673 1360.2073 7067.8389 18
-2655.1187 1517.071 7882.9263 18
-2909.3833 1692.1243 8792.5283 18
-2727.0359 1614.9933 8391.7451 18
-2677.9084 1615.3575 8393.6377 18
-2628.5999 1615.6243 8395.0234 18
-2494.8345 1562.9899 8121.5273 18
-2446.2878 1562.7238 8120.1445 18
-2395.5066 1560.9907 8111.1396 18
-2333.3755 1551.6393 8062.5479 19
-2271.6733 1542.1881 8013.438 18
-2287.2354 1585.9061 8240.6035 18
-2222.8757 1574.9075 8183.4526 18
-2158.7451 1563.584 8124.6143 19
-2095.7378 1552.5759 8067.415 18
-2035.0333 1542.7996 8016.6157 19
-1976.7885 1534.4653 7973.3096 18
-1918.8827 1525.9926 7929.2842 18
-1860.9021 1517.0334 7882.731 18
-1805.2676 1509.5746 7843.9736 18
-1746.0751 1498.6678 7787.3003 18
-1684.1522 1484.7617 7715.042 18
-1584.3353 1435.7394 7460.3149 19
-1586.0322 1478.5363 7682.6934 19
-1528.5697 1467.083 7623.1807 19
-1474.2888 1458.0787 7576.3936 19
-1423.4897 1452.0607 7545.1226 19
-1373.9091 1446.9352 7518.4902 19
-1325.2188 1442.4354 7495.1089 19
-1306.5815 1471.4694 7645.9731 19
-1259.9038 1469.8756 7637.6919 19
-1212.8545 1467.7135 7626.457 19
-1166.2516 1465.9448 7617.2671 19
-1119.7783 1464.2035 7608.2188 19
-1104.0903 1504.2595 7816.3555 19
-1056.4701 1502.4122 7806.7568 19
-1009.3085 1501.0782 7799.8252 19
-962.42572 1500.0504 7794.4844 19
-915.87238 1499.4584 7791.4087 19
-869.25409 1498.6917 7787.4243 19
-817.61298 1488.6934 7735.4717 19
-771.69421 1488.5455 7734.7031 19
0 0 0 0
0 0 0 0
0 0 0 0
0 0 0 0
0 0 0 0
-379.16745 1136.3861 5904.8311 19
0 0 0 0
0 0 0 0
0 0 0 0
0 0 0 0
0 0 0 0
0 0 0 0
-131.82216 1116.1307 5799.5811 19
-103.06714 1180.4344 6133.7124 19
-65.543007 1159.6548 6025.7388 19
-30.474541 1184.585 6155.2793 18
6.0188808 1187.7272 6171.6069 18
42.41074 1182.641 6145.1777 18
79.138023 1187.2866 6169.3174 18
114.83813 1178.4553 6123.4292 18
150.334 1172.2727 6091.3027 18
181.13495 1138.963 5918.2207 18
216.4657 1140.3226 5925.2856 18
250.96005 1137.5118 5910.6802 19
286.33316 1138.8846 5917.8135 19
334.47717 1185.2113 6158.5337 19
378.66782 1209.7921 6286.2593 19
445.88528 1296.9476 6739.1328 19
486.18335 1297.9102 6744.1338 19
540.72485 1333.8622 6930.9458 19
583.36298 1337.4478 6949.5767 19
616.67645 1320.5918 6861.9907 19
647.75281 1301.327 6761.8882 19
693.0025 1311.1222 6812.7852 18
730.37695 1305.7596 6784.9204 18
767.25592 1300.1169 6755.6006 18
817.28674 1316.2147 6839.2471 18
881.67828 1352.826 7029.4849 18
892.81946 1308.114 6797.1548 18
947.98108 1328.9745 6905.5488 18
982.76239 1320.7198 6862.6562 18
1036.7876 1337.9551 6952.2129 18
1071.4576 1329.85 6910.0981 18
1086.7957 1299.2308 6750.9961 18
1117.2673 1288.2354 6693.8618 18
1149.3391 1279.7755 6649.9038 18
1184.6356 1275.3485 6626.8999 17
1225.0837 1276.5736 6633.2661 16
1247.1945 1259.2085 6543.0342 16
1268.2651 1241.8722 6452.9521 16
1246.0082 1184.3667 6154.145 16
1267.5176 1170.5498 6082.3506 16
1353.8987 1215.7495 6317.2148 15
1326.5015 1159.0972 6022.8408 14
1352.1414 1150.5433 5978.3936 131084
1361.5323 1128.953 5866.207 327683
0 0 0 0
1232.014 971.92609 5050.2725 8153941
1283.7709 988.73767 5137.6274 9467741
1318.8707 992.2384 5155.8179 9664608
1351.3823 993.67755 5163.2959 9401693
1384.7134 995.64209 5173.5039 9467743
1414.9521 995.34619 5171.9668 9927781
1432.0477 986.01343 5123.4722 9928038
1478.0696 996.57135 5178.3325 9862245
1492.4148 985.77667 5122.2417 9533279
1531.9193 991.6994 5153.0171 9467487
1565.5334 993.65186 5163.1626 9335644
1592.1824 991.19336 5150.3877 9401180
1632.1335 996.95288 5180.3149 9664096
1639.9186 983.21436 5108.9277 9861732
1667.2262 981.46655 5099.8457 9861475
1709.2266 988.27637 5135.2305 9861732
1752.9602 995.83252 5174.4937 10058341
1784.9275 996.55963 5178.2715 9992291
1816.2743 996.92151 5180.1519 9730146
1836.4388 991.23553 5150.6069 9927268
1876.4161 996.25488 5176.688 9926755
1908.0504 996.75427 5179.2832 9729632
1935.1349 994.89886 5169.6421 9993318
1966.6992 995.36847 5172.082 9993317
1989.2668 991.34021 5151.1509 9927524
2019.722 991.30499 5150.9678 9927525
2055.6467 993.91553 5164.5322 10189670
2101.1658 1001.0201 5201.4492 9663583
2115.259 993.16425 5160.6289 10058340
2149.6409 994.92249 5169.7651 10189670
2192.4382 1000.4716 5198.5986 9860962
2217.7578 998.00171 5185.7651 9926754
2267.4702 1006.4262 5229.54 9992548
2278.793 997.81403 5184.7896 9860705
2323.2219 1003.7342 5215.5518 9794912
2347.7139 1000.9984 5201.3359 9926498
2372.0669 998.27496 5187.1851 9860704
2407.6685 1000.2947 5197.6797 9860705
2428.8708 996.35657 5177.2163 9663326
2492.3523 1009.6437 5246.2588 9663068
2443.604 977.69983 5080.2734 8544844
2500.668 988.35419 5135.6353 8017991
2532.1162 988.75006 5137.6919 1639427
2504.5637 966.37122 5021.4082 3281163
2530.4082 964.87903 5013.6543 12556915
2544.6731 959.05713 4983.4033 12425061
2517.6482 937.98578 4873.9131 12885613
2578.7825 949.86487 4935.6387 13017200
2599.6191 946.80078 4919.7173 12490855
2637.23 949.84625 4935.542 13017198
2674.7485 952.79193 4950.8481 13279599
2700.6165 951.5686 4944.4917 13082221
2752.1011 959.30078 4984.6689 12885613
2786.7822 961.07373 4993.8818 12227945
2807.4917 958.04163 4978.1265 12162670
2851.52 962.94733 5003.6172 11044201
2954.3274 987.39722 5130.6626 11965821
3009.7268 995.66565 5173.6265 11834236
3077.6272 1007.8611 5236.9956 11242358
3089.4756 1001.6404 5204.6724 10453100
3155.656 1012.9836 5263.6128 9597791
3217.3804 1022.6883 5314.04 9268829
3188.1123 1003.5621 5214.6577 9137760
3251.9695 1013.8358 5268.0415 9335398
3249.25 1003.3557 5213.585 9006691
3270.5364 1000.4158 5198.3091 9007464
3232.0459 979.41663 5089.1943 5520700
3193.4314 958.76849 4981.9033 5191991
3164.5378 941.39044 4891.6045 9270640
3219.8054 949.13696 4931.8564 8415072
3326.9373 971.8952 5050.1113 8810083
3330.1956 964.17358 5009.9893 8810082
3418.8521 981.09485 5097.9146 8941408
3473.99 988.18542 5134.7578 9730663
3469.5686 978.35791 5083.6929 12361867
3599.3572 1006.2189 5228.4624 13282196
3601.7849 998.30365 5187.334 13545369
3587.7524 985.99884 5123.396 13283220
3620.407 986.62347 5126.6421 13612441
3606.1936 974.57178 5064.0195 13744790
3615.9568 969.14502 5035.8213 13349518
3690.6167 981.05841 5097.7251 13811093
3731.3279 983.82721 5112.1123 12361086
3845.3408 1005.7229 5225.8857 9860450
3947.3242 1024.1477 5321.6235 9663592
4058.5906 1044.6697 5428.2588 9202785
4092.4673 1045.106 5430.5254 8546143
3984.4983 1009.5942 5246.0015 8613225
4009.3103 1008.0161 5237.8013 8680303
3994.6714 996.61969 5178.584 8483441
4067.0139 1006.9323 5232.1699 8287088
4087.1836 1004.2695 5218.3335 8943730
4198.3667 1023.8417 5320.0337 10785162
4277.9487 1035.4734 5380.4731 12822420
4245.0107 1019.899 5299.5464 13676955
4151.6562 990.14429 5144.9365 13016970
4047.7578 958.32709 4979.6099 10782077
4167.8232 979.61127 5090.2056 14209718
4190.3257 977.82312 5080.9141 13615514
4206.3389 974.55688 5063.9424 13085837
4176.2944 960.74158 4992.1558 11440496
4211.2729 961.97369 4998.5581 9861210
4309.4468 977.52332 5079.3564 9597782
4329.8325 975.3349 5067.9849 9729371
4373.8804 978.46991 5084.2749 10057567
4499.5083 999.68726 5194.5234 10057310
4557.1172 1005.6066 5225.2812 8478281
4588.7549 1005.7538 5226.0459 8741198
4676.3262 1018.0763 5290.0757 9070420
4714.7441 1019.6047 5298.0176 9728095
4692.8979 1008.1666 5238.583 9727839
4799.5288 1024.2979 5322.4033 9399128
4745.8374 1006.2264 5228.502 7096116
4708.0732 991.74457 5153.252 8807245
4705.563 984.82764 5117.3105 9135952
4626.8511 962.15314 4999.4902 9662807
4544.4644 939.00793 4879.2246 11176813
4559.1367 936.08362 4864.0293 10124380
4605.2939 939.61981 4882.4038 11900792
4608.9307 934.49048 4855.7515 12625286
4659.9346 938.96942 4879.0244 13414550
0 0 0 0
0 0 0 0
0 0 0 0
-7026.665 1519.1188 7657.7578 12
-5434.3872 1182.516 5960.9697 12
-5358.0283 1173.5289 5915.6665 12
-5337.1782 1176.6611 5931.4556 12
-5346.1753 1186.4589 5980.8452 12
-5505.0205 1229.8644 6199.6494 12
-5483.7666 1233.3475 6217.2075 12
-5445.6704 1233.0641 6215.7783 12
-5411.8677 1233.7555 6219.2642 12
-5373.9819 1233.5194 6218.0737 12
-5351.2383 1236.7797 6234.5083 12
-5312.2007 1236.2931 6232.0557 12
-5269.6045 1234.9657 6225.3643 12
-5216.4082 1231.1179 6205.9683 12
-5173.937 1229.7648 6199.147 12
-5256.0308 1258.2111 6342.5425 12
-5227.7148 1260.4465 6353.811 12
-5484.0469 1331.8434 6713.7168 12
-5605.2773 1371.2333 6912.2788 12
-5144.9243 1267.8817 6391.2915 12
-5450.9424 1353.2574 6821.6636 12
-5080.3472 1270.6768 6405.3813 12
-5065.5928 1276.5247 6434.8599 13
-5355.0239 1359.6969 6854.124 13
-5010.3105 1281.8939 6461.9258 14
-4974.167 1282.4486 6464.7222 14
-4923.3945 1279.2109 6448.4014 14
-4946.0034 1295.1379 6528.6875 14
-4666.9766 1231.7084 6208.9443 14
-4627.4175 1230.9731 6205.2383 14
-4592.3716 1231.4364 6207.5732 14
-4749.6655 1283.8992 6472.0342 13
-4489.3853 1223.4214 6167.1704 12
-4708.6543 1293.7073 6521.4761 12
-5052.2485 1399.5978 7055.2617 12
-4962.2715 1386.1431 6987.438 11
-4971.3545 1400.3663 7059.1357 14
-4700.8633 1335.4098 6731.6948 14
-4679.3872 1340.6865 6758.2949 14
-4657.6704 1345.9849 6785.0034 14
-4647.6953 1354.7981 6829.4302 14
-4510.0166 1326.2137 6685.3384 14
-4456.1226 1321.9788 6663.9902 14
-4451.1509 1332.3114 6716.0762 14
-4890.1304 1476.9121 7444.9971 14
-4565.6177 1391.4574 7014.2266 14
-4565.7822 1404.2931 7078.9302 14
-5284.019 1640.2714 8268.4785 14
-5393.9907 1690.0818 8519.5684 14
-4894.5527 1548.0848 7803.7734 14
-5013.7427 1600.9094 8070.0581 12
-4877.249 1572.3246 7925.9634 12
-3810.5491 1240.3882 6252.6987 12
-4881.5361 1604.6134 8088.729 12
-4796.8672 1592.4191 8027.2583 12
-4779.002 1602.3794 8077.4678 12
-4774.6221 1617.1084 8151.7158 12
-4514.5186 1544.6429 7786.4229 12
-4496.7754 1554.4607 7835.9136 12
-4446.8442 1553.2404 7829.7617 12
-4004.8035 1413.5898 7125.7944 12
-4036.4756 1439.953 7258.6895 12
-4244.7578 1530.5657 7715.4604 12
-4207.8286 1533.7712 7731.6191 12
-3378.063 1244.8738 6275.3101 12
0 0 0 0
0 0 0 0
0 0 0 0
0 0 0 0
0 0 0 0
0 0 0 0
0 0 0 0
0 0 0 0
-4315.2646 1765.1389 8897.9258 15
-4271.8921 1769.0144 8917.4619 16
-3943.7319 1653.5774 8335.5527 15
-3894.6111 1653.6952 8336.1465 16
-3836.1167 1649.7848 8316.4346 16
-3782.3933 1647.8512 8306.6875 16
-3895.6907 1719.5908 8668.3213 16
-3845.1824 1719.9766 8670.2656 18
-3793.1968 1719.7028 8668.8857 18
-3823.3657 1757.1788 8857.7998 18
-3527.6189 1643.8258 8286.3955 18
-3669.4697 1734.0659 8741.2891 18
-3651.3215 1750.1976 8822.6074 18
-3355.0652 1631.5551 8224.54 18
-3309.7529 1633.2469 8233.0684 18
-3270.0718 1637.8094 8256.0674 18
-3239.6145 1647.2004 8303.4072 18
-3188.2583 1646.0914 8297.8164 18
-3135.2668 1644.0897 8287.7266 18
-3135.4229 1670.3378 8420.041 18
-3185.8655 1724.6575 8693.8623 18
-2396.4319 1318.625 6647.0845 18
-2755.1267 1541.3313 7769.729 18
-2714.8882 1544.6348 7786.3818 18
-2288.1497 1324.3516 6675.9512 18
-2251.6218 1326.1392 6684.9624 18
-2591.9746 1553.9379 7833.2783 18
-2549.1365 1556.1255 7844.3057 18
-2506.3333 1558.4161 7855.8521 18
-2463.5576 1560.8109 7867.9243 18
-2418.8645 1562.0598 7874.2197 18
-2577.5847 1697.3025 8555.9678 18
-2522.0964 1694.0891 8539.7695 18
-2465.5237 1690.001 8519.1611 18
-2409.5767 1686.1797 8499.8984 18
-2352.9958 1681.7424 8477.5303 18
-2295.7393 1676.6178 8451.6973 18
-2238.7742 1671.4822 8425.8096 18
-2181.155 1665.6128 8396.2227 18
-2122.0112 1658.278 8359.248 18
-2040.0802 1632.3595 8228.5947 18
-1973.0438 1617.3812 8153.0908 18
-1906.3448 1601.9346 8075.2251 18
-1872.0834 1613.652 8134.292 18
-1814.6815 1605.5156 8093.2769 18
-1758.0708 1597.6564 8053.6597 18
-1726.2192 1612.4867 8128.4175 19
-1671.7366 1606.4214 8097.8428 19
-1614.2068 1596.983 8050.2646 19
-1503.4916 1532.7491 7726.4673 19
-1455.537 1530.4718 7714.9873 19
-1406.6259 1527.0083 7697.5278 19
-1344.3197 1508.2838 7603.1392 19
-1299.9058 1509.0312 7606.9072 19
-1258.6967 1513.6864 7630.3735 19
-1209.9517 1509.2885 7608.2036 19
-1149.0592 1488.8107 7504.9771 19
-1101.4337 1484.5659 7483.5791 19
-1062.0231 1491.5016 7518.5415 19
-1009.889 1480.3936 7462.5469 19
-1018.3352 1561.1398 7869.5815 19
-966.35858 1552.5608 7826.3364 19
-918.05823 1549.3208 7810.0034 19
-870.87927 1547.7297 7801.9834 19
-824.12061 1546.7494 7797.041 19
-777.36267 1545.6537 7791.5181 19
-678.46069 1434.1929 7229.6528 19
-635.33032 1433.5479 7226.4014 19
-634.02356 1534.0004 7732.7744 19
-546.65601 1425.6614 7186.6465 19
-538.74713 1523.7498 7681.1016 19
-379.43179 1172.196 5908.9478 19
-447.55856 1523.243 7678.5474 19
-402.0289 1523.1484 7678.0708 19
-356.5061 1523.0591 7677.6206 19
-310.65594 1521.3405 7668.957 19
-247.66669 1420.7161 7161.7168 19
-203.96542 1411.9977 7117.7681 19
-163.37627 1425.8942 7187.8198 19
-128.53351 1517.4336 7649.2627 19
-63.343506 1155.2505 5823.5264 19
0 0 0 0
0 0 0 0
0 0 0 0
0 0 0 0
0 0 0 0
0 0 0 0
0 0 0 0
0 0 0 0
0 0 0 0
0 0 0 0
305.82355 1117.0481 5630.9512 19
0 0 0 0
373.3602 1119.4353 5642.9849 19
413.83334 1138.7848 5740.5244 19
449.47452 1142.9083 5761.3101 19
647.39893 1529.9652 7712.4336 19
516.78406 1140.754 5750.4507 19
551.92004 1142.944 5761.4902 19
