# .PCD v0.7 - Point Cloud Data file format
VERSION 0.7
FIELDS x y z rgb
SIZE 4 4 4 4
TYPE F F F U
COUNT 1 1 1 1
WIDTH 1506
HEIGHT 1
VIEWPOINT 0 0 0 1 0 0 0
POINTS 1506
DATA ascii
0 0 0 0
0 0 0 0
0 0 0 0
-8922.71 3023.9456 9724.0947 12
-9018.7266 3076.3545 9892.626 12
-9914.7559 3404.1248 10946.636 12
-9840.9238 3401.0283 10936.679 12
-9767.4043 3397.9995 10926.939 12
-7843.8809 2747.0337 8833.6299 12
-6746.9707 2378.7563 7649.3618 12
-6787.6616 2409.2903 7747.5493 12
-6833.1699 2441.9614 7852.6104 12
-5614.8809 2020.3425 6496.811 12
-5595.1035 2027.1262 6518.6255 12
0 0 0 0
0 0 0 0
0 0 0 0
-9075.8467 3381.604 10874.216 12
-9014.5781 3382.7952 10878.047 12
-6256.8716 2364.8545 7604.6572 12
-8882.582 3381.6279 10874.294 12
-8822.2979 3383.2234 10879.424 12
-8760.4932 3384.2542 10882.738 12
-8702.7451 3386.8789 10891.18 12
-8655.7119 3393.7446 10913.257 12
0 0 0 0
0 0 0 0
0 0 0 0
0 0 0 0
0 0 0 0
-4745.8325 1948.0885 6264.4639 14
0 0 0 0
0 0 0 0
0 0 0 0
0 0 0 0
0 0 0 0
0 0 0 0
0 0 0 0
0 0 0 0
0 0 0 0
0 0 0 0
0 0 0 0
0 0 0 0
0 0 0 0
0 0 0 0
0 0 0 0
0 0 0 0
0 0 0 0
0 0 0 0
0 0 0 0
0 0 0 0
0 0 0 0
0 0 0 0
0 0 0 0
0 0 0 0
0 0 0 0
0 0 0 0
-3629.4468 1888.7512 6073.6528 13
-3632.0312 1909.0284 6138.8584 14
-4231.7017 2246.7246 7224.7876 14
-4213.6421 2260.0027 7267.4858 14
-4190.1313 2270.6011 7301.5669 13
-4097.3535 2243.4937 7214.397 15
-3812.7551 2109.6763 6784.0806 15
-3695.8992 2066.811 6646.2393 15
-3608.1321 2039.4645 6558.3013 16
-4051.2498 2314.8682 7443.916 15
-4016.9963 2320.5645 7462.2339 16
-3993.3376 2332.5764 7500.8608 16
-3955.3926 2336.4197 7513.2197 16
-3911.8884 2337.0298 7515.1812 16
-3757.6748 2270.7522 7302.0522 15
-3842.7686 2349.228 7554.4067 16
-3811.3245 2357.4697 7580.9102 16
-3755.8528 2350.8691 7559.6846 16
-3745.9109 2372.9512 7630.6934 17
-3710.3159 2379.1238 7650.5425 18
-3649.1548 2368.8525 7617.5137 18
-2993.022 1967.2598 6326.1128 17
-3589.9077 2389.5127 7683.9507 17
-3546.6416 2391.0435 7688.873 18
-3467.3254 2367.9939 7614.7524 18
-3438.2144 2379.0759 7650.3892 18
-3353.9597 2351.7874 7562.6372 18
-3318.6143 2358.5193 7584.2852 18
-3251.1501 2342.2964 7532.1167 18
-3206.3855 2342.2029 7531.8169 18
-3208.334 2376.7119 7642.7871 18
-3129.344 2351.3916 7561.3647 18
-2678.533 2041.8905 6566.1025 18
-2634.3457 2037.8099 6552.9805 18
-2796.8057 2195.8518 7061.1958 18
-2850.3123 2271.853 7305.5928 18
-2501.6997 2024.7449 6510.9673 18
-2453.7429 2017.0413 6486.1948 18
-2410.8909 2013.3556 6474.3428 18
-2367.2441 2008.8761 6459.9385 18
-2186.7349 1886.1968 6065.439 18
-2117.1643 1856.708 5970.6118 18
-2210.501 1971.5111 6339.7837 18
-2161.7603 1961.377 6307.1953 18
-2552.427 2356.5769 7578.0396 18
-2144.7009 2015.6 6481.5601 18
-2432.2612 2327.5361 7484.6528 18
-2211.7856 2155.8689 6932.6221 18
-1929.3628 1916.1792 6161.853 18
-2255.5986 2283.4031 7342.7344 18
-2201.0508 2272.0142 7306.1108 18
-2100.1597 2211.3706 7111.0996 18
0 0 0 0
-2053.144 2252.2532 7242.5649 18
-1788.3073 2003.619 6443.0327 18
-1821.4409 2085.2649 6705.582 18
-1826.2867 2137.4456 6873.3789 18
-1757.7632 2104.1785 6766.4019 18
-1744.2971 2136.8047 6871.3179 18
-1781.7693 2234.8823 7186.7065 18
-1678.1653 2156.4783 6934.582 18
-1590.0562 2094.5486 6735.4351 18
-1528.572 2065.405 6641.7183 18
-1525.037 2115.0916 6801.4951 18
-1486.8229 2118.0732 6811.083 18
-1433.8896 2099.6677 6751.897 18
-1429.676 2153.5945 6925.3086 18
-1297.0009 2011.4814 6468.3159 18
-1165.2794 1862.2366 5988.3896 18
-1212.0709 1997.8585 6424.5093 18
-1199.528 2041.3047 6564.2188 18
-1181.2156 2077.5156 6680.6626 18
-1138.9994 2072.7385 6665.3003 18
-968.94464 1826.6211 5873.8613 18
-929.55054 1817.6569 5845.0347 18
-967.42578 1964.9404 6318.6548 18
-934.19666 1973.8496 6347.3037 18
-821.11646 1807.7119 5813.0552 18
-840.92188 1932.3861 6213.9692 18
-791.68878 1902.5677 6118.083 18
-710.20959 1788.6753 5751.8389 18
-676.84143 1790.5759 5757.9507 18
-641.41034 1786.9313 5746.231 18
-595.67035 1752.5476 5635.6631 18
-567.54889 1768.9946 5688.5518 18
-525.22736 1740.4635 5596.8042 18
-492.19366 1740.9379 5598.3301 18
-459.77118 1743.7992 5607.5312 18
-426.10242 1742.0114 5601.7817 18
-389.46536 1726.7606 5552.7402 18
-355.48691 1721.5706 5536.0503 18
-320.86163 1711.8739 5504.8691 18
-287.83899 1709.5006 5497.2373 18
-254.26735 1702.8447 5475.834 18
-222.65991 1709.3204 5496.6577 18
-189.44292 1703.5415 5478.0747 18
-156.45134 1697.8188 5459.6719 19
-122.63824 1677.8723 5395.5303 20
-90.884155 1681.9619 5408.6812 19
-58.567104 1674.4126 5384.4048 19
-26.639078 1673.226 5380.5889 19
5.2786684 1683.1842 5412.6118 19
40.991833 1847.0588 5939.5825 19
75.994942 1842.3041 5924.2935 18
99.388786 1648.0514 5299.6353 18
130.25468 1641.2362 5277.7197 18
159.68219 1622.4456 5217.2944 18
193.10036 1643.7208 5285.7095 18
224.13734 1641.6169 5278.9438 18
254.65521 1636.6921 5263.1069 18
280.41803 1605.6155 5163.1738 18
310.61716 1603.5559 5156.5508 18
361.87177 1700.828 5469.3486 18
401.21173 1730.7108 5565.4424 18
406.57629 1620.6267 5211.4458 18
432.83514 1603.4918 5156.3452 18
496.03363 1716.4401 5519.5522 18
519.82129 1687.4757 5426.4116 18
557.8493 1705.421 5484.1182 18
589.38196 1702.6262 5475.1313 18
581.30176 1591.6594 5118.2954 18
609.08691 1585.0315 5096.9819 18
629.18463 1559.9701 5016.3921 18
714.02399 1690.4451 5435.9604 18
693.55951 1571.1117 5052.2202 18
779.84204 1693.4608 5445.6582 18
761.00354 1586.8823 5102.9341 18
829.67792 1663.9623 5350.7998 18
806.95441 1558.8119 5012.668 16
845.10449 1574.5443 5063.2583 16
914.1861 1644.8511 5289.3438 16
902.33478 1569.7053 5047.6978 15
929.08966 1564.3866 5030.5942 15
954.80249 1557.6982 5009.0869 16
980.90497 1552.03 4990.8594 16
1004.1505 1542.3054 4959.5879 16
1118.8126 1669.5505 5368.77 16
1126.0967 1633.9543 5254.3037 16
1081.8751 1527.5505 4912.1406 16
1119.7455 1539.595 4950.8721 17
1133.7439 1519.0397 4884.7725 18
1124.0638 1468.5725 4722.4854 18
1188.1586 1514.6014 4870.5005 18
1201.1626 1494.864 4807.0308 18
1226.4926 1491.0254 4794.687 16
1280.3085 1521.2065 4891.7402 16
1306.6594 1518.1409 4881.8818 15
1311.338 1490.5736 4793.2339 14
1355.6696 1508.2924 4850.2124 65549
1214.1897 1322.8373 4253.8447 262152
0 0 0 0
0 0 0 0
1101.9926 1130.2041 3634.3948 9006429
1124.4872 1131.1663 3637.4885 10256746
1139.4222 1124.6306 3616.4722 10321512
1155.7603 1119.6956 3600.6025 9795169
1178.408 1120.9415 3604.6091 9663325
1198.1714 1119.4484 3599.8074 9860448
1220.3353 1120.2108 3602.2593 9597533
1240.7758 1119.3923 3599.6272 9729119
1262.6031 1119.8315 3601.0398 9729119
1284.4175 1120.2448 3602.3684 9794912
1305.4548 1119.9779 3601.5105 9926498
1327.6211 1120.6726 3603.7444 9794911
1352.9774 1123.9954 3614.4294 10649966
1373.1182 1122.9492 3611.0654 9860193
1389.5641 1118.96 3598.2371 9992035
1410.1359 1118.3635 3596.3191 9992035
1431.1077 1118.0973 3595.4629 9991779
1455.8605 1120.7496 3603.9919 9860450
1472.8473 1117.4332 3593.3274 10057829
1494.8193 1117.9397 3594.9561 10123622
1511.933 1114.8495 3585.019 10123365
1533.8813 1115.3606 3586.6624 10057829
1549.2728 1111.155 3573.1384 9860450
1567.0142 1108.7253 3565.3254 9794657
1586.0486 1107.2631 3560.6233 9794657
1600.5007 1102.6824 3545.8931 9531487
1621.1769 1102.4528 3545.1548 9926244
1647.6461 1106.1182 3556.9417 9926244
1661.3035 1101.1986 3541.1218 10057828
1683.7555 1102.1586 3544.209 9992037
1701.3579 1099.9595 3537.1375 10189417
1721.3922 1099.3672 3535.2324 9926245
1746.1246 1101.7534 3542.906 9992038
1766.854 1101.5872 3542.3716 9992037
1798.142 1107.9307 3562.77 9991781
1789.5873 1089.8624 3504.6682 10452588
1823.8828 1098.0055 3530.8535 9728866
1854.947 1104.0403 3550.2598 9663073
1891.1433 1112.9602 3578.9436 9663072
1896.5056 1103.7374 3549.2859 8281163
1907.6957 1098.0712 3531.0652 9794660
1924.3954 1095.665 3523.3276 10057832
1948.5233 1097.4945 3529.2104 9268316
1949.3384 1086.2936 3493.1919 9531489
1970.0398 1086.2936 3493.1919 9860196
1989.736 1085.745 3491.428 9662817
2004.1205 1082.3394 3480.4761 10123624
2023.8877 1081.8802 3478.9998 9794660
2051.3088 1085.4806 3490.5774 9794660
2070.0088 1084.4402 3487.2317 9663075
2088.2346 1083.1743 3483.1611 9531489
2111.2871 1084.4125 3487.1428 10057831
2120.6362 1078.6565 3468.6331 9991781
2142.4912 1079.3108 3470.7375 9663073
2175.8445 1085.6902 3491.2515 9662816
2201.9788 1088.3812 3499.905 9794659
2214.2808 1084.2489 3486.6169 10189160
2237.0015 1085.2474 3489.8276 10123622
2260.0122 1086.3671 3493.428 9926242
2278.0427 1085.0942 3489.335 9794657
2300.9858 1086.1632 3492.7725 9860450
2343.0156 1096.1425 3524.863 9268313
2327.48 1079.2523 3470.5493 9531228
2347.6333 1079.0621 3469.9375 9465692
2374.1279 1081.7645 3478.6277 9531739
2392.1685 1080.6016 3474.8879 9531739
2425.9397 1086.5037 3493.8674 9202518
2440.0559 1083.5776 3484.458 9400154
2453.5911 1080.4448 3474.3838 9268567
2472.2122 1079.5851 3471.6191 9202774
2496.8252 1081.3344 3477.2444 9399899
2511.3975 1078.7423 3468.9092 9597278
2534.5767 1079.8594 3472.5012 9531485
2552.2725 1078.6409 3468.583 9728607
2585.4395 1083.9281 3485.5852 9202520
2606.1848 1083.9651 3485.7043 9005141
2609.4705 1076.7969 3462.6533 9268313
2646.1892 1083.429 3483.98 9399385
2665.4468 1082.8645 3482.165 9268058
2680.7256 1080.7048 3475.22 9465694
2686.3691 1074.7233 3455.9854 9926246
2710.2034 1076.0548 3460.2668 10123368
2707.6499 1066.9679 3431.0459 9399903
2724.4937 1065.6031 3426.6577 9202781
2726.165 1058.3683 3403.3923 9531746
2764.4548 1065.3514 3425.8484 9531489
2794.9846 1069.2642 3438.4302 9663332
2814.9619 1069.1124 3437.9421 9860454
2829.1089 1066.7644 3430.3918 9663332
2844.5376 1064.9297 3424.4919 9400160
2852.4866 1060.3407 3409.7351 9334365
2895.561 1068.7814 3436.8777 9202521
2907.1284 1065.5558 3426.5054 8939606
2917.3804 1061.8961 3414.7368 9071192
2940.5171 1062.9446 3418.1084 8873813
2972.936 1067.311 3432.1494 9268571
3001.9634 1070.4087 3442.1108 9466208
3021.55 1070.1211 3441.186 9663584
3020.2954 1062.5057 3416.6973 9663584
3027.0386 1057.7865 3401.5215 11703166
3041.1172 1055.676 3394.7351 12163716
3097.9971 1068.3535 3435.502 11242870
3133.0422 1073.3848 3451.6812 10255719
3137.541 1067.9535 3434.2156 10321000
3151.342 1065.738 3427.0916 10057827
3164.9446 1063.4844 3419.8442 9728864
3126.7463 1043.964 3357.0728 8939350
3121.0718 1035.4808 3329.7935 9400414
3173.2339 1046.1722 3364.1738 9728869
3182.4851 1042.6714 3352.916 8479059
3220.5469 1048.5945 3371.9629 8347473
0 0 0 0
0 0 0 0
0 0 0 0
-8901.3213 3074.1855 9700.7842 12
-8987.377 3124.083 9858.2383 12
-9067.416 3172.5278 10011.109 12
-9209.9609 3243.6248 10235.46 12
-9338.7412 3310.7842 10447.387 12
-9384.8721 3349.3442 10569.064 12
-9535.2188 3425.865 10810.531 12
-9614.3584 3477.6648 10973.988 12
-9690.5146 3529.0833 11136.242 12
-9790.6953 3590.0164 11328.521 12
-9900.1846 3655.2275 11534.299 12
-5760.1787 2141.49 6757.605 12
0 0 0 0
-7058.8599 2661.3118 8397.9355 12
-7136.3467 2709.6299 8550.4062 11
-5306.2598 2029.1643 6403.1548 12
0 0 0 0
-5017.3242 1946.5127 6142.3423 12
0 0 0 0
0 0 0 0
0 0 0 0
0 0 0 0
0 0 0 0
0 0 0 0
0 0 0 0
0 0 0 0
0 0 0 0
0 0 0 0
0 0 0 0
-4558.4541 1937.1382 6112.7603 11
-4456.4072 1908.9429 6023.7886 12
-4533.877 1957.8108 6177.9946 12
-4499.7598 1958.897 6181.4219 12
-4492.0171 1971.5769 6221.4341 12
-4335.8887 1918.8003 6054.894 12
-4516.0386 2015.2008 6359.0923 12
-4232.6743 1904.6483 6010.2368 12
-4603.4692 2089.0811 6592.2256 12
-4412.894 2019.7372 6373.4067 12
-4303.6479 1986.741 6269.2852 12
0 0 0 0
0 0 0 0
-4122.8477 1953.8792 6165.5879 12
-4104.8857 1962.7616 6193.6172 12
-4415.1289 2130.1526 6721.8291 12
-4039.7195 1966.775 6206.2812 12
-4112.9941 2020.8484 6376.9131 12
-4076.2998 2021.3922 6378.6294 12
-4308.9302 2156.7512 6805.7632 13
-3806.948 1923.4983 6069.7188 13
-4155.7275 2119.7512 6689.0078 13
-3941.8137 2030.002 6405.7979 13
-3909.7925 2033.0912 6415.5464 14
-3961.3142 2080.1101 6563.9175 14
-3921.9985 2079.8892 6563.2202 14
-3761.353 2014.6765 6357.4375 16
-3857.5903 2087.1296 6586.0674 16
-4134.3452 2259.7297 7130.7183 16
-4011.5378 2215.2488 6990.3564 15
-3976.8149 2218.9895 7002.1597 18
-3983.8042 2246.3286 7088.4307 17
-3922.5427 2235.3564 7053.8066 17
-3999.9224 2304.0066 7270.437 16
-3748.4424 2182.6621 6887.5269 15
-4000.1946 2354.8962 7431.022 16
-3990.2349 2375.1812 7495.0327 16
-3850.8904 2318.0398 7314.7192 18
-3876.689 2360.1367 7447.5591 18
-3838.5601 2363.8357 7459.2314 17
-3730.0122 2323.7512 7332.7417 17
-3749.9963 2363.7388 7458.9258 17
-3549.4814 2264.0354 7144.3052 17
-3709.8318 2394.8816 7557.1978 18
-3660.8904 2392.166 7548.6289 18
-3577.7937 2366.7888 7468.5498 18
-3586.0762 2401.9819 7579.6045 18
-3581.8398 2429.5771 7666.6821 17
-3468.6697 2383.0413 7519.8354 18
-3507.311 2440.949 7702.5669 18
-3386.9265 2388.2485 7536.2676 18
-3225.0696 2304.5059 7272.0117 18
-3264.1716 2364.0361 7459.8633 18
-3167.3088 2325.3784 7337.877 18
-3169.7263 2359.5491 7445.7041 18
-3206.3162 2420.4814 7637.98 18
-2719.1106 2082.0779 6570.127 18
-2956.7007 2296.8955 7247.9971 18
-2911.6462 2295.2393 7242.771 18
-2642.5103 2114.2476 6671.6401 18
-2404.313 1952.8877 6162.459 18
-2355.8403 1943.0294 6131.3506 18
-2480.3564 2077.7737 6556.5449 18
-2469.8792 2101.9241 6632.7529 18
-2597.2297 2246.0471 7087.5425 18
-2379.3647 2091.4639 6599.7451 18
-2283.1367 2040.4194 6438.6709 18
-2243.4568 2039.0349 6434.3022 18
-2190.0598 2024.9204 6389.7627 18
-2190.9929 2061.4258 6504.958 18
-2129.3665 2039.3252 6435.2178 18
-2104.9805 2052.7344 6477.5312 18
-2068.9561 2055.0811 6484.937 18
-1961.0657 1984.7817 6263.103 18
-2139.9404 2207.6025 6966.2275 18
-1882.2504 1979.9615 6247.8926 18
-2215.4685 2377.2415 7501.5337 18
-2156.4805 2361.3286 7451.3198 19
-2150.1318 2403.5952 7584.6948 18
0 0 0 0
-2028.427 2366.4863 7467.5952 18
-1969.8267 2349.3762 7413.6035 18
-1799.679 2195.4102 6927.7539 18
-1852.8929 2313.093 7299.1099 18
-1522.8927 1946.5742 6142.5366 18
-1653.3027 2165.0164 6831.8438 18
-1498.2987 2011.2905 6346.7529 18
-1540.368 2121.0078 6692.9727 18
-1517.209 2144.335 6766.583 18
-1455.2152 2112.5518 6666.2891 18
-1437.5798 2145.1875 6769.2734 18
-1372.2871 2106.5398 6647.3184 18
-1314.7102 2077.8025 6556.6353 18
-1323.7585 2155.8174 6802.8164 18
-1275.1871 2141.9487 6759.0532 18
-1222.1096 2119.3665 6687.793 18
-1093.572 1960.0221 6184.9722 18
-1002.4539 1859.0192 5866.251 18
-976.19537 1875.3602 5917.8164 18
-1051.6079 2095.5168 6612.5347 18
-911.32086 1886.2598 5952.2104 18
-951.125 2047.9144 6462.3218 18
-836.1297 1875.8431 5919.3403 18
-785.2074 1838.7432 5802.269 18
-754.31146 1847.2889 5829.2358 18
-716.44958 1838.777 5802.3755 18
-677.01465 1825.1659 5759.4248 18
-638.39301 1812.4185 5719.1992 18
-595.45306 1785.2942 5633.6069 18
-554.24536 1760.45 5555.21 18
-535.67224 1808.9023 5708.104 18
-498.47983 1796.7732 5669.8301 18
-460.48944 1779.8069 5616.2915 18
-429.69583 1790.1792 5649.0225 18
-394.41431 1782.0275 5623.2993 18
-397.3176 1960.8187 6187.4858 18
-321.35898 1747.201 5513.4019 18
-288.86084 1748.2627 5516.7524 18
-254.1133 1734.2443 5472.5161 18
-239.32213 1872.2452 5907.9868 18
-210.30846 1927.2122 6081.4385 18
-170.13269 1881.4741 5937.1094 18
-127.12314 1772.3768 5592.8457 19
-91.067253 1717.4679 5419.5771 19
-58.890957 1715.7571 5414.1787 19
-26.449884 1693.0024 5342.375 19
5.1906967 1686.6749 5322.4082 19
41.639706 1912.007 6033.4575 19
76.988991 1901.9702 6001.7856 19
112.54256 1901.7289 6001.0239 19
129.46584 1662.3842 5245.7568 19
172.90442 1790.2687 5649.3047 19
187.25154 1624.3097 5125.6108 18
239.44536 1787.1561 5639.4824 18
266.68701 1746.6855 5511.7754 18
306.2338 1786.8461 5638.5044 18
317.60272 1670.8649 5272.5186 18
347.884 1666.2439 5257.9365 18
375.29608 1649.7698 5205.9517 18
404.18866 1641.8124 5180.8413 18
433.35388 1636.0078 5162.5249 18
495.67657 1747.891 5515.5791 18
496.173 1641.4023 5179.5474 18
525.00146 1635.5869 5161.1968 17
595.65686 1753.5458 5533.4229 16
640.77985 1787.9519 5641.9937 16
643.66217 1706.9274 5386.3159 17
683.58405 1727.1437 5450.1099 18
713.19092 1720.6499 5429.6182 18
745.42535 1720.7823 5430.0361 18
796.83038 1763.327 5564.2881 18
803.68768 1707.8267 5389.1538 18
841.08624 1718.9883 5424.375 18
871.10815 1714.807 5411.1807 15
898.97803 1706.8367 5386.0298 15
871.03436 1597.0765 5039.6748 15
890.73474 1579.0551 4982.8066 15
914.5907 1569.3206 4952.0889 15
1015.3885 1688.1093 5326.9341 16
974.16882 1570.7456 4956.5859 16
1018.3702 1593.9537 5029.8208 17
1114.8806 1695.3877 5349.9019 17
1153.5286 1705.6543 5382.2988 16
1089.2932 1567.3345 4945.8218 16
1106.2257 1549.9917 4891.0957 17
1135.281 1550.0867 4891.3955 18
1139.2358 1516.7587 4786.2266 18
1182.0201 1535.491 4845.3379 18
1225.5908 1554.332 4904.792 18
1225.0289 1517.6266 4788.9653 16
1264.7368 1531.3418 4832.2446 16
1300.4968 1539.7756 4858.8579 16
1309.9645 1517.3883 4788.2134 16
1346.9531 1527.1532 4819.0273 65549
1306.8086 1450.8759 4578.3296 131083
1094.3796 1190.3146 3756.1118 393220
0 0 0 0
0 0 0 0
1110.974 1138.8704 3593.7764 8875100
1121.6539 1128.1908 3560.0764 9993320
1141.2002 1126.6591 3555.2432 9992804
1152.5813 1117.2678 3525.6084 10387049
1178.9965 1122.525 3542.198 10058341
1199.1272 1121.7196 3539.656 9597789
1225.3651 1126.5565 3554.9192 9531739
1245.234 1125.4734 3551.5015 9597533
1267.1293 1126.2274 3553.8809 9860194
1284.1312 1122.6787 3542.6826 10057829
1311.1748 1127.882 3559.1021 9992292
1333.9291 1129.2893 3563.5427 10122851
1349.7657 1124.8875 3549.6526 9662557
1372.351 1126.1588 3553.6643 9728092
1392.6122 1125.5133 3551.6277 9464920
1415.5067 1126.9838 3556.2678 9399127
1435.1312 1125.8457 3552.6765 9859935
1450.3506 1121.3347 3538.4419 9859935
1472.6097 1122.3175 3541.5432 9728607
1491.7574 1120.9348 3537.1797 9925986
1509.1329 1118.2772 3528.7935 9794400
1522.913 1113.0641 3512.3435 9992036
1546.8525 1115.3173 3519.4531 9925986
1564.0519 1112.7151 3511.2417 9663071
1579.2762 1108.7946 3498.8704 9926243
1595.0599 1105.3632 3488.0427 9860193
1618.8578 1107.5024 3494.7932 9794657
1640.7843 1108.3237 3497.3848 10123622
1658.665 1106.4255 3491.3948 9794659
1678.8312 1106.08 3490.3042 9925988
1692.0326 1101.2098 3474.9365 9860195
1719.0873 1105.3645 3488.0469 10057574
1742.4071 1107.0476 3493.3577 10189416
1762.7631 1106.8301 3492.6714 9860452
1768.9828 1097.8446 3464.3171 10057574
1796.8816 1102.365 3478.5818 9860452
1813.9591 1100.2195 3471.8115 9728866
1838.4519 1102.5693 3479.2263 9005143
1867.7909 1107.7411 3495.5464 9728866
1879.9626 1102.7297 3479.7327 9794659
1890.7168 1097.0045 3461.6665 9531487
1915.9166 1099.6937 3470.1523 10057830
1930.5579 1096.33 3459.5374 9136729
1948.29 1094.7736 3454.6262 9728609
1973.1338 1097.204 3462.2959 9860195
1972.3065 1085.4567 3425.2261 9794661
2000.3131 1089.6554 3438.4756 9992040
2034.5226 1097.1145 3462.0132 9136731
2046.8328 1092.7334 3448.1882 9334110
2065.4434 1091.7692 3445.1458 9728610
2079.145 1088.2544 3434.0547 9992039
2103.4971 1090.3284 3440.5994 9991781
2120.5286 1088.6044 3435.1589 9531487
2153.6721 1095.1058 3455.6748 10057574
2178.3396 1097.2156 3462.3323 9728863
2195.3384 1095.4592 3456.79 9794656
2215.7471 1095.421 3456.6697 9926243
2232.1279 1093.4108 3450.3259 9794914
2245.2825 1089.8708 3439.1553 9794143
2266.2656 1090.1604 3440.0691 9794656
2310.7937 1101.6698 3476.3877 9531484
2301.3396 1087.4673 3431.5708 9531228
2324.8491 1088.9535 3436.261 9465692
2343.5837 1088.1971 3433.8738 9399899
2363.1597 1087.8407 3432.7493 9268056
2381.553 1086.9508 3429.9412 9465946
2406.739 1089.15 3436.8809 9794911
2429.564 1090.2526 3440.3601 9860705
2447.5957 1089.2039 3437.051 9926497
2463.5715 1087.2651 3430.9331 9663071
2489.4441 1089.6903 3438.5859 9531485
2509.7065 1089.6401 3438.4275 9663071
2515.8987 1083.5312 3419.1504 9663073
2547.3164 1088.297 3434.1892 9465437
2566.7498 1087.9077 3432.9609 9268315
2587.2607 1087.9778 3433.1819 9005143
2609.2556 1088.6659 3435.353 9201495
2630.0996 1088.8668 3435.9871 9070936
2645.6816 1086.9028 3429.79 8807764
2663.6455 1085.9401 3426.7517 9070936
2674.0874 1081.9482 3414.1555 9070681
2666.2625 1070.6812 3378.6013 9860454
2705.0212 1078.1492 3402.1667 9597282
2721.3213 1076.6212 3397.3452 9400160
2748.8213 1079.5142 3406.4744 9794918
2761.1829 1076.4633 3396.8469 9531746
2781.1348 1076.3942 3396.6289 9597539
2811.1384 1080.1884 3408.6018 9202524
2822.0247 1076.635 3397.3892 9531490
2839.2036 1075.5157 3393.8572 9597539
2865.3149 1077.7722 3400.9773 9663331
2845.9729 1063.0194 3354.4241 9532001
2890.2341 1072.0634 3382.9629 9268573
2906.1638 1070.5463 3378.1755 8939863
2923.5466 1069.5815 3375.1311 8610898
2944.7656 1070.0238 3376.5269 8873559
2974.0469 1073.3699 3387.0857 9203036
2959.2544 1060.8711 3347.6448 8347727
2997.6052 1067.4633 3368.4468 9268826
3023.114 1069.4254 3374.6384 10387050
3038.2131 1067.7035 3369.2051 11505787
3061.5913 1068.8945 3372.9634 12361097
3118.2585 1081.6169 3413.1099 12097668
3095.9561 1066.9601 3366.8591 10321770
3122.3367 1069.1611 3373.8047 10452589
3098.4392 1054.2274 3326.6804 10781811
3095.1372 1046.4457 3302.1245 10913138
3125.4993 1050.0718 3313.5669 10649970
3140.6914 1048.5878 3308.8843 10256495
3180.4631 1055.2776 3329.9946 9203550
0 0 0 0
0 0 0 0
0 0 0 0
-8850.3271 3113.7336 9645.21 12
-8950.4453 3169.427 9817.7285 12
-9039.0557 3221.7473 9979.7969 12
-9170.6895 3290.1929 10191.816 12
-9308.4844 3361.7708 10413.539 12
-9355.5566 3401.3206 10536.05 12
-6750.4185 2470.6819 7653.2705 12
-6788.2134 2501.321 7748.1797 13
-6828.3599 2533.2498 7847.0835 14
-5488.2402 2050.0408 6350.2783 14
-9893.9365 3721.2322 11527.02 15
-5150.7827 1950.7419 6042.6865 14
-5534.666 2110.8042 6538.501 12
-5086.5801 1953.5908 6051.5112 11
-5051.9243 1954.0579 6052.958 11
-5025.1079 1957.585 6063.8838 12
-4998.8633 1961.3875 6075.6626 12
0 0 0 0
0 0 0 0
0 0 0 0
0 0 0 0
0 0 0 0
0 0 0 0
0 0 0 0
0 0 0 0
0 0 0 0
0 0 0 0
0 0 0 0
0 0 0 0
0 0 0 0
0 0 0 0
0 0 0 0
0 0 0 0
0 0 0 0
0 0 0 0
0 0 0 0
0 0 0 0
0 0 0 0
0 0 0 0
-4486.4922 2109.8811 6535.6416 12
-4822.3838 2287.5908 7086.1211 11
-3727.8323 1783.9036 5525.8818 12
-4247.312 2050.5066 6351.7212 12
-3732.0786 1817.8743 5631.1108 12
0 0 0 0
-3952.8838 1960.4874 6072.8745 12
-3882.0479 1943.0459 6018.8467 12
-4279.3125 2161.7478 6696.3057 12
-4337.4946 2211.6487 6850.8804 12
-4327.1875 2227.2405 6899.1782 14
-3941.2302 2047.9352 6343.7559 14
-3872.3706 2031.5327 6292.9468 14
0 0 0 0
0 0 0 0
0 0 0 0
0 0 0 0
-3684.5842 2030.8053 6290.6934 16
-3648.582 2031.5168 6292.8975 16
0 0 0 0
0 0 0 0
-3631.3057 2085.8577 6461.2256 18
-3912.7336 2271.4641 7036.167 18
-3904.2856 2290.9746 7096.603 18
-3944.9548 2340.0454 7248.606 18
-4006.7905 2402.8896 7443.2749 18
-3893.2903 2360.813 7312.937 18
-3861.0591 2367.6238 7334.0342 18
-3828.0356 2374.0981 7354.0898 18
-3763.3369 2360.8511 7313.0552 18
-3723.4475 2363.0403 7319.8364 17
-3714.2393 2384.9819 7387.8032 17
-3674.7542 2387.7734 7396.4512 17
-3636.3733 2391.3591 7407.5576 17
-3477.843 2315.0537 7171.1914 17
-3475.9099 2342.3901 7255.8696 16
-3430.7041 2340.8848 7251.2065 16
-3387.6208 2340.8081 7250.9692 17
-3341.603 2338.6758 7244.3638 18
-3294.8926 2335.9966 7236.0649 18
-3248.5427 2333.5059 7228.3496 18
-3236.3433 2355.8074 7297.4312 18
-3190.0557 2353.5635 7290.4805 18
-3100.9744 2319.252 7184.1963 18
-2804.739 2126.896 6588.3472 18
-3066.5693 2358.2764 7305.0796 18
-3017.2737 2353.593 7290.5718 18
-2971.5122 2351.5701 7284.3062 18
-2923.9292 2348.0251 7273.3247 18
-2885.6462 2351.9539 7285.4946 18
-2835.0903 2345.8469 7266.5776 18
-2781.4514 2336.9614 7239.0537 18
-2491.8 2126.3945 6586.7944 18
-2643.5022 2291.7517 7099.0103 18
-2608.3293 2297.8279 7117.832 18
-2551.2126 2284.4543 7076.4062 18
-2517.0718 2291.5518 7098.3906 18
-2462.9836 2280.4211 7063.9121 18
-2411.8354 2271.6748 7036.8193 18
-2371.7769 2273.2498 7041.6978 18
-2324.2246 2267.5698 7024.1035 18
-2086.3203 2072.584 6420.1089 18
-1940.6962 1963.73 6082.9189 18
-2211.1545 2279.7451 7061.8184 18
-1884.8627 1980.8221 6135.8638 18
-1838.2224 1969.8085 6101.7476 18
-1795.7646 1962.9248 6080.4243 18
-1760.067 1963.2998 6081.5864 18
-2019.8099 2300.1348 7124.9775 18
-1754.0913 2040.1876 6319.7568 18
-1800.6359 2140.0159 6628.9883 18
-1757.4752 2135.3071 6614.4019 18
0 0 0 0
-1771.2157 2252.479 6977.3579 18
-1676.9009 2183.5122 6763.7236 18
-1632.9462 2178.3474 6747.7256 18
-1584.7626 2167.1409 6713.0112 18
-1576.4897 2211.3398 6849.9238 18
-1512.5704 2177.7566 6745.8955 18
-1414.324 2091.5852 6478.9678 18
-1468.3119 2232.0203 6913.9839 18
-1347.3218 2106.8936 6526.3872 18
-1206.6937 1942.7538 6017.9424 18
-1253.6633 2079.8435 6442.5957 18
-1261.656 2158.8511 6687.332 18
-1166.9159 2061.4934 6385.7544 18
-1125.7345 2055.3987 6366.875 18
-1081.5663 2043.2389 6329.2085 18
-948.0896 1855.427 5747.4355 18
-938.14557 1904.3821 5899.0806 18
-902.64069 1903.2316 5895.5166 18
-912.61426 2001.7413 6200.6641 18
-809.31488 1849.6389 5729.5063 18
-772.79681 1843.5229 5710.561 18
-724.87207 1808.3896 5601.7314 18
-692.927 1811.663 5611.8706 18
-644.49835 1769.9971 5482.8052 18
-618.86957 1789.8473 5544.2935 18
-587.96613 1795.813 5562.7734 18
-554.40692 1793.894 5556.8291 18
-516.21326 1775.7902 5500.75 18
-477.26755 1752.4843 5428.5566 18
-451.06479 1775.9822 5501.3447 18
-478.11151 2029.136 6285.5225 18
-426.45383 1962.8192 6080.0977 18
-348.24173 1750.7616 5423.2202 18
-314.94803 1744.3669 5403.4121 18
-284.83005 1756.1046 5439.771 18
-250.13455 1739.0142 5386.8311 18
-218.77132 1743.4791 5400.6621 18
-201.03914 1876.722 5813.3999 18
-164.56854 1853.9749 5742.9375 18
-131.72873 1870.9341 5795.4707 18
-97.682259 1876.6732 5813.2485 18
-57.542397 1707.8184 5290.1978 18
-25.689171 1675.0603 5188.7256 19
5.0570493 1673.9767 5185.3691 19
35.765823 1673.0024 5182.3511 19
66.466072 1672.7139 5181.457 19
108.85465 1873.8088 5804.376 18
141.20006 1846.9604 5721.2095 18
159.45114 1681.8462 5209.7456 18
189.63533 1675.75 5190.8618 18
220.67209 1677.8378 5197.3291 18
249.99254 1667.9631 5166.7407 18
281.6243 1673.9817 5185.3843 18
336.25351 1802.0649 5582.1396 18
346.16293 1689.0061 5231.9243 18
372.42532 1667.7659 5166.1299 18
398.57748 1649.2963 5108.918 18
428.27689 1647.0767 5102.0425 18
481.20755 1728.6018 5354.5771 18
521.14783 1756.2622 5440.2593 18
555.20203 1762.0193 5458.0928 18
548.7121 1645.5535 5097.3242 18
614.50092 1746.6908 5410.6104 18
644.5791 1741.325 5393.9893 18
680.95544 1752.6769 5429.1528 17
710.72131 1746.7574 5410.8169 16
698.54388 1642.7142 5088.5293 17
712.56445 1606.3407 4975.8569 18
748.9425 1621.2559 5022.0586 18
774.5434 1612.5927 4995.2236 18
802.26147 1608.8134 4983.5166 16
899.43018 1739.6301 5388.7388 16
928.80817 1734.8542 5373.9453 16
954.0191 1722.87 5336.8223 16
981.17358 1715.0519 5312.6045 16
1009.8722 1710.335 5297.9937 16
1043.3508 1713.7542 5308.585 16
1064.3533 1697.0802 5256.9351 16
1122.6971 1739.2012 5387.4106 16
1147.1019 1727.8706 5352.3125 16
1172.1483 1718.0903 5322.0166 16
1142.9493 1631.395 5053.4663 16
1163.3933 1618.176 5012.5186 18
1143.1293 1550.4034 4802.584 18
1180.4026 1562.0649 4838.707 18
1205.9078 1557.9696 4826.021 18
1220.1372 1539.8335 4769.8423 16
1258.469 1552.2478 4808.2969 16
1281.437 1545.5815 4787.6475 16
1288.3527 1520.2621 4709.2173 16
1305.1378 1507.4155 4669.4233 65549
1309.03 1480.5206 4586.1123 65550
1172.4064 1299.0277 4023.9138 262152
0 0 0 0
0 0 0 0
1073.0841 1120.6002 3471.2102 8086356
1108.3193 1135.6255 3517.7534 9928041
1121.7434 1128.16 3494.6282 10190698
1139.1284 1124.8768 3484.458 10189671
1156.0178 1121.2297 3473.1604 10255720
1176.9171 1121.5314 3474.0947 9926755
1197.7734 1121.7826 3474.8728 10057829
1221.8961 1125.0325 3484.9402 9794657
1244.627 1126.9143 3490.769 9991779
1262.287 1124.2185 3482.4185 10189415
1282.8413 1124.1454 3482.1921 10189671
1301.7123 1122.6232 3477.4766 10254952
1315.9966 1117.2542 3460.8457 9926499
1344.1155 1123.6151 3480.5496 10058085
1360.7783 1120.3518 3470.4409 10320743
1378.7498 1118.2469 3463.9207 9991779
1397.5259 1116.8469 3459.5842 9859936
1422.4369 1120.3195 3470.3406 9662812
1439.2896 1117.4363 3461.4099 9859934
1456.5652 1114.9583 3453.7339 9925470
1470.7211 1110.1938 3438.9753 9925986
1492.7375 1111.4122 3442.7493 10123365
1514.1865 1112.1809 3445.1304 10057829
1534.4264 1112.0527 3444.7334 10057829
1551.8778 1109.9337 3438.1694 9992036
1572.2982 1109.9656 3438.2681 9991779
1591.1437 1108.8989 3434.9641 10189158
1611.384 1108.8191 3434.7168 10057829
1628.5365 1106.6429 3427.9761 10123623
1649.0101 1106.7496 3428.3062 10057831
1667.6123 1105.6127 3424.7847 9794402
1685.7882 1104.2239 3420.4827 9597280
1703.2632 1102.4146 3414.8779 9597280
1726.9459 1104.6184 3421.7046 10320746
1748.6599 1105.5264 3424.5173 10123368
1769.5579 1105.9036 3425.6855 9794659
1787.5631 1104.485 3421.2913 10123624
1776.9436 1085.61 3362.8232 10255209
1794.3533 1084.088 3358.1089 9465437
1852.4061 1106.8853 3428.7266 9136474
1853.1422 1095.3105 3392.8723 10386797
1876.9916 1097.4988 3399.6506 9465696
1887.761 1092.0737 3382.8459 10057833
1911.9388 1094.4381 3390.1697 9465696
1913.9689 1084.2072 3358.4783 10057832
1951.9779 1094.3582 3389.9221 9728609
1967.0978 1091.6003 3381.3794 9860452
1997.5699 1097.3318 3399.1333 9334108
2020.2411 1098.7062 3403.3909 9728867
2026.9056 1091.4343 3380.865 9794659
2052.6694 1094.4886 3390.3262 9663073
2074.8264 1095.579 3393.7036 9399901
2091.52 1093.7913 3388.1663 9531487
2132.9724 1104.8627 3422.4612 9202522
2140.77 1098.4565 3402.6177 9728865
2152.4165 1094.1266 3389.2048 9926245
2171.9143 1093.8309 3388.2888 9663073
2193.178 1094.4216 3390.1189 9926245
2206.2512 1090.9517 3379.3701 9597023
2223.2346 1089.4602 3374.7502 9202522
2249.8564 1092.6766 3384.7131 9597280
2265.3784 1090.4928 3377.9487 9662303
2284.9099 1090.2605 3377.229 9531486
2298.9077 1087.4146 3368.4133 9663072
2326.7942 1091.1306 3379.9246 9926245
2335.9216 1086.0616 3364.2224 9926245
2358.9849 1087.5028 3368.6868 9794659
2376.187 1086.2405 3364.7764 9663070
2402.752 1089.2437 3374.0791 9663070
2410.7854 1083.8656 3357.4199 9728607
2435.4111 1085.9742 3363.9519 9663070
2451.7776 1084.3958 3359.062 9662814
2463.1677 1080.6593 3347.488 9136470
2489.6025 1083.5304 3356.3818 9333851
2529.5552 1092.1926 3383.2141 9465694
2543.5674 1089.6063 3375.2026 9399644
2569.0027 1091.9156 3382.356 9333081
2588.3069 1091.6033 3381.3887 9136729
2602.5154 1089.1633 3373.8306 9334108
2624.3218 1089.916 3376.1619 9399901
2661.6917 1097.0721 3398.3291 9268316
2625.7278 1074.1217 3327.2371 9136474
2651.9417 1076.7593 3335.407 9136988
2668.9058 1075.6299 3331.9087 9400160
2687.5881 1075.2046 3330.5911 9202781
2728.3455 1083.5524 3356.4497 9071195
2736.7454 1079.0217 3342.4155 9202781
2749.6523 1076.3206 3334.0481 9399903
2780.2915 1080.5492 3347.1472 9926504
2793.3875 1077.9484 3339.0906 9531746
2803.3679 1074.1903 3327.4495 8676437
2817.4463 1072.0441 3320.801 9202780
2841.2563 1073.6046 3325.6353 9136988
2849.4614 1069.288 3312.2637 8939610
2874.2122 1071.1967 3318.1763 8939353
2885.0635 1067.9344 3308.0713 8742232
2893.8606 1063.9611 3295.7629 8742231
2907.0142 1061.632 3288.5481 8742231
2928.7754 1062.4564 3291.1021 8610901
2962.3569 1067.5294 3306.8167 9136987
3001.4165 1074.4969 3328.3997 9466207
3012.9861 1071.5966 3319.415 10584687
3030.3276 1070.7733 3316.8647 11506047
3057.6157 1073.4525 3325.1641 12032391
3063.2012 1068.527 3309.9067 12426377
3056.5081 1059.4084 3281.6604 10847859
3053.1763 1051.5627 3257.3574 11637119
3073.6106 1051.9496 3258.5559 10847349
3088.8662 1050.5704 3254.2834 10913656
3087.6282 1043.6333 3232.7949 10124655
0 0 0 0
0 0 0 0
0 0 0 0
-8806.8672 3155.3223 9597.8467 12
-8890.4199 3205.9631 9751.8857 12
-8989.2578 3262.8149 9924.8174 12
-9101.1377 3325.1802 10114.52 13
-9272.626 3410.2954 10373.423 13
-9362.2246 3466.2285 10543.56 14
-9535.5586 3554.123 10810.917 14
-9604.3545 3603.9792 10962.569 14
-9687.4902 3659.9321 11132.768 13
-6842.6035 2602.8611 7917.3721 12
-6873.4849 2632.6602 8008.0156 13
-5720.4062 2206.2444 6710.9453 13
0 0 0 0
-10555.34 4128.3843 12557.703 12
-5475.3853 2156.728 6560.3267 12
-5830.1973 2312.9097 7035.3994 12
-5796.0244 2315.9146 7044.5396 12
-6521.3872 2624.6521 7983.6562 12
0 0 0 0
0 0 0 0
0 0 0 0
0 0 0 0
0 0 0 0
0 0 0 0
0 0 0 0
0 0 0 0
0 0 0 0
0 0 0 0
0 0 0 0
0 0 0 0
0 0 0 0
0 0 0 0
0 0 0 0
0 0 0 0
0 0 0 0
0 0 0 0
0 0 0 0
0 0 0 0
0 0 0 0
-4345.5254 2081.1028 6330.29 12
-5108.5835 2467.8413 7506.6699 12
-4182.1362 2038.0431 6199.3115 12
0 0 0 0
0 0 0 0
0 0 0 0
0 0 0 0
0 0 0 0
0 0 0 0
0 0 0 0
0 0 0 0
-4127.2959 2183.9875 6643.2446 14
-4200.6187 2244.1936 6826.3789 15
-4163.418 2245.949 6831.7188 15
-4224.4771 2301.2654 6999.9795 16
-3723.6353 2048.5503 6231.272 16
-3808.425 2116.1836 6436.999 16
-4051.1917 2273.855 6916.603 16
-3761.7598 2132.9836 6488.1011 16
-3726.574 2134.8535 6493.7891 16
-3609.6824 2089.467 6355.7324 16
-3891.9072 2276.5881 6924.917 16
-3871.0396 2288.5129 6961.1895 15
-3900.9753 2331.0527 7090.5864 16
-3840.1899 2319.717 7056.1064 18
-3448.9795 2106.3374 6407.0488 18
-3730.7886 2303.8044 7007.7031 18
-3293.5396 2056.6921 6256.0381 18
-3550.2307 2242.2266 6820.3955 18
-3533.0635 2257.0808 6865.5796 18
-3650.9028 2359.5347 7177.2227 15
-3621.0208 2367.8071 7202.3867 16
-3502.8601 2317.8635 7050.4678 16
-3556.772 2381.9495 7245.4038 16
-3516.042 2383.4458 7249.9561 17
-3438.4714 2359.6973 7177.7178 16
-3190.4709 2216.9287 6743.4453 15
-3083.3823 2169.6943 6599.7676 17
-2731.6077 1946.855 5921.9355 18
-3279.8101 2367.9895 7202.9414 18
-3236.73 2367.7012 7202.0645 18
-3007.6143 2229.5002 6781.6846 18
-3048.2913 2290.2573 6966.4956 18
-2572.1079 1959.0211 5958.9424 18
-3066.0217 2367.7134 7202.1016 18
-2911.6345 2280.2314 6935.999 18
-2964.2144 2354.6501 7162.3657 18
-2749.9392 2216.1731 6741.1465 18
-2556.9319 2091.0056 6360.4126 18
-2375.8904 1972.0243 5998.4956 18
-2707.5264 2281.4221 6939.6206 18
-2730.127 2335.9475 7105.4756 18
-2278.2527 1979.8519 6022.3057 18
-2525.6633 2229.7876 6782.5591 18
-2555.8555 2292.9338 6974.6372 18
-2509.8677 2288.6895 6961.7266 18
-2468.8472 2288.9084 6962.3921 18
-2422.8657 2284.457 6948.8525 16
-2285.2756 2191.9834 6667.5659 17
-2307.3303 2252.0769 6850.3589 17
-2199.0266 2184.8079 6645.7397 18
-1966.7206 1989.6377 6052.0723 18
-1983.7456 2044.1389 6217.8535 18
-1951.0537 2048.5029 6231.1279 18
-2067.4016 2212.5381 6730.0894 18
-1818.3965 1984.3336 6035.938 18
-2012.312 2240.0085 6813.6494 18
-1946.5566 2211.1829 6725.9668 19
-1855.1418 2151.3943 6544.1025 18
0 0 0 0
-1802.3846 2181.4172 6635.4263 18
-1729.7772 2140.2349 6510.1577 18
-1492.2581 1888.4751 5744.356 18
-1513.4279 1959.978 5961.853 18
-1610.4991 2135.5457 6495.8945 18
-1573.6396 2137.7688 6502.6567 18
-1526.8074 2126.2158 6467.5146 18
-1517.7845 2168.0767 6594.8467 18
-1464.3922 2147.0952 6531.0259 18
-1397.9943 2105.3884 6404.1621 18
-1329.9923 2058.8708 6262.665 18
-1185.0944 1887.228 5740.5625 18
-1287.0588 2110.179 6418.7339 18
-1244.3386 2102.2698 6394.6763 18
-1202.3831 2095.1963 6373.1597 18
-1160.7002 2088.1543 6351.7397 18
-1117.1389 2077.1482 6318.2607 18
-1083.2943 2084.0713 6339.3203 18
-942.56085 1878.4692 5713.9199 18
-959.38458 1983.2467 6032.6318 18
-921.82294 1979.3582 6020.8037 18
-908.71301 2029.7739 6174.1582 18
-867.42407 2018.8362 6140.8877 18
-828.29108 2012.178 6120.6348 18
-719.39532 1827.6727 5559.4077 18
-686.39789 1827.5366 5558.9932 18
-649.1864 1815.6008 5522.687 18
-614.29376 1809.2273 5503.3003 18
-581.37793 1808.2877 5500.4424 18
0 0 0 0
-512.22888 1794.4309 5458.2925 18
-482.12292 1802.8108 5483.7827 18
-481.70959 1931.4575 5875.0996 18
-413.38101 1786.6216 5434.5386 18
-379.49713 1778.7584 5410.6201 18
-345.22739 1767.4681 5376.2773 18
-309.81378 1747.4303 5315.3267 18
-280.42075 1760.6576 5355.561 18
-248.77936 1761.343 5357.646 18
-217.03159 1761.3656 5357.7148 18
-183.74066 1746.726 5313.1841 18
-163.51579 1875.9312 5706.1997 18
-118.38445 1712.2721 5208.3823 18
-88.248138 1726.548 5251.8066 18
-60.834766 1838.6782 5592.8838 18
-25.705036 1706.8633 5191.9302 19
5.045681 1700.8743 5173.7129 19
36.024696 1716.0457 5219.8608 19
66.353325 1700.5308 5172.668 19
104.84676 1837.9491 5590.6665 18
122.43764 1630.9395 4960.9849 18
155.3172 1668.3163 5074.6777 18
183.32791 1649.7522 5018.2095 18
212.10233 1642.2834 4995.4917 18
264.27127 1795.5996 5461.8477 18
279.06628 1689.2274 5138.2852 18
318.04016 1735.7444 5279.7803 18
331.57056 1647.505 5011.3745 18
366.59244 1671.7814 5085.2183 18
413.96451 1744.4125 5306.147 18
415.67734 1627.9674 4951.9448 18
470.32089 1720.5089 5233.4375 18
508.52576 1745.1853 5308.4976 18
540.17163 1745.7883 5310.332 18
567.33429 1732.6333 5270.3169 18
596.72473 1727.2997 5254.0933 18
627.94995 1727.5426 5254.8325 18
625.68884 1639.9917 4988.5205 17
639.49255 1600.5487 4868.5425 17
713.99103 1709.8625 5201.0532 15
741.3739 1701.9662 5177.0342 16
766.76178 1690.2996 5141.5464 18
777.75854 1649.0123 5015.959 18
772.45312 1577.4733 4798.3521 16
808.32642 1592.1219 4842.9102 16
904.61609 1720.6853 5233.9736 16
951.89642 1750.5934 5324.9478 16
959.50964 1707.9727 5195.3042 16
999.04785 1723.0634 5241.207 16
1021.7735 1709.1216 5198.7993 16
1049.0605 1703.4023 5181.4028 16
1006.8652 1588.3958 4831.5757 16
1014.0115 1555.4363 4731.3203 16
1134.5715 1693.54 5151.4033 16
1097.924 1595.8961 4854.3901 16
1122.3363 1589.7263 4835.623 18
1138.1489 1571.9858 4781.6602 18
1151.0212 1551.1451 4718.2671 18
1152.854 1516.7687 4613.7007 18
1163.0599 1494.7458 4546.7119 16
1207.149 1516.2806 4612.2163 16
1245.7979 1530.1794 4654.4937 16
0 0 0 0
1279.3284 1504.7307 4577.084 15
1301.7029 1499.2596 4560.4419 65551
1340.519 1512.5629 4600.9077 131084
1060.057 1172.2622 3565.7825 393221
0 0 0 0
0 0 0 0
1089.3153 1136.6427 3457.4353 8941408
1106.1387 1132.8879 3446.0142 9927784
1121.0886 1127.3853 3429.2761 9993318
1141.156 1127.1333 3428.5095 10058598
1161.1505 1126.8192 3427.5542 10058341
1179.5249 1124.9708 3421.9319 9926499
1203.2415 1128.194 3431.7358 9795170
1223.1217 1127.7726 3430.4541 10321514
1240.6874 1125.2657 3422.8289 10255721
1257.8973 1122.5221 3414.4834 9992292
1278.8258 1123.1313 3416.3362 10123622
1289.955 1115.2493 3392.3606 9926243
1318.9943 1122.856 3415.4985 9926243
1339.6066 1123.1672 3416.4456 10057572
1352.9513 1117.4668 3399.106 10320744
1381.8923 1124.6261 3420.8833 9728863
1397.2303 1120.6681 3408.8435 9597277
1413.094 1117.2383 3398.4111 9728607
1434.1763 1117.9731 3400.6462 9400154
1448.2756 1113.3196 3386.4912 9992035
1464.2811 1110.2386 3377.1194 9926243
1483.4119 1109.5782 3375.1106 9926243
1502.9717 1109.2521 3374.1187 9992036
1522.569 1108.962 3373.2361 10057828
1541.2742 1108.0378 3370.4253 9860450
1558.321 1105.9607 3364.1067 9597021
1578.261 1105.963 3364.114 9925986
1598.1071 1105.9006 3363.9241 9992036
1616.8716 1105.1002 3361.4895 10189417
1637.8739 1105.8303 3363.7104 10189417
1658.324 1106.1747 3364.7576 9992038
1674.6395 1103.7854 3357.4902 9728866
1698.7064 1106.5015 3365.752 9926244
1719.646 1107.1411 3367.6973 9728609
1733.4435 1103.2206 3355.772 9663071
1753.9973 1103.6401 3357.0481 9926245
1752.8252 1090.5333 3317.1799 9663073
1781.6088 1096.1478 3334.2578 9728866
1792.1487 1090.5376 3317.1929 9465694
1814.1172 1091.928 3321.4224 9860452
1822.8684 1085.4183 3301.6213 8939094
1874.5785 1104.3552 3359.2231 9992039
1882.5057 1097.3716 3337.9802 9860196
1899.3134 1095.656 3332.762 9202266
1922.8823 1097.8359 3339.3928 9268315
1942.4443 1097.7072 3339.0012 9597280
1954.3636 1093.3054 3325.6121 9399902
1978.2551 1095.6222 3332.6592 9465695
1997.9828 1095.61 3332.6221 9794659
2013.5817 1093.3561 3325.7661 9860452
2039.9091 1096.9148 3336.5911 10057574
2061.9902 1098.1439 3340.3296 9465693
2079.2136 1096.7871 3336.2024 9925988
2096.916 1095.7061 3332.9143 9531230
2120.844 1097.868 3339.4907 9070936
2141.6475 1098.3876 3341.071 9399900
2152.3313 1093.7551 3326.98 9663072
2184.0747 1099.8113 3345.4016 9531230
2192.6284 1094.1864 3328.2917 9334108
2209.4514 1092.7515 3323.9272 9597023
2227.5303 1091.9575 3321.5122 9991267
2245.8191 1091.2797 3319.4502 9531229
2267.7373 1092.3618 3322.7419 9399900
2282.5928 1090.0526 3315.7175 9531487
2305.949 1091.8074 3321.0554 9334108
2323.7603 1090.9294 3318.385 9663073
2330.1189 1084.7349 3299.542 9334107
2364.6592 1091.6534 3320.5872 10123367
2374.5076 1087.1527 3306.8967 9728866
2392.491 1086.4198 3304.6675 9531487
2417.5176 1088.8712 3312.124 9005143
2412.1243 1077.6919 3278.1189 8939092
2458.5681 1089.6661 3314.5422 8939348
2475.1001 1088.2985 3310.3821 8873554
2494.4011 1088.1602 3309.9612 8873555
2518.6177 1090.1516 3316.0188 9135446
2539.771 1090.7968 3317.9812 9005143
2560.4307 1091.2214 3319.2729 9136729
2574.1345 1088.6978 3311.5967 9399900
2598.5603 1090.7129 3317.7261 8807763
2611.2402 1087.8043 3308.8789 8610128
2626.5752 1086.0371 3303.5034 9465696
2635.2878 1081.578 3289.9397 8873816
2687.5681 1094.9342 3330.5664 8807766
2673.8191 1081.391 3289.3706 9268574
2696.0063 1082.4725 3292.6606 9202781
2710.2278 1080.3632 3286.2441 9136731
2734.8284 1082.3917 3292.4148 9663332
2745.9014 1079.0757 3282.3279 9334367
2763.5378 1078.3673 3280.1733 9268317
2773.3103 1074.6216 3268.7798 9136987
2796.2983 1076.0132 3273.0127 9005401
2806.7773 1072.6055 3262.647 8873816
2826.7727 1072.856 3263.4089 9202783
2823.041 1064.1592 3236.9551 9005402
2860.6228 1071.0479 3257.9092 8676439
2884.9663 1072.921 3263.6067 8873817
2906.8472 1073.8593 3266.4609 8939611
2899.25 1063.9673 3236.3716 9005403
2925.0857 1066.394 3243.7532 8742231
2939.8433 1064.7766 3238.8333 8742230
2989.4788 1075.7307 3272.1533 8544595
3020.3508 1079.8352 3284.6384 9268574
3058.7996 1086.5787 3305.1506 10584434
3072.5769 1084.528 3298.9128 11966857
3055.2607 1071.5977 3259.5813 12164235
3024.0435 1053.9847 3206.0063 11045498
3046.9602 1055.3414 3210.1333 10782326
3046.2715 1048.5562 3189.4939 10782584
0 0 0 0
0 0 0 0
0 0 0 0
-8827.1465 3219.5979 9619.9473 12
-9925.7119 3643.8203 10887.496 12
-9850.7256 3639.9536 10875.942 12
-9781.5879 3638.2112 10870.736 12
-9695.1436 3629.9656 10846.1 12
-8344.4502 3145.1025 9397.3604 12
-7886.0645 2992.3035 8940.8066 12
-6796.5605 2596.3445 7757.707 12
-6817.3032 2622.0042 7834.377 12
-6845.3809 2650.8564 7920.5854 12
-6867.1172 2677.6345 8000.5962 12
-6919.8257 2716.9456 8118.0557 12
-9107.2686 3600.8401 10759.074 12
-8207.3242 3267.8977 9764.2646 12
-8989.0176 3604.5574 10770.182 13
-10802.251 4362.6328 13035.262 14
-10950.604 4454.4019 13309.461 14
-8820.749 3614.0674 10798.597 14
0 0 0 0
0 0 0 0
0 0 0 0
0 0 0 0
0 0 0 0
0 0 0 0
0 0 0 0
0 0 0 0
0 0 0 0
0 0 0 0
0 0 0 0
0 0 0 0
0 0 0 0
0 0 0 0
0 0 0 0
0 0 0 0
0 0 0 0
0 0 0 0
0 0 0 0
0 0 0 0
0 0 0 0
0 0 0 0
0 0 0 0
0 0 0 0
0 0 0 0
0 0 0 0
0 0 0 0
0 0 0 0
0 0 0 0
-4112.0093 2153.4971 6434.5078 14
-4104.6562 2169.7673 6483.1226 14
0 0 0 0
0 0 0 0
-3892.781 2117.2202 6326.1152 15
-4139.5391 2273.3215 6792.5356 16
0 0 0 0
0 0 0 0
0 0 0 0
-3904.2515 2230.8828 6665.7319 16
0 0 0 0
-3736.8396 2179.3242 6511.6777 16
0 0 0 0
-4468.0942 2660.7456 7950.1338 16
-3808.481 2292.1157 6848.6919 15
-3544.3232 2156.1113 6442.3198 18
-3555.9031 2186.7107 6533.748 18
-3458.2681 2150.0818 6424.3037 18
-3425.2004 2153.2278 6433.7036 18
-3704.5396 2355.0476 7036.7275 18
-3671.6931 2360.7407 7053.7388 18
-3644.8186 2370.449 7082.7461 18
-3470.4739 2283.3569 6822.521 18
-3336.5146 2221.0964 6636.4907 17
-3165.7954 2132.5876 6372.0322 17
-3268.7754 2228.5408 6658.7339 15
-3225.9426 2226.2141 6651.7817 16
-3215.4285 2246.4084 6712.1216 16
-3150.3936 2228.5417 6658.7368 16
-3121.3669 2236.0166 6681.0708 17
-3090.6926 2242.488 6700.4072 18
-3055.2488 2245.6223 6709.772 18
-3169.0806 2360.0042 7051.5376 18
-3144.3884 2372.9062 7090.0884 18
-3081.9795 2357.3091 7043.4854 18
-2552.813 1979.3745 5914.2412 18
-2519.6765 1980.8781 5918.7339 18
-2487.2881 1983.0203 5925.1348 18
-2455.4136 1985.6398 5932.9614 18
-2424.5256 1989.1448 5943.4341 18
-2675.3779 2227.3076 6655.0493 18
-2358.0928 1992.5342 5953.5615 18
-2332.4636 2000.8146 5978.3027 18
-2300.304 2003.662 5986.8105 18
-2259.1047 1998.6016 5971.6904 18
-2225.6865 2000.3733 5976.9844 18
-2413.0032 2203.7996 6584.8091 18
-2183.188 2026.6846 6055.6006 18
-2149.7063 2028.9545 6062.3833 18
-2111.05 2026.3347 6054.5557 18
-2338.7368 2283.6997 6823.5454 18
-2260.5217 2246.1621 6711.3857 18
-2241.6873 2267.3406 6774.665 18
-2199.8267 2265.5769 6769.3955 18
-2175.1729 2281.7981 6817.8633 18
-2117.2798 2263.1042 6762.0078 18
-2070.0525 2255.3103 6738.7192 18
-1788.1794 1986.5348 5935.6362 18
-1721.3005 1950.6084 5828.2905 18
-1869.6355 2162.0886 6460.1797 19
-1871.7354 2209.7666 6602.6377 18
-1789.2684 2157.5088 6446.4951 18
-1760.8726 2169.593 6482.6016 18
-1711.5419 2155.8464 6441.5278 18
-1500.6171 1933.2865 5776.5332 18
-1465.3009 1931.8585 5772.2666 18
-1619.0251 2185.551 6530.2837 18
-1547.593 2140.2832 6395.0259 18
-1508.6923 2138.8618 6390.7793 18
-1462.0072 2126.0476 6352.4912 18
-1417.8925 2116.3923 6323.6421 18
-1373.8734 2106.3596 6293.665 18
-1332.2334 2099.5164 6273.2178 18
-1291.2799 2093.3931 6254.9219 18
-1253.9264 2092.9167 6253.498 18
-1105.4761 1901.3333 5681.0591 18
-1165.0712 2066.7756 6175.3906 18
-1040.007 1904.7491 5691.2661 18
-1002.4113 1897.4277 5669.3896 18
-1050.687 2057.7778 6148.5054 18
-1010.5421 2050.2556 6126.0298 18
-874.78149 1840.9526 5500.646 18
-838.03894 1831.8929 5473.5762 18
-801.39832 1822.3353 5445.0186 18
-777.79834 1842.8738 5506.3862 18
-743.96515 1839.9033 5497.5103 18
-707.51617 1829.895 5467.6064 18
-659.02454 1786.2848 5337.3018 18
-624.4079 1777.7814 5311.894 18
-597.73401 1792.1898 5354.9458 18
-558.67676 1769.0029 5285.665 18
-527.50482 1769.5132 5287.1895 18
-500.19519 1783.8617 5330.062 18
-470.46054 1790.9135 5351.1323 18
-427.29581 1744.1646 5211.4497 18
-459.31812 2020.9458 6038.4536 18
-364.09915 1737.3492 5191.0859 18
-371.73547 1937.4895 5789.0918 18
-308.52985 1771.5577 5293.2983 18
-283.26733 1810.5906 5409.9263 18
-243.38074 1754.1826 5241.3828 18
-231.25665 1910.6442 5708.8794 18
-196.7193 1903.8182 5688.4844 18
-148.99852 1740.1958 5199.5913 18
-118.51563 1745.0696 5214.1538 18
-93.644974 1865.1621 5572.9824 18
-60.173775 1851.4847 5532.1152 18
-27.238901 1841.3195 5501.7417 18
4.8575311 1666.9672 4980.7886 18
34.845718 1689.8065 5049.0312 18
65.005241 1696.0129 5067.5757 18
95.039055 1696.0537 5067.6973 18
121.91517 1653.2543 4939.8154 18
149.34503 1633.0842 4879.5488 18
174.13828 1595.3038 4766.6631 18
215.68666 1700.1414 5079.9111 18
256.79095 1776.2261 5307.2471 18
293.37393 1807.8455 5401.7236 18
322.19598 1790.1233 5348.771 18
336.63956 1702.8444 5087.9873 18
389.93542 1810.2883 5409.0229 18
409.00058 1754.5632 5242.52 18
414.5462 1652.8038 4938.4697 18
425.53018 1584.7179 4735.0337 18
455.07712 1589.91 4750.5474 18
517.61841 1703.0544 5088.6152 18
580.28033 1804.116 5390.5806 17
565.34277 1665.9598 4977.7788 15
580.84717 1626.7644 4860.6655 15
599.86285 1600.6421 4782.6138 16
690.51453 1759.4027 5256.98 16
643.71655 1569.3585 4689.1401 16
675.23041 1578.0641 4715.1523 16
777.27972 1744.3738 5212.0747 16
725.59552 1566.1478 4679.5469 16
754.73041 1569.0642 4688.2612 16
790.5376 1585.1528 4736.3325 16
878.51556 1701.1615 5082.9595 16
838.89844 1570.5941 4692.8325 16
951.07288 1723.4724 5149.623 16
1015.1856 1782.4585 5325.8691 16
1015.4806 1729.215 5166.7808 16
1041.7969 1722.1018 5145.5273 16
1035.0867 1662.3524 4967 16
1097.006 1713.079 5118.5679 16
1098.8209 1669.7427 4989.0815 16
1131.5834 1674.4719 5003.2124 16
1155.9753 1666.8899 4980.5576 18
1130.9315 1590.1749 4751.3384 18
1134.4951 1556.434 4650.5229 18
1135.762 1521.2178 4545.2988 18
1164.5875 1523.6892 4552.6836 15
1172.7637 1499.6439 4480.8379 16
0 0 0 0
0 0 0 0
1244.6925 1490.3829 4453.1665 13
1249.7905 1465.417 4378.5698 65551
1257.8336 1444.8495 4317.1157 14
1164.7195 1311.2209 3917.8425 196619
0 0 0 0
0 0 0 0
0 0 0 0
1092.5262 1139.1167 3403.6062 8940891
1104.4293 1130.6532 3378.3176 9861733
1115.3987 1121.552 3351.1238 9861732
1135.5383 1121.8287 3351.9509 10124647
1158.8354 1125.1616 3361.9094 10190183
1179.1332 1125.519 3362.9771 10189671
1200.2366 1126.6206 3366.2686 9926756
1219.8689 1126.328 3365.3945 9926756
1235.3667 1122.2888 3353.3257 10124135
1254.0469 1121.2228 3350.1404 9926242
1272.1597 1119.6906 3345.562 9794657
1294.288 1121.6855 3351.5227 9597278
1310.9758 1118.9763 3343.4277 10189415
1336.7257 1123.9675 3358.3413 9794657
