# .PCD v0.7 - Point Cloud Data file format
VERSION 0.7
FIELDS x y z rgb
SIZE 4 4 4 4
TYPE F F F U
COUNT 1 1 1 1
WIDTH 1392
HEIGHT 1
VIEWPOINT 0 0 0 1 0 0 0
POINTS 1392
DATA ascii
514.57867 1342.4087 3082.9851 16
530.75244 1337.1267 3070.8542 16
546.42078 1330.9635 3056.7 16
564.6488 1331.2311 3057.3142 16
589.02148 1345.5179 3090.1257 16
596.06458 1320.5505 3032.7856 16
622.64618 1339.0645 3075.3047 16
628.40216 1313.0112 3015.4707 16
640.44971 1301.1813 2988.302 16
653.2215 1291.4199 2965.8838 16
668.86963 1287.7075 2957.3579 16
716.66693 1344.4979 3087.783 16
700.15564 1280.8184 2941.5364 15
745.24463 1330.183 3054.9075 16
756.29169 1317.8857 3026.6655 16
772.17303 1314.3872 3018.6306 16
781.95624 1300.9019 2987.6602 16
798.58002 1299.1421 2983.6187 16
815.14172 1297.3597 2979.5254 16
833.40643 1298.306 2981.6985 16
845.00598 1289.0454 2960.4304 13
880.89111 1316.4552 3023.3801 65548
836.00238 1224.4655 2812.1157 196617
802.03345 1151.7527 2645.123 393219
0 0 0 0
0 0 0 0
771.52191 1046.5719 2403.5642 8151897
789.57623 1051.6469 2415.2195 9664105
797.94135 1043.8657 2397.3491 9598055
812.93414 1044.8755 2399.6682 9927017
828.62885 1046.7372 2403.9436 9729894
842.32874 1046.0586 2402.3853 10058860
850.38995 1038.5165 2385.064 10057834
861.79224 1035.2345 2377.5266 10189420
881.94629 1042.4021 2393.9878 9465953
891.90765 1037.4866 2382.6987 8347217
903.94177 1035.0975 2377.2122 9926506
916.8728 1033.7931 2374.2163 10387057
927.53888 1030.0129 2365.5349 9927275
943.32025 1031.9413 2369.9636 10124911
955.79309 1030.2469 2366.072 10058862
970.17249 1030.6267 2366.9443 9861483
983.61249 1030.012 2365.5325 9664104
1007.1638 1039.854 2388.136 10123885
1017.0819 1035.5427 2378.2344 9926506
1032.7716 1037.1451 2381.9148 9597541
1045.3688 1035.6406 2378.4595 10321263
1051.9385 1028.2844 2361.5652 9663334
1063.5072 1025.9437 2356.1895 9926508
1076.9131 1025.413 2354.9705 9663336
1095.0599 1029.3523 2364.0176 9465700
1114.103 1034.024 2374.7466 9926508
1115.516 1022.4203 2348.0974 9136992
1127.3689 1020.5533 2343.8096 9531750
1150.4939 1028.8115 2362.7756 9465954
1155.5594 1020.9161 2344.6428 9268576
1171.4664 1022.6726 2348.677 9663334
1185.6543 1022.9047 2349.21 9400161
1204.5469 1027.1433 2358.9443 9597287
1204.4053 1015.2401 2331.6072 9532264
1219.9933 1016.7155 2334.9958 7887439
1239.2902 1021.2141 2345.3271 9861229
1257.009 1024.327 2352.4763 9466471
1274.8931 1027.5046 2359.7742 9071457
1283.6437 1023.332 2350.1914 9795179
1301.4603 1026.399 2357.2351 8874334
1307.4592 1020.1798 2342.9519 9203297
1327.1639 1024.6732 2353.2715 9795434
1335.9227 1020.71 2344.1694 10124399
1345.5439 1017.4803 2336.7524 10255984
1357.2682 1015.8907 2333.1016 9400932
1376.5806 1019.9554 2342.4365 9400931
1373.8435 1007.7649 2314.4397 9663850
1391.4069 1010.5592 2320.8572 9203299
1407.8365 1012.4836 2325.2769 9334885
1424.9662 1014.8692 2330.7556 9203042
1443.7567 1018.3805 2338.8196 9927022
1450.375 1013.3208 2327.1995 8808542
1468.2366 1016.1375 2333.6685 9203043
1489.2129 1021.0374 2344.9214 9137506
1497.8215 1017.4454 2336.6721 9795179
1519.1519 1022.4817 2348.2385 9532264
1537.0679 1025.1494 2354.3652 9927023
1548.7402 1023.6423 2350.9041 9203300
1579.791 1034.8563 2376.658 9532265
1580.8979 1026.4302 2357.3066 8150612
1590.9438 1023.9048 2351.5068 9466472
1612.6697 1028.875 2362.9214 8545370
1620.8438 1025.188 2354.4539 7953232
1641.755 1029.5516 2364.4753 7229510
1649.6934 1025.7748 2355.8015 8348247
1660.0396 1023.546 2350.6829 9203812
1664.9546 1018.0334 2338.0225 9664364
1673.8406 1015.0198 2331.1016 8545883
1698.9614 1021.8198 2346.7185 8809055
1709.0905 1019.566 2341.5422 9072227
1729.4639 1023.4105 2350.3716 9071973
1741.2339 1022.1432 2347.4612 8611679
1767.627 1029.4121 2364.155 8677471
1773.0612 1024.4569 2352.7747 8086362
1793.2333 1028.028 2360.9758 8809830
1800.5665 1024.2404 2352.2773 7493971
1780.3929 1004.984 2308.0532 9072492
1818.0841 1018.4354 2338.9458 8546403
1819.5457 1011.5422 2323.1147 1510673
1788.9291 987.0531 2266.873 6848898
1833.3094 1004.0007 2305.7949 12440263
1824.254 991.65021 2277.4307 12898765
1839.6086 992.65283 2279.7334 13095374
1855.0869 993.70709 2282.1545 13291723
1874.6979 996.94391 2289.5881 13422543
1888.532 997.08398 2289.9099 13357519
1903.1027 997.60828 2291.114 13357519
1917.3342 997.94867 2291.8958 13291726
1932.2697 998.64795 2293.5017 13225933
1947.1813 999.32532 2295.0574 13225934
1963.0197 1000.4656 2297.6763 13095374
1978.3815 1001.349 2299.7051 13160910
1995.8165 1003.2625 2304.0996 13160909
2016.9924 1007.0176 2312.7236 13095119
2022.677 1003.0399 2303.5884 13095119
2038.9166 1004.3148 2306.5164 13160912
2050.2473 1003.1708 2303.8889 13029326
2063.8003 1003.1219 2303.7766 13095119
2079.7417 1004.2271 2306.3149 12963533
2096.3794 1005.6518 2309.5869 13029582
2103.6472 1002.5924 2302.5605 13291218
2117.7771 1002.8218 2303.0874 13291474
2129.9014 1002.1047 2301.4404 13357010
2145.8445 1003.1819 2303.9146 13357522
2159.3477 1003.1119 2303.7539 13357521
2161.9751 998.02252 2292.0654 13291474
2165.3403 993.33508 2281.3003 13160402
2156.905 983.32599 2258.3132 13291988
0 0 0 0
0 0 0 0
0 0 0 0
0 0 0 0
0 0 0 0
0 0 0 0
-4065.3623 1994.0369 4518.0273 16
-4040.1562 1994.8113 4519.7822 16
-4023.6021 1999.8966 4531.3042 16
-4009.2346 2006.1445 4545.4604 16
-4002.8999 2016.5233 4568.9766 16
-3942.9719 1999.8612 4531.2241 16
-3822.9539 1952.2843 4423.4258 16
-3811.3398 1959.7915 4440.4355 16
-3689.6826 1910.4258 4328.584 16
-3677.8464 1917.6293 4344.9058 16
-3869.9924 2032.0408 4604.1357 16
-3855.73 2038.927 4619.7383 16
-3840.6555 2045.4795 4634.585 16
-3828.9285 2053.9221 4653.7139 16
-3774.6641 2039.5035 4621.0444 16
-4062.4417 2211.0349 5009.6953 18
-4050.8342 2220.9482 5032.1562 18
-4044.2634 2233.7905 5061.2539 18
-4046.0488 2251.4746 5101.3218 18
-4037.4839 2263.6221 5128.8452 18
-3547.2979 2003.8838 4540.3384 18
-3528.1995 2008.3286 4550.4097 18
-3800.261 2179.8528 4939.0439 18
-3681.2659 2127.9866 4821.5269 18
-3668.605 2137.2568 4842.5312 18
-3507.614 2059.5779 4666.5288 16
-3818.9709 2260.2188 5121.1343 16
-3502.9121 2089.7695 4734.9355 16
-3480.0554 2092.8992 4742.0264 16
-3448.3623 2090.7219 4737.0938 16
-3531.2053 2158.5215 4890.7119 16
-3428.5862 2113.1377 4787.8828 16
-3679.1062 2286.4624 5180.5967 16
-3415.0886 2140.2429 4849.2964 16
-3635.304 2297.5864 5205.8008 16
-3612.4165 2302.6626 5217.3022 16
-3362.022 2161.5542 4897.5835 16
-3570.9209 2315.855 5247.1929 16
-3547.2698 2320.7256 5258.229 16
-3302.7607 2179.9104 4939.1743 16
-3202.4575 2132.6077 4831.9971 16
-3359.0991 2257.1023 5114.0732 16
-3139.3838 2128.6731 4823.082 16
-3117.4282 2133.2078 4833.3569 16
-3123.8789 2157.4451 4888.2725 16
-3091.7231 2155.2236 4883.2393 16
-3065.958 2157.457 4888.2998 16
-3046.3345 2164.0959 4903.3423 16
-3022.377 2167.7544 4911.6313 16
-2995.1331 2169.1038 4914.689 16
-2967.7534 2170.3809 4917.582 16
-3203.8213 2366.2583 5361.3955 16
-3181.9487 2373.6433 5378.1284 16
-3161.5876 2382.3171 5397.7812 16
-3140.5403 2390.6458 5416.6519 16
-2883.3748 2217.5522 5024.4614 16
-2825.115 2195.417 4974.3086 16
-2797.7219 2197.0549 4978.02 16
-2840.6873 2254.5693 5108.334 16
-2757.9395 2212.4729 5012.9536 16
-2733.4319 2216.6902 5022.5088 16
-2710.5137 2222.3032 5035.2266 16
-2638.2004 2187.0925 4955.4473 16
-2620.3652 2196.76 4977.3516 16
-2687.4644 2278.6624 5162.9233 15
-2541.8997 2180.0601 4939.5132 16
-2697.3191 2340.3066 5302.5947 16
-2513.8518 2206.8328 5000.1738 16
-2489.4229 2211.4551 5010.647 16
-2458.7561 2210.5806 5008.6655 16
-2568.2495 2337.2375 5295.6411 16
-2620.8496 2414.6121 5470.9541 16
-2595.2761 2421.0007 5485.4292 16
-2493.8169 2355.8638 5337.8438 16
-2346.0977 2244.79 5086.1768 16
-2318.655 2247.4062 5092.1045 16
-2278.4294 2237.5383 5069.7456 16
-2254.1492 2243.2744 5082.7427 16
-2295.3477 2315.2114 5245.7354 16
-2376.8674 2430.3525 5506.6182 16
-2396.7815 2484.8306 5630.0527 14
-2370.0012 2491.7534 5645.7383 14
-2347.2729 2503.1953 5671.6636 14
-2323.3252 2513.6511 5695.3535 14
-2300.9846 2526.179 5723.7388 14
-2275.6208 2535.7134 5745.3418 16
-2252.7512 2548.3586 5773.9932 16
-2228.8137 2560.1672 5800.7485 16
-2203.9233 2571.2344 5825.8242 16
-2178.2017 2581.6687 5849.4658 16
-2153.2546 2593.3733 5875.9858 16
-1902.8147 2329.415 5277.9175 16
-1869.5278 2326.9153 5272.2529 16
-1653.1749 2092.6033 4741.3564 16
-1619.6335 2085.594 4725.4751 16
-1585.5254 2077.5959 4707.353 16
-1739.1687 2319.7375 5255.9902 16
-1706.2401 2317.3193 5250.5112 16
-1481.527 2049.5022 4643.6992 16
-1448.5886 2041.8641 4626.3931 16
-1416.5869 2035.277 4611.4683 16
-1379.2034 2020.5463 4578.0918 16
-1338.5892 2000.3969 4532.4375 16
-1300.4485 1983.1937 4493.4595 16
-1267.7037 1973.6725 4471.8867 16
-1235.051 1963.8911 4449.7241 16
-1200.0914 1949.9343 4418.1016 16
-1165.3461 1935.7114 4385.8755 16
-1131.059 1921.6174 4353.9419 16
-1096.4933 1906.3815 4319.4209 16
-1054.1085 1876.4978 4251.7114 16
-1019.868 1860.0039 4214.3398 16
-987.25269 1845.7198 4181.9756 16
-957.00037 1835.2319 4158.2124 16
-931.29504 1833.14 4153.4722 16
-903.67047 1827.054 4139.6826 16
-873.1886 1814.6901 4111.6689 16
-843.19568 1802.6616 4084.4153 16
-813.31696 1790.1735 4056.1201 16
-782.82233 1775.5277 4022.9363 16
-752.82733 1761.131 3990.3164 16
-723.78357 1748.0975 3960.7859 16
-696.5387 1738.6812 3939.4504 16
-668.27655 1725.984 3910.6816 16
-637.77173 1706.3741 3866.2505 16
-608.73016 1689.3641 3827.7092 16
-581.87323 1677.3345 3800.4529 16
-554.9801 1664.2275 3770.7556 16
-527.79706 1649.115 3736.5142 16
-501.98608 1637.1537 3709.4126 16
-477.0965 1627.2395 3686.9492 16
-452.33817 1616.8424 3663.3921 16
-428.61429 1609.2814 3646.2605 16
-404.78018 1600.4814 3626.3218 16
-381.74719 1594.0399 3611.7268 16
-358.67126 1586.6432 3594.9675 16
-335.9512 1579.9861 3579.884 16
-313.42694 1573.4144 3564.9941 16
-291.23309 1567.6711 3551.9814 16
-269.12131 1561.5093 3538.0198 16
-246.95929 1553.99 3520.9829 16
-225.02666 1546.6594 3504.3735 16
-203.22249 1538.8109 3486.5906 16
-181.866 1532.9594 3473.3325 16
-160.71014 1527.5212 3461.0107 16
-139.86661 1523.8947 3452.7939 16
-119.19076 1521.1654 3446.6099 16
-98.606033 1518.7107 3441.0481 16
-78.004623 1514.6521 3431.8523 16
-57.524281 1510.9105 3423.3745 16
-37.164906 1508 3416.78 16
-16.84333 1501.4915 3402.0332 16
3.2997553 1493.3051 3383.4849 16
23.153381 1480.6667 3354.8494 16
42.839264 1473.9346 3339.5957 16
62.458641 1469.892 3330.436 16
82.038292 1467.0803 3324.0654 16
101.58629 1464.9011 3319.1279 16
121.15165 1463.6387 3316.2676 16
142.87907 1485.2029 3365.127 16
162.15895 1479.1591 3351.4331 16
181.35104 1473.7207 3339.1111 16
200.65503 1470.1722 3331.0713 16
219.17636 1462.0388 3312.6428 16
237.46257 1453.8031 3293.9824 16
256.09564 1448.7808 3282.603 16
276.0401 1451.3625 3288.4529 16
294.07751 1444.2384 3272.311 16
312.07721 1437.8218 3257.7725 16
327.44989 1420.7546 3219.1023 16
345.98026 1418.5129 3214.0232 16
359.87784 1398.5022 3168.6833 16
374.41211 1382.8276 3133.1685 16
389.78796 1371.5957 3107.7195 16
406.28729 1365.152 3093.1196 16
422.01639 1356.7886 3074.1699 16
437.96271 1349.7867 3058.3054 16
453.55981 1342.308 3041.3601 16
468.69513 1334.0863 3022.7319 16
483.17365 1324.6694 3001.3953 16
497.20627 1314.7421 2978.9023 16
513.0177 1310.0378 2968.2437 16
529.83435 1308.1274 2963.915 16
546.46448 1305.8939 2958.8542 16
563.38812 1304.4788 2955.6479 16
580.31714 1303.1611 2952.6626 16
597.67767 1302.8612 2951.9829 16
615.51019 1303.578 2953.6072 16
635.1944 1308.0684 2963.7812 16
650.85547 1304.255 2955.1409 16
666.76398 1301.1245 2948.0479 16
682.94623 1298.6742 2942.4961 16
696.96472 1292.334 2928.1306 18
712.29773 1288.6799 2919.8513 18
718.6936 1269.4137 2876.1985 18
735.16949 1268.4318 2873.9739 17
747.87512 1261.1367 2857.4448 17
762.21802 1256.8644 2847.7646 17
775.62604 1251.2689 2835.0867 17
793.13873 1252.3922 2837.6318 18
805.15137 1244.9644 2820.802 16
825.71954 1250.7987 2834.0212 65552
839.18402 1245.854 2822.8179 131085
798.88251 1162.8418 2634.7314 327687
841.74384 1201.7424 2722.8711 1180682
0 0 0 0
0 0 0 0
772.43524 1042.8188 2362.7871 9204069
788.86029 1046.0315 2370.0659 9664361
804.62244 1048.2678 2375.1331 10190449
816.14709 1045.0017 2367.7327 10124655
829.32281 1043.9241 2365.2913 9992812
844.11621 1044.8849 2367.4683 9926762
857.47675 1044.0697 2365.6211 9860456
870.02356 1042.3058 2361.6245 9728870
883.22284 1041.3669 2359.4973 9794920
895.45184 1039.3313 2354.885 9531748
907.75336 1037.4409 2350.6018 9860456
919.69531 1035.203 2345.5312 10255214
938.92035 1041.1075 2358.9094 10518643
948.38263 1036.1722 2347.7273 10518643
962.00989 1035.8644 2347.0298 10650742
975.99359 1035.9437 2347.2095 9927019
988.37146 1034.3402 2343.5764 9860712
1003.7211 1035.8481 2346.9929 10123885
1018.8674 1037.1079 2349.8472 9794919
1030.2639 1034.568 2344.0925 9597540
1040.2072 1030.6559 2335.2285 9597541
1053.0974 1029.7283 2333.1267 10387059
1071.5765 1034.2185 2343.3008 10650231
1090.6781 1039.187 2354.5579 9729129
1100.1831 1035.002 2345.0757 9663336
1109.5981 1030.8378 2335.6406 9860715
1119.7867 1027.486 2328.0461 9400164
1133.0547 1027.0067 2326.9604 9597542
1140.8336 1021.6238 2314.7639 9005149
1159.9081 1026.3639 2325.5037 8939613
1168.0472 1021.4298 2314.3242 9531750
1170.6727 1011.8446 2292.6064 8808027
1184.1401 1011.7429 2292.376 9203299
1200.7583 1014.305 2298.1812 9795179
1232.4988 1029.4404 2332.4746 9203298
1246.9594 1029.9673 2333.6682 9006176
1258.2628 1027.9034 2328.9922 9335139
1271.1311 1027.1489 2327.2825 9993068
1280.9391 1023.9642 2320.0667 8874588
1296.5562 1025.4415 2323.4138 9137760
1313.3522 1027.8103 2328.781 9927275
1321.4246 1023.374 2318.7292 9729897
1325.4537 1015.9298 2301.8625 9005918
1338.4602 1015.4481 2300.7712 9400422
1353.8373 1016.7566 2303.7358 9926765
1367.0197 1016.4072 2302.9441 9400678
1379.3145 1015.4111 2300.6873 9268835
1395.3052 1017.1288 2304.5793 9597800
1406.6224 1015.4394 2300.7515 10321780
1416.1119 1012.4756 2294.0364 9334885
1434.3137 1015.7382 2301.4282 9137506
1447.2609 1015.253 2300.3291 9136993
1485.0844 1032.0647 2338.4207 8478807
1483.5605 1021.4739 2314.4243 8939871
1495.0977 1019.9876 2311.0566 8216404
1508.349 1019.6871 2310.3757 7755854
1519.7407 1018.1462 2306.8845 9203300
1551.2347 1029.9802 2333.6975 9268836
1554.2798 1022.8826 2317.616 10124402
1568.4948 1023.1958 2318.3257 8874078
1582.6299 1023.452 2318.9062 8940641
1592.5763 1021.0185 2313.3923 8808799
1616.7083 1027.6432 2328.4026 9335399
1618.1868 1019.8784 2310.8093 7822160
1638.6052 1024.0808 2320.3308 8940641
1649.3401 1022.2117 2316.0959 8743262
1662.1128 1021.6259 2314.7686 9269606
1661.0922 1012.6409 2294.4109 9664622
1687.1211 1020.1581 2311.4431 9598573
1705.272 1022.8289 2317.4944 9138280
1720.7173 1023.8474 2319.8018 8611678
1732.7999 1022.8644 2317.5747 8546142
1744.4998 1021.6729 2314.875 8810084
1784.3148 1036.8372 2349.2339 8744291
1764.4294 1017.3442 2305.0674 8810344
1783.257 1020.3008 2311.7661 8811111
1792.291 1017.6514 2305.7632 4139308
1767.3151 995.87762 2256.429 6981514
1804.6151 1009.2598 2286.7498 12572363
1796.1943 997.06281 2259.1143 13226447
1801.8138 992.78247 2249.416 13161167
1817.6892 994.17438 2252.5698 13030093
1831.054 994.1828 2252.5889 12964301
1847.8535 996.04254 2256.8027 13095374
1864.5411 997.8158 2260.8203 13160654
1879.8495 998.83063 2263.1199 13160654
1894.7311 999.60614 2264.877 13095374
1909.4467 1000.2837 2266.4121 13095374
1924.5366 1001.1466 2268.3672 13160910
1938.9464 1001.6461 2269.499 13160910
1953.1421 1002.0289 2270.3665 13160910
1966.2122 1001.8329 2269.9224 13160909
1983.8226 1003.9374 2274.6904 13160912
2003.7848 1007.1954 2282.0725 13095119
2008.8461 1002.9702 2272.499 13095119
2025.3531 1004.4778 2275.915 13029326
2039.7661 1004.9337 2276.948 13029326
2052.374 1004.5002 2275.9658 13029326
2065.9951 1004.565 2276.1125 13160912
2076.5952 1003.1695 2272.9507 13095119
2092.0632 1004.1285 2275.1235 13226705
2105.1982 1003.9626 2274.7478 13226705
2111.8857 1000.7436 2267.4541 13161168
2119.1187 997.82208 2260.8347 13161168
2134.8853 998.93018 2263.3455 13226448
2219.2461 1031.92 2338.0928 13226193
2124.272 981.62952 2224.146 13094865
0 0 0 0
0 0 0 0
0 0 0 0
0 0 0 0
0 0 0 0
0 0 0 0
-4049.803 2013.0773 4500.7354 16
-4028.0552 2015.5414 4506.2446 16
-4010.1475 2019.9728 4516.1519 16
-3994.6663 2025.6941 4528.9434 16
-3983.2427 2033.5645 4546.5396 16
-3975.2119 2043.2858 4568.2739 16
-3973.6602 2056.4937 4597.8032 16
-3970.5718 2069.083 4625.9502 16
-3955.4932 2075.5559 4640.4219 16
-3960.9329 2092.9612 4679.3359 16
-3954.5251 2104.3079 4704.7041 16
-3939.2705 2111.0745 4719.8325 16
-3813.7068 2058.3999 4602.0654 16
-4118.292 2238.8064 5005.4087 16
-4064.2129 2225.4368 4975.5181 15
-4048.1384 2232.8342 4992.0566 15
-4039.052 2244.2234 5017.52 15
-4028.9634 2255.2202 5042.1064 16
-4013.78 2263.5085 5060.6372 15
-3734.2761 2121.74 4743.6782 18
-3659.8347 2095.217 4684.3794 18
-3529.4031 2035.9895 4551.9614 18
-3863.8643 2246.0962 5021.707 18
-3850.5959 2255.7568 5043.3062 18
-3868.8486 2284.1792 5106.8516 17
-3806.6182 2265.1575 5064.3237 16
-3787.95 2271.9617 5079.5356 16
-3449.0928 2085.291 4662.1875 16
-3433.0183 2092.3333 4677.9321 16
-3412.2361 2096.5977 4687.4663 16
-3397.2502 2104.5227 4705.1846 16
-3427.6426 2140.9224 4786.5649 16
-3262.897 2055.0283 4594.5273 16
-3338.4971 2120.3364 4740.5396 16
-3232.179 2070.2329 4628.521 16
-3217.0708 2078.1924 4646.3164 16
-3197.3608 2083.2908 4657.7153 16
-3212.6335 2111.4702 4720.7173 16
-3210.0671 2128.3171 4758.3828 16
-3172.2476 2121.8821 4743.9956 16
-3227.1787 2177.9268 4869.2974 16
-3254.4077 2216.1187 4954.6851 16
-3230.074 2219.5745 4962.4111 16
-3231.293 2240.8135 5009.8965 16
-3143.5718 2200.1968 4919.0879 16
-3177.2271 2244.5671 5018.2886 16
-3163.4116 2255.9231 5043.6777 16
-3162.834 2277.0259 5090.8584 16
-2844.5281 2067.5896 4622.6113 16
-3002.7812 2203.8425 4927.2388 16
-3130.3181 2320.0068 5186.9526 16
-3111.365 2328.8284 5206.6753 16
-3093.4639 2338.6221 5228.5718 16
-2959.6416 2260.092 5052.9985 16
-2784.3928 2147.9985 4802.3857 16
-2758.7727 2150.2119 4807.3345 16
-2724.3345 2145.5271 4796.8599 16
-2941.3516 2340.863 5233.582 16
-2909.0374 2339.8184 5231.2461 16
-2877.7239 2339.5647 5230.6792 16
-2681.9451 2204.1406 4927.9048 16
-2813.582 2337.7817 5226.6934 16
-2778.0093 2333.9187 5218.0562 16
-2739.6738 2327.6211 5203.9766 16
-2699.9685 2320.0034 5186.9453 18
-2553.5459 2219.4551 4962.1445 18
-2619.9683 2303.7168 5150.5327 17
-2584.0571 2298.9236 5139.8159 16
-2542.7556 2289.1631 5117.9937 16
-2507.8257 2284.9719 5108.6235 16
-2465.2998 2273.6731 5083.3623 16
-2423.7107 2262.9695 5059.4316 16
-2340.9197 2213.0466 4947.8164 16
-2342.3826 2242.5186 5013.7085 16
-2305.3442 2235.4146 4997.8262 16
-2268.2212 2228.043 4981.3447 16
-2236.0212 2225.376 4975.3823 16
-2203.1057 2221.9165 4967.6475 13
-2171.782 2219.9902 4963.3408 13
-2135.3193 2212.6863 4947.0107 13
-2102.9292 2209.4573 4939.792 14
-2068.74 2204.2205 4928.084 14
-2036.1908 2200.6062 4920.0029 14
-2004.9855 2198.3604 4914.9819 14
-1974.8317 2197.2183 4912.4282 14
-1958.0797 2211.1758 4943.6343 15
-1905.8765 2184.916 4884.9233 16
-1870.4305 2177.353 4868.0146 16
-1832.3036 2166.3833 4843.4893 16
-1793.5236 2154.2803 4816.4297 16
-1836.8041 2241.9458 5012.4277 16
-1810.6633 2246.3674 5022.3135 16
-1783.5728 2249.7388 5029.8511 16
-1756.2151 2252.8821 5036.8784 16
-1729.1798 2256.5544 5045.0894 16
-1699.6765 2257.0791 5046.2622 16
-1547.7114 2092.0872 4677.3818 16
-1513.3517 2082.9473 4656.9473 16
-1479.8191 2074.6272 4638.3457 16
-1445.6069 2065.0217 4616.8701 16
-1409.627 2052.4714 4588.811 16
-1365.6008 2027.4816 4532.9399 16
-1324.2896 2005.6003 4484.019 16
-1291.7937 1996.447 4463.5542 16
-1260.5846 1988.9413 4446.7734 16
-1226.9761 1977.2483 4420.6309 16
-1192.5789 1963.7465 4390.4443 16
-1153.8729 1942.3894 4342.6948 16
-1118.4893 1925.7778 4305.5557 16
-1079.6185 1902.2468 4252.9463 16
-1042.0356 1879.9141 4203.0161 16
-1005.7538 1858.8922 4156.0161 16
-977.06073 1851.1929 4138.8027 16
-950.88129 1847.9824 4131.6245 15
-920.78741 1836.7937 4106.6094 15
-890.68097 1824.9714 4080.178 15
-861.01776 1813.4231 4054.3586 14
-832.35858 1803.3868 4031.9204 14
-803.61041 1792.5591 4007.7124 16
-774.85254 1781.0494 3981.9795 14
-746.3092 1769.3254 3955.7673 14
-718.65955 1759.0282 3932.7456 16
-690.77734 1747.4525 3906.8652 16
-660.7608 1729.4875 3866.7002 16
0 0 0 0
0 0 0 0
0 0 0 0
0 0 0 0
0 0 0 0
0 0 0 0
-472.29706 1632.4998 3649.8596 16
-447.09042 1619.5431 3620.8918 15
-424.72028 1616.073 3613.1335 15
-401.60785 1609.2603 3597.9019 15
-378.90173 1603.4026 3584.8057 16
-355.99753 1595.9613 3568.1687 16
-333.23199 1588.2411 3550.9082 16
-310.61063 1580.2135 3532.9607 16
-288.15613 1571.9357 3514.4534 16
-266.25375 1565.6146 3500.321 16
-244.53502 1559.3967 3486.4194 16
-223.02405 1553.4779 3473.1865 16
-201.61581 1547.1442 3459.0259 16
-180.5415 1542.229 3448.0369 16
-159.79991 1539.2643 3441.4084 16
-139.13283 1536.2545 3434.6794 16
-118.54109 1533.1882 3427.824 16
-98.040924 1530.2825 3421.3276 16
-87.0401 1712.7917 3829.3723 16
-63.854374 1699.6942 3800.0896 16
-40.645546 1671.3749 3736.7749 16
-16.562796 1496.3086 3345.3706 16
3.2533507 1492.074 3335.9028 16
24.528664 1589.6791 3554.1233 16
43.716206 1524.303 3407.9587 16
63.327854 1510.3594 3376.7844 16
82.40667 1493.4556 3338.9917 16
101.74194 1486.8457 3324.2136 16
121.30789 1485.2045 3320.5442 16
140.68919 1482.0762 3313.5503 16
159.21591 1471.8145 3290.6077 16
177.545 1462.1646 3269.0327 16
196.02203 1455.5117 3254.1589 16
215.47993 1456.6818 3256.7747 16
234.09343 1452.4203 3247.2471 16
255.15569 1462.8452 3270.5547 16
272.81067 1453.6431 3249.981 16
291.0795 1448.7096 3238.9509 16
307.66171 1436.5114 3211.679 16
324.72906 1427.8679 3192.3542 16
341.5018 1418.9519 3172.4202 16
354.62875 1396.6083 3122.4656 16
374.34717 1401.1523 3132.625 16
396.89203 1415.3462 3164.3589 14
413.11499 1406.7321 3145.0999 14
424.78162 1384.0164 3094.3132 15
452.84677 1414.399 3162.2412 16
469.68735 1408.7019 3149.5039 16
485.66855 1400.9613 3132.1978 16
501.75937 1394.0951 3116.8467 16
511.30743 1370.1835 3063.3862 16
526.4198 1362.3114 3045.7864 16
537.93469 1345.9601 3009.2288 16
549.51685 1330.821 2975.3816 16
561.36511 1317.2476 2945.0349 16
605.97192 1379.0432 3083.1943 16
596.46771 1317.6823 2946.0068 16
643.32458 1380.7803 3087.0781 16
658.65601 1374.5961 3073.2517 16
676.88428 1374.6277 3073.3223 16
692.56512 1369.6196 3062.1257 16
681.90601 1314.1075 2938.0144 16
698.46539 1312.5066 2934.4353 16
714.2196 1309.5073 2927.7295 16
790.56586 1415.1096 3163.8298 15
768.76965 1344.2145 3005.3259 17
780.33533 1333.543 2981.4673 17
787.263 1315.5933 2941.3364 17
807.13617 1319.5861 2950.2632 18
789.37872 1263.1918 2824.1797 18
800.71881 1254.7352 2805.2729 16
818.68402 1256.7931 2809.874 65552
858.13959 1291.1019 2886.5798 65549
828.50287 1222.1497 2732.4199 196618
844.84821 1222.3702 2732.9128 458755
0 0 0 0
0 0 0 0
764.00165 1045.2827 2336.9897 8151898
776.00153 1042.7972 2331.4329 9466984
791.36475 1044.8392 2335.9983 9927022
806.82025 1046.9309 2340.6746 9993327
816.14032 1041.1249 2327.6938 9401189
834.05096 1046.2887 2339.2388 11770509
843.85986 1041.2863 2328.0547 9861741
855.89813 1039.1516 2323.282 9597800
871.92072 1041.8451 2329.3042 9729127
880.74902 1035.9924 2316.219 9794663
898.84717 1041.0558 2327.5396 9268576
915.56421 1044.3909 2334.9956 9860713
928.56036 1043.4451 2332.8813 9926506
942.7854 1043.8879 2333.8713 9465955
953.44537 1040.4276 2326.1348 9860713
961.36505 1034.118 2312.0286 9794921
973.68738 1032.6554 2308.7583 10123887
996.45819 1042.161 2330.0103 10518644
1014.756 1046.7924 2340.365 9202784
1018.4457 1036.4327 2317.2034 9926250
1031.7513 1036.0043 2316.2456 9992298
1043.7856 1034.3275 2312.4966 8742747
1060.1227 1036.9025 2318.2537 9400164
1075.8929 1038.8643 2322.6396 9400164
1085.2581 1034.67 2313.2625 9597286
1098.3265 1034.067 2311.9143 9663079
1116.7935 1038.4989 2321.823 9926252
1121.4573 1030.1437 2303.1428 9465957
1123.6691 1019.7643 2279.937 9136992
1140.6738 1022.8969 2286.9407 8676698
1152.3922 1021.2712 2283.3059 8873821
1160.5046 1016.5245 2272.6936 10650232
1178.0658 1020.0684 2280.6167 9137505
1196.4146 1024.2059 2289.8674 9598057
1220.3964 1033.0189 2309.571 8808541
1225.8727 1026.146 2294.2048 9137506
1249.4541 1034.4128 2312.6875 9663335
1252.9178 1026.0259 2293.9363 9334369
1265.4884 1025.1964 2292.0818 9334628
1278.9674 1025.1128 2291.895 8742749
1294.1709 1026.3986 2294.7695 9532264
1308.4159 1026.9054 2295.9026 9663594
1316.9659 1022.978 2287.1221 9664104
1320.6571 1015.395 2270.1682 9400932
1342.8112 1022.017 2284.9734 9664104
1358.9832 1023.9993 2289.4053 9334885
1366.5653 1019.5339 2279.4219 9269092
1380.0721 1019.5328 2279.4194 9269092
1391.7499 1018.1935 2276.425 9005920
1403.7097 1017.0844 2273.9453 9400678
1422.7424 1021.0724 2282.8616 9466471
1431.4421 1017.6394 2275.1863 9598057
1448.5259 1020.1751 2280.8555 10124144
1465.2043 1022.3812 2285.7878 8940640
1467.8662 1014.8561 2268.9636 9006434
1483.764 1016.5356 2272.7185 7427147
1505.1478 1021.9096 2284.7334 6835012
1507.4258 1014.3316 2267.7908 9532522
1522.8297 1015.6418 2270.7202 9466727
1544.4847 1021.0617 2282.8376 9006690
1560.5621 1022.7321 2286.5723 9401192
1570.8632 1020.6208 2281.8518 8940640
1584.8711 1020.9333 2282.5505 8874593
1608.9272 1027.6586 2297.5864 8085590
1619.6981 1025.8564 2293.5576 8743265
1632.2384 1025.1958 2292.0806 9006180
1639.049 1020.9771 2282.6484 9533037
1654.9329 1022.4329 2285.9033 7888211
1665.9061 1020.8559 2282.3774 8480349
1676.4976 1019.0722 2278.3896 9335658
1698.9707 1024.4817 2290.4839 9072743
1709.7358 1022.8013 2286.7271 8744806
1719.6249 1020.6276 2281.8669 8547681
1733.5273 1020.8511 2282.3669 8744807
1742.3872 1018.1248 2276.2712 8941675
1743.0553 1010.6902 2259.6497 2431001
1743.4346 1003.2029 2242.9099 4804945
1751.5374 1000.2396 2236.2847 12899019
1761.0802 998.13702 2231.5837 13423310
1765.0325 992.92072 2219.9214 13423310
1784.9265 996.68329 2228.3337 13292239
1797.3093 996.22717 2227.314 13160910
1812.1355 997.12225 2229.3149 13030094
1826.9015 997.97156 2231.2139 13161166
1841.215 998.56305 2232.5364 13160910
1857.8466 1000.3944 2236.6309 13160910
1874.5746 1002.2515 2240.7827 13160910
1893.4016 1005.1967 2247.3674 13160910
1907.3365 1005.5218 2248.0942 13160910
1921.6669 1006.0493 2249.2737 13160910
1931.4647 1004.213 2245.1682 13160910
1947.1484 1005.4412 2247.9141 13160909
1958.5851 1004.4744 2245.7527 13160912
1972.2119 1004.6364 2246.1147 13029326
1991.0554 1007.4358 2252.3735 13095119
2000.0782 1005.2619 2247.5132 13029326
2012.2695 1004.6987 2246.2542 13095119
2030.3085 1007.0433 2251.4961 13029326
2039.6924 1005.0926 2247.1348 13029326
2053.1582 1005.1655 2247.2976 13160912
2064.7817 1004.3412 2245.4548 13095119
2085.9973 1008.1635 2254.0005 13160912
2088.6848 1003.0394 2242.5442 13160912
2096.7751 1000.5582 2236.9971 13161169
2116.0354 1003.405 2243.3616 13291729
2125.1943 1001.4561 2239.0044 13160912
2109.4553 987.8714 2208.6326 13094866
0 0 0 0
0 0 0 0
0 0 0 0
0 0 0 0
0 0 0 0
0 0 0 0
-3244.9026 1634.3483 3606.2119 16
-3906.1379 1980.4336 4369.854 16
-3867.4539 1973.9072 4355.4531 16
-3850.7844 1978.6045 4365.8179 16
-3833.1951 1982.8893 4375.2725 16
-3781.071 1969.2466 4345.1694 16
-3772.387 1978.1957 4364.916 16
-3704.5417 1956.0312 4316.0098 16
-3860.9688 2052.7993 4529.5298 16
-3848.9014 2060.7102 4546.9854 16
-3836.6411 2068.6287 4564.4575 16
-3737.8828 2029.6907 4478.54 16
-3620.6196 1980.0757 4369.064 16
-3557.2466 1959.4298 4323.5088 16
-3672.998 2037.8676 4496.5825 16
-3710.7524 2073.8604 4576.0015 15
-3693.627 2079.4861 4588.4146 15
-4014.4368 2276.8618 5023.9268 16
-4002.6484 2287.1382 5046.6021 16
-3996.2261 2300.6587 5076.4351 16
-3538.5537 2052.6257 4529.1465 16
-3610.2466 2110.2192 4656.2275 16
-3593.9343 2116.864 4670.8896 16
-3427.8389 2034.7036 4489.6016 16
-3408.8267 2039.2468 4499.626 16
-3385.1753 2041.064 4503.6357 16
-3364.9512 2044.9934 4512.3062 16
-3455.126 2116.6162 4670.3428 16
-3496.9822 2159.5566 4765.0913 16
-3688.4802 2296.3594 5066.9487 16
-3672.168 2304.9685 5085.9448 16
-3629.3308 2296.9331 5068.2144 16
-3306.2744 2109.9382 4655.6074 16
-3368.7415 2167.8928 4783.4854 16
-3323.0869 2156.6611 4758.7021 16
-3328.7668 2178.8379 4807.6357 16
-3292.5918 2173.7649 4796.4419 16
-3251.3706 2165.2432 4777.6387 16
-3067.9072 2061.0137 4547.6548 16
-3499.4541 2371.761 5233.3228 16
-3201.7888 2189.4214 4830.9883 16
-3345.2996 2308.1951 5093.064 16
-3170.2219 2207.3098 4870.4595 16
-3087.2954 2169.3218 4786.6382 16
-3067.3188 2175.2717 4799.7671 16
-3098.5381 2217.98 4894.0029 16
-3017.0242 2180.0366 4810.2808 16
-3002.0063 2189.8765 4831.9922 16
-3075.8977 2265.387 4998.6074 16
-3192.02 2373.7715 5237.7593 16
-2932.7749 2202.3987 4859.6226 16
-2911.5813 2208.1667 4872.3501 16
-2917.687 2234.9617 4931.4736 16
-2869.7988 2220.521 4899.6099 16
-2848.854 2226.8457 4913.5654 16
-2825.387 2231.3091 4923.4141 16
-2800.2405 2234.5256 4930.5112 16
-2774.5581 2237.3777 4936.8047 16
-2721.6694 2218.1177 4894.3071 16
-2726.0525 2245.6213 4954.9946 16
-2687.7019 2238.1384 4938.4829 16
-2662.9421 2241.9326 4946.855 15
-2646.7039 2253.0654 4971.4194 16
-2669.1777 2297.7742 5070.0703 18
-2690.8687 2342.8196 5169.4634 18
-2652.677 2336.165 5154.7798 18
-2614.3679 2329.2507 5139.5234 18
-2518.6956 2270.4631 5009.8081 18
-2493.2869 2274.3679 5018.4243 16
-2466.0076 2276.6399 5023.437 16
-2453.7688 2293.0227 5059.5859 16
-2414.6792 2284.4084 5040.5786 16
-2379.4221 2279.2498 5029.1958 16
-2435.3599 2362.4236 5212.7202 16
-2407.4023 2365.3066 5219.0811 16
-2377.6897 2366.5176 5221.7534 16
-2346.7781 2366.5515 5221.8281 15
-2200.7395 2248.9377 4962.312 14
-2168.0938 2245.584 4954.9121 14
-2131.0364 2237.5061 4937.0879 14
-2098.9343 2234.479 4930.4082 14
-2064.7515 2229.1194 4918.5825 14
-2031.446 2224.5674 4908.5386 14
-1998.4584 2220.2361 4898.9814 14
-1962.3833 2212.2966 4881.4624 14
-1928.7299 2206.8901 4869.5332 13
-1895.4796 2201.7883 4858.2759 14
-1859.9158 2193.7998 4840.6489 14
-1821.3285 2181.939 4814.478 16
-1781.9397 2168.7249 4785.3213 16
-1742.5043 2155.0261 4755.0947 16
-1706.2357 2144.8579 4732.6582 16
-1673.3158 2138.6296 4718.9155 16
-1641.3378 2133.4138 4707.4067 16
-1609.2334 2127.8506 4695.1313 16
-1577.0785 2122.0237 4682.2744 16
-1543.5681 2114.1316 4664.8604 16
-1510.0944 2106.0024 4646.9233 16
-1477.2762 2098.5029 4630.3755 16
-1441.5297 2086.4807 4603.8486 16
-1397.4817 2061.7476 4549.2744 16
-1352.2278 2034.2269 4488.5498 16
-1317.1498 2021.2173 4459.8438 16
-1286.3229 2014.3319 4444.6509 16
-1253.3552 2003.7362 4421.2715 16
-1220.0417 1992.1234 4395.6475 16
-1185.3362 1977.6813 4363.7808 16
-1149.4656 1960.6078 4326.1079 16
-1113.1869 1942.0431 4285.1445 16
-1073.2396 1916.0624 4227.8179 16
-1035.8182 1893.4567 4177.938 16
-990.29126 1854.5642 4092.1211 16
-960.26959 1843.4855 4067.676 16
-945.68365 1862.2322 4109.0405 16
-916.05554 1851.5659 4085.5056 16
-884.59045 1836.5068 4052.2776 14
-856.86365 1828.585 4034.7979 14
-828.65601 1819.1526 4013.9854 14
-799.89832 1807.9197 3989.1997 14
-771.3075 1796.391 3963.7615 15
-744.15253 1787.5874 3944.3359 15
0 0 0 0
0 0 0 0
-656.15271 1740.1816 3839.7344 16
-627.90393 1725.0881 3806.4307 16
-601.70605 1714.7148 3783.5415 16
-574.61792 1700.903 3753.0657 16
-547.48914 1685.8536 3719.8589 15
-520.83966 1671.0793 3687.2595 15
-494.7789 1656.9828 3656.155 15
-470.25079 1646.9628 3634.0461 14
-445.82318 1636.3501 3610.6287 14
-422.2019 1627.7758 3591.7095 14
-399.25006 1621.0092 3576.7788 16
-376.52026 1614.4359 3562.2747 16
-353.76727 1606.9762 3545.8149 16
-330.62729 1596.7056 3523.1526 16
-308.17596 1588.6002 3505.2681 16
-286.31128 1582.5656 3491.9529 16
-264.64001 1576.7437 3479.1064 16
-243.20706 1571.4773 3467.4861 16
-221.99893 1566.8256 3457.2222 16
-200.87634 1561.8933 3446.3389 16
-179.91893 1557.2742 3436.1467 16
-159.22827 1554.0795 3429.0977 16
-138.63176 1551.0033 3422.3101 16
-118.07921 1547.4492 3414.4678 16
-97.644272 1544.2848 3407.4856 16
-77.128685 1537.8625 3393.3147 16
-56.647781 1527.8456 3371.2122 16
-36.443001 1518.4183 3350.4109 16
-16.492083 1509.6613 3331.0881 16
3.2433467 1507.1943 3325.645 16
0 0 0 0
42.559353 1503.6276 3317.7747 16
62.131687 1501.4646 3313.0022 16
81.33667 1493.5946 3295.637 16
100.14185 1482.8522 3271.9336 16
118.65433 1471.964 3247.9087 16
136.75259 1459.6938 3220.8345 16
155.54088 1456.8927 3214.6536 16
173.76639 1450.0065 3199.4592 16
192.1091 1445.3572 3189.2004 16
210.21202 1439.8982 3177.155 16
228.2085 1434.6675 3165.6135 16
246.72815 1433.2706 3162.5315 16
273.13339 1474.6454 3253.8252 15
289.35818 1459.2236 3219.7969 14
304.00848 1438.2612 3173.543 14
320.00015 1425.7174 3145.865 14
336.75906 1417.7849 3128.3618 14
355.25562 1417.6141 3127.9851 14
371.52173 1409.0015 3108.981 14
385.43192 1392.6898 3072.9893 14
400.91479 1383.2764 3052.2183 15
417.70956 1379.0066 3042.7969 14
433.47656 1371.8378 3026.9788 16
450.22247 1368.2134 3018.9814 16
468.66171 1369.8154 3022.5164 16
483.62317 1361.5087 3004.1875 16
496.23618 1347.4153 2973.0903 16
511.26187 1340.6147 2958.0847 16
527.24829 1336.7007 2949.4485 16
543.71606 1334.2192 2943.9729 16
565.9057 1345.4962 2968.8557 16
582.48822 1343.1636 2963.709 16
599.29871 1341.4778 2959.9893 16
616.16217 1340.0033 2956.7356 16
632.85724 1338.254 2952.876 16
649.78821 1337.0846 2950.2954 16
666.53571 1335.6085 2947.0386 16
682.00916 1331.7202 2938.459 16
697.60498 1328.2584 2930.8206 16
712.57184 1323.7964 2920.9749 16
717.72821 1301.7527 2872.3352 16
731.76508 1296.4637 2860.665 16
745.69043 1291.2214 2849.0977 16
759.72882 1286.4025 2838.4646 16
773.74548 1281.7563 2828.2129 16
788.12036 1277.8879 2819.6772 17
798.63336 1268.0486 2797.9666 16
796.37823 1238.7489 2733.3164 15
812.52252 1238.6667 2733.135 14
823.88959 1231.4473 2717.2053 65548
794.79327 1165.1844 2570.9954 196614
830.31134 1194.3588 2635.3689 1707539
0 0 0 0
761.63574 1055.8524 2329.7527 6705224
765.70624 1042.5956 2300.5015 9401704
784.34589 1049.2931 2315.2795 10256500
797.02075 1047.9178 2312.2451 10585208
811.74298 1049.2354 2315.1523 10190449
813.15155 1033.5864 2280.6226 9993069
835.8974 1045.1272 2306.0876 9598055
852.13965 1048.296 2313.0796 9795690
863.83685 1045.8618 2307.7085 9860456
869.31714 1036.0939 2286.1553 9597284
889.87677 1044.3221 2304.311 9136733
896.42059 1036.1018 2286.1729 9071197
908.05048 1033.9175 2281.353 9465954
927.09857 1040.1196 2295.0383 10584435
941.07007 1040.5295 2295.9426 9794663
956.97815 1043.0385 2301.4785 10058092
966.86438 1039.0055 2292.5798 10189678
987.36963 1046.3375 2308.7583 9794919
992.70795 1037.6163 2289.5146 10321264
1004.6599 1035.9497 2285.8374 9597542
1025.4886 1043.3593 2302.1863 9531494
1032.5159 1036.7161 2287.5283 9400678
1047.0084 1037.644 2289.5757 9071713
1063.4421 1040.4471 2295.761 9992816
1072.7567 1036.3024 2286.6155 9598058
1086.4043 1036.3947 2286.8188 9598058
1092.4323 1029.3051 2271.1758 9992815
1110.2457 1033.3575 2280.1177 9663851
1120.3854 1030.2561 2273.2742 9795437
1132.0618 1028.6246 2269.6743 9334886
1141.1088 1024.6704 2260.9492 9466729
1158.4196 1028.1425 2268.6104 10585466
1172.1968 1028.4344 2269.2549 8348247
1188.3236 1030.7582 2274.3818 8545369
1194.4459 1024.4489 2260.4604 8611162
1217.4158 1032.5691 2278.3779 8742747
1229.786 1031.6195 2276.2827 9597800
1239.2122 1028.2477 2268.8428 9598057
1251.6758 1027.4417 2267.0642 9072223
1266.5291 1028.5934 2269.6055 9400933
1272.4669 1022.5566 2256.2852 9795690
1294.2958 1029.2823 2271.1257 8742746
1303.6512 1026.0525 2263.999 9005662
1305.2729 1016.8636 2243.7234 9268834
1321.1993 1018.8914 2248.198 9400932
1347.9966 1029.1786 2270.8967 9597800
1360.228 1028.2516 2268.8513 10058351
1371.6752 1026.7556 2265.5503 9663850
1387.168 1028.2876 2268.9307 9663849
1400.5129 1028.2133 2268.7666 9400421
1414.5011 1028.6082 2269.6379 9269092
1418.5428 1021.8307 2254.6836 9597801
1439.7749 1027.4471 2267.0762 8874334
1435.2081 1014.7194 2238.9922 9335397
1467.261 1027.8784 2268.0278 8874591
1481.6774 1028.5557 2269.5222 9203813
1486.3566 1022.5222 2256.2092 6769472
1501.6724 1023.8483 2259.1353 8282454
1510.0719 1020.4772 2251.6968 9532778
1537.88 1030.166 2273.0754 9203813
1548.0339 1027.9635 2268.2156 9005921
1550.9293 1021.0204 2252.8955 9269605
1563.3828 1020.4346 2251.6028 8874848
1587.5436 1027.4353 2267.05 9006434
1615.1807 1036.5496 2287.1609 8875105
1621.4797 1031.9323 2276.9727 8743263
1635.4136 1032.21 2277.5854 9072740
1641.6229 1027.6477 2267.5188 8875105
1658.2854 1029.65 2271.9368 8941154
1663.0114 1024.2681 2260.0615 9664879
1685.0895 1029.5742 2271.7698 8941412
1690.6484 1024.7832 2261.1982 8416354
1706.0803 1026.005 2263.894 8416357
1724.0952 1028.7489 2269.9485 8419447
1712.5952 1013.9755 2237.3508 3483951
1705.6371 1002.0975 2211.1418 4674902
1731.5123 1009.5436 2227.572 11258304
1720.861 995.74219 2197.1187 12571084
1746.3123 1002.8809 2212.8704 13423309
1757.076 1001.5413 2209.9146 13488846
1772.2106 1002.6943 2212.4587 13423309
1781.8977 1000.7711 2208.2151 13357520
1799.097 1003.0642 2213.2749 13161166
1812.7319 1003.3513 2213.9084 13095631
1826.1521 1003.5162 2214.2722 13029581
1842.3696 1005.205 2217.9985 13160910
1854.2498 1004.5201 2216.4873 13095374
1873.3284 1007.7172 2223.5417 13160910
1883.7273 1006.233 2220.2671 13160910
1897.3405 1006.4746 2220.8 13160910
1910.7783 1006.6205 2221.1221 13160910
1927.7205 1008.5979 2225.4851 13160910
1941.0454 1008.6687 2225.6414 13226705
1958.2734 1010.7531 2230.2405 13226705
1972.1006 1011.066 2230.9309 13160912
1986.5815 1011.7076 2232.3467 13160912
2001.8983 1012.7637 2234.677 13029326
2016.4177 1013.4052 2236.0923 13095119
2029.1948 1013.1682 2235.5696 13095119
2035.2214 1009.5858 2227.6648 13160912
2048.7061 1009.7252 2227.9724 13160912
2066.2825 1011.8666 2232.6975 13160912
2070.8296 1007.6411 2223.3738 13095119
2078.8679 1005.1567 2217.8921 13161169
2107.0232 1012.3694 2233.8069 13291729
2185.574 1043.5546 2302.6174 13095119
2081.5208 987.70508 2179.3848 13094865
0 0 0 0
0 0 0 0
0 0 0 0
0 0 0 0
0 0 0 0
0 0 0 0
-4015.2036 2048.7676 4462.2837 16
-3998.6313 2053.8381 4473.3276 16
-3983.531 2059.7375 4486.1768 16
-3975.4146 2069.3518 4507.1167 16
-4238.3521 2221.144 4837.7256 16
-4219.1753 2226.1528 4848.6343 16
-3939.1399 2092.6499 4557.8608 16
-3936.55 2105.7131 4586.313 16
-3832.9951 2064.575 4496.7124 16
-3836.7092 2081.0437 4532.582 16
-3911.0615 2136.3291 4652.9956 16
-3896.5029 2143.4893 4668.5908 16
-3891.1753 2155.8662 4695.5479 16
-3887.791 2169.5059 4725.2559 16
-3879.8159 2180.7632 4749.7744 16
-3809.1907 2156.7131 4697.3926 16
-3625.7305 2067.9531 4504.0703 16
-3790.6396 2178.0442 4743.8525 16
-3782.9946 2189.8928 4769.6592 16
-3979.7837 2321.1531 5055.5483 16
-3747.7354 2202.394 4796.8872 16
-3960.6006 2345.2756 5108.0884 16
-3553.446 2120.385 4618.269 16
-3542.8711 2130.4841 4640.2646 16
-3530.1919 2139.4658 4659.8271 16
-3524.9243 2153.116 4689.5581 16
-3512.842 2162.7878 4710.6235 16
-3502.4475 2173.6619 4734.3076 16
-3485.6243 2180.6897 4749.6143 16
-3762.0205 2372.7705 5167.9727 16
-3744.5681 2381.1479 5186.2192 16
-3702.6731 2373.9924 5170.6343 16
-3342.022 2160.6394 4705.9443 16
-3375.7571 2200.8147 4793.4473 16
-3314.9021 2179.481 4746.9814 16
-3586.4912 2378.2278 5179.8589 16
-3277.5825 2192.1511 4774.5776 16
-3257.0042 2197.3572 4785.9165 16
-3235.9805 2202.3516 4796.7949 16
-3210.9204 2204.6633 4801.8301 16
-3178.936 2202.2192 4796.5068 16
-3121.0332 2181.6143 4751.6284 16
-2983.5186 2104.4785 4583.624 16
-2956.6626 2104.6975 4584.1011 16
-3126.7017 2246.3796 4892.6895 16
-3109.1396 2254.6709 4910.748 16
-3090.2698 2262.1611 4927.062 16
-2869.7209 2120.7517 4619.0674 16
-2909.595 2170.9268 4728.3506 16
-2961.8406 2231.3984 4860.0601 16
-3127.1001 2379.0366 5181.6206 16
-3095.1531 2378.084 5179.5459 16
-3074.6838 2386.0195 5196.8296 16
-3040.064 2383.0232 5190.3037 16
-3006.1528 2380.5271 5184.8667 16
-2972.5217 2378.2034 5179.8057 16
-2938.5374 2375.5454 5174.0166 16
-2906.8767 2374.7297 5172.2402 16
-2864.4983 2365.0481 5151.1528 16
-2624.9897 2190.6455 4771.2983 16
-2804.1921 2365.6785 5152.5264 16
-2773.5764 2365.6096 5152.376 16
-2645.1218 2281.1626 4968.4478 15
-2652.1401 2312.9622 5037.708 15
-2669.9207 2354.978 5129.2202 15
-2633.062 2349.2129 5116.6636 16
-2598.5898 2345.4673 5108.5054 16
-2552.688 2331.1953 5077.4209 16
-2511.3164 2320.7698 5054.7134 16
-2481.2607 2320.676 5054.5093 16
-2444.5576 2314.2864 5040.5928 16
-2468.4944 2365.8577 5152.9165 16
-2393.699 2322.9084 5059.3716 16
-2424.2529 2382.4001 5188.9463 16
-2396.8406 2385.7231 5196.1841 16
-2366.8245 2386.5071 5197.8916 14
-2338.1951 2388.7285 5202.73 14
-2308.3513 2389.7522 5204.9595 14
-2276.4045 2388.5967 5202.4429 14
-2246.0061 2389.0566 5203.4448 14
-2122.0161 2288.5911 4984.627 14
-2094.2512 2290.5322 4988.8555 14
-2066.1121 2292.1143 4992.3008 14
-2095.7002 2358.7144 5137.3579 14
-2063.2009 2356.3682 5132.248 14
-2030.3403 2353.533 5126.0728 14
-1998.6804 2352.0247 5122.7881 14
-1965.3967 2348.5295 5115.1753 14
-1970.0789 2391.0024 5207.6826 14
-1936.3783 2387.5024 5200.0596 14
-1734.9373 2173.7251 4734.4453 16
-1700.9015 2166.1116 4717.8628 16
-1669.1182 2161.1597 4707.0776 16
-1637.9557 2156.8574 4697.707 16
-1606.1708 2151.5725 4686.1963 16
-1573.3969 2144.7532 4671.3438 16
-1540.3207 2137.2705 4655.0459 16
-1507.5812 2129.9905 4639.1899 16
-1473.647 2120.7207 4619 16
-1431.0153 2098.3467 4570.2686 16
-1389.4832 2076.7527 4523.2363 16
-1368.712 2085.9495 4543.2671 16
-1312.8151 2040.9086 4445.1665 16
-1280.1368 2030.858 4423.2764 16
-1246.957 2019.5751 4398.7017 16
-1213.3451 2007.0955 4371.5205 16
-1177.0642 1989.5599 4333.3276 16
-1140.5227 1970.792 4292.4502 16
-1100.291 1944.6458 4235.5029 16
-1061.4675 1919.8257 4181.4438 16
-1030.0444 1907.5238 4154.6499 16
-980.69208 1860.603 4052.4551 16
-950.28821 1848.1788 4025.395 16
-921.52979 1838.3976 4004.0908 16
-905.21118 1853.5719 4037.1411 15
-876.88446 1844.3138 4016.9766 15
-849.58685 1836.764 4000.533 14
-821.52777 1827.087 3979.4563 14
-793.04559 1815.8695 3955.0242 15
-765.04095 1805.0955 3931.5579 15
-737.00446 1793.5669 3906.4482 15
-708.7348 1780.7048 3878.4343 14
-678.72034 1762.4497 3838.6738 14
-649.47266 1744.9886 3800.6431 14
-623.22723 1734.6292 3778.0798 14
-596.73224 1722.777 3752.2656 14
-569.51093 1707.8296 3719.7095 14
-542.72003 1693.021 3687.4558 14
-516.77606 1679.7225 3658.4915 14
-491.35779 1667.0431 3630.875 14
-467.91635 1660.2161 3616.0056 14
-442.38107 1644.9482 3582.7517 14
-419.54037 1638.6654 3569.0676 13
-414.16986 1703.5742 3710.4414 13
-374.78162 1627.9941 3545.8252 13
-350.55432 1613.204 3513.6116 13
-328.23853 1605.8975 3497.698 16
-306.99524 1603.2072 3491.8384 16
-284.86197 1595.1442 3474.2769 16
-263.45349 1590.1995 3463.5073 16
-242.11516 1584.8787 3451.9185 16
-221.10721 1580.938 3443.3352 16
-199.80779 1573.9 3428.0063 16
-179.27005 1571.9476 3423.7542 16
-158.16852 1563.9225 3406.2751 16
-137.50183 1558.4778 3394.4163 16
-117.19404 1555.9319 3388.8713 16
-109.64465 1756.7512 3826.2625 16
-77.771683 1570.9604 3421.6038 16
-57.581017 1573.3235 3426.7507 16
-36.958439 1560.0304 3397.7981 16
-18.143414 1682.5388 3664.6252 16
3.5436766 1668.2921 3633.5957 16
24.96965 1661.1415 3618.021 16
43.413898 1553.8754 3384.3921 16
62.710926 1535.2791 3343.8887 16
81.932289 1524.2057 3319.7705 16
100.97016 1514.6681 3298.9973 16
120.64771 1516.264 3302.4734 16
138.31456 1495.6716 3257.6226 16
157.21025 1491.7841 3249.1553 16
176.37003 1490.9777 3247.3987 16
195.65361 1491.2733 3248.0427 16
214.85222 1490.9265 3247.2874 14
235.49802 1499.8535 3266.7307 14
251.89436 1482.4161 3228.7515 14
259.35187 1418.549 3089.6467 13
289.18484 1477.4194 3217.8684 14
295.14093 1414.5674 3080.9746 14
311.50446 1406.014 3062.3452 14
328.59113 1401.4871 3052.4851 14
342.60144 1384.9957 3016.5667 14
358.27872 1376.5449 2998.1604 14
385.29886 1410.4141 3071.9285 14
400.3508 1399.3931 3047.9243 14
424.14798 1418.5721 3089.6973 14
448.32651 1437.3867 3130.676 14
448.32492 1380.2625 3006.2573 14
477.07877 1412.6508 3076.8 14
494.17947 1409.4191 3069.7615 16
488.86392 1344.7551 2928.9211 16
506.22113 1344.7544 2928.9197 16
543.38849 1395.6343 3039.7375 16
560.65625 1393.7788 3035.6963 16
565.9057 1363.0902 2968.8557 16
582.48822 1360.7272 2963.709 16
608.91992 1380.8373 3007.5095 16
595.34814 1311.6681 2856.8567 16
631.62921 1353.1227 2947.1462 16
650.11951 1355.2592 2951.7993 16
683.02716 1386.5511 3019.9543 16
683.33624 1351.7593 2944.1765 16
699.68005 1349.6299 2939.5386 16
711.78815 1339.6318 2917.7625 16
716.80139 1317.0718 2868.626 16
732.89868 1315.4514 2865.0967 16
747.38519 1311.0787 2855.573 16
761.45251 1306.1805 2844.9045 16
801.94629 1345.844 2931.293 16
800.68854 1315.2432 2864.6431 17
809.74304 1302.5001 2836.8887 16
820.32568 1292.6838 2815.5083 16
818.40192 1263.944 2752.9119 16
825.80365 1250.4484 2723.5178 65550
792.04486 1176.3389 2562.105 196619
854.66071 1245.4597 2712.6526 524550
0 0 0 0
0 0 0 0
0 0 0 0
762.67719 1033.6467 2251.3167 9861998
783.7605 1043.9583 2273.7756 9861742
796.45898 1042.9415 2271.5613 10651000
808.99475 1041.7493 2268.9644 9795433
823.97687 1043.6945 2273.2012 9269345
838.4646 1044.9611 2275.9597 9137759
848.77234 1041.0604 2267.4641 9269091
863.03955 1042.0623 2269.6462 9466214
874.43518 1039.6194 2264.3254 10848379
888.15039 1039.9663 2265.0811 10650742
895.0722 1032.4667 2248.7468 8874074
910.6333 1035.0066 2254.2786 9860456
927.86627 1039.3457 2263.7292 9926249
945.90216 1044.4475 2274.8413 9071967
947.96246 1032.0139 2247.7605 10716792
955.43781 1025.7385 2234.0925 9927277
984.89154 1042.9076 2271.4873 9860972
984.65051 1028.5938 2240.3113 8939870
1006.0596 1036.9762 2258.5686 9136993
1018.9097 1036.4324 2257.384 9729129
1023.4626 1027.5721 2238.0862 8347219
1033.3181 1024.1943 2230.7292 9202529
1050.1885 1027.767 2238.5105 8610648
1068.1517 1032.3068 2248.3982 8808027
1070.7616 1022.0793 2226.1226 10189681
1088.4312 1026.3008 2235.3171 9597544
1104.1321 1028.5868 2240.2961 9400421
1126.5299 1036.983 2258.5835 9532265
1136.3011 1033.6958 2251.4238 9268836
1136.8292 1022.1738 2226.3284 8874078
1159.9968 1031.0389 2245.637 8940128
1164.4521 1023.2595 2228.6931 8414554
1177.1299 1022.7991 2227.6904 10059120
1191.0786 1023.4408 2229.0881 9992815
1212.142 1030.1149 2243.6243 9400421
1222.4193 1027.5773 2238.0972 9071713
1233.6401 1025.8787 2234.3977 9137249
1249.712 1028.2074 2239.4697 9927022
1259.3861 1025.2784 2233.0906 9466471
1273.759 1026.1963 2235.0896 9466214
1280.4559 1020.9746 2223.7166 8676955
1289.8468 1017.9855 2217.2063 9269092
1309.9608 1023.4344 2229.0742 9400678
1322.2001 1022.6835 2227.4387 9532007
1338.0457 1024.7095 2231.8513 9203556
1353.4404 1026.3539 2235.4326 9466728
1367.8849 1027.2526 2237.3901 9664107
1385.7715 1030.6942 2244.8862 9663850
1401.9883 1032.8403 2249.5605 8940127
1412.3579 1030.6791 2244.853 9203811
1422.9131 1028.6921 2240.5254 8808797
1432.2544 1025.8726 2234.3843 9466985
1442.9935 1024.0966 2230.5164 9401191
1451.9375 1021.0905 2223.969 9993329
1470.2333 1024.656 2231.7349 8611676
1498.6147 1035.1244 2254.5354 7493195
1501.7166 1028.1008 2239.2378 8480090
1502.9094 1019.905 2221.387 9730157
1528.9332 1028.5559 2240.2288 9071971
1550.0143 1033.7614 2251.5664 8743262
1554.0433 1027.6023 2238.1519 9269606
1565.6259 1026.5 2235.7512 9401449
1586.2037 1031.2645 2246.1284 9269606
1604.6451 1034.5723 2253.3328 9204070
1618.017 1034.5839 2253.3579 8810339
1637.2401 1038.306 2261.4648 8809828
1644.3215 1034.3302 2252.8054 8941928
1647.4165 1027.931 2238.8679 10126202
1664.4672 1030.2725 2243.9675 9599347
1675.026 1028.5902 2240.3037 9008492
1688.057 1028.4406 2239.9778 9139053
1701.3369 1028.4438 2239.9849 8285540
1699.8699 1019.6016 2220.7261 3356730
1704.4376 1014.4872 2209.5869 7638161
1718.9028 1015.2968 2211.3501 10401465
1726.7816 1012.2333 2204.6777 10993859
1733.8518 1008.7454 2197.0808 12110279
1742.5876 1006.2711 2191.6919 13095373
1754.0576 1005.4009 2189.7964 13161165
1768.7522 1006.3779 2191.9246 13357520
1778.6814 1004.6492 2188.1594 13423312
1796.0623 1007.124 2193.5496 13357519
1808.7709 1006.962 2193.1968 13291726
