# .PCD v0.7 - Point Cloud Data file format
VERSION 0.7
FIELDS x y z rgb
SIZE 4 4 4 4
TYPE F F F U
COUNT 1 1 1 1
WIDTH 1361
HEIGHT 1
VIEWPOINT 0 0 0 1 0 0 0
POINTS 1361
DATA ascii
-583.17682 1371.0646 9081.8984 19
-528.23071 1368.1514 9062.6006 19
-473.83606 1366.1685 9049.4658 19
-420.96732 1368.6404 9065.8398 19
-367.10822 1368.1447 9062.5566 19
-312.71109 1365.1304 9042.5898 19
-258.43933 1361.5299 9018.7402 19
-204.27638 1356.7745 8987.2412 19
-150.56564 1352.7277 8960.4346 19
-97.528366 1353.6183 8966.334 19
-44.335381 1351.8931 8954.9062 19
8.7104502 1348.3556 8931.4736 19
61.511223 1345.5327 8912.7754 19
113.8673 1340.0846 8876.6875 19
166.1687 1337.6395 8860.4912 19
218.52464 1336.7023 8854.2832 19
269.22977 1327.9854 8796.542 19
320.24677 1323.3851 8766.0703 19
369.51523 1313.8522 8702.9238 18
419.26306 1308.1499 8665.1523 18
469.51749 1305.1003 8644.9521 18
518.54169 1299.5675 8608.3027 18
568.66901 1297.543 8594.8926 18
615.70874 1289.3853 8540.8564 18
662.4823 1281.9519 8491.6182 18
706.29144 1270.2368 8414.0176 18
666.06042 1118.8907 7411.5044 18
792.24829 1248.5367 8270.2764 18
791.59033 1174.8208 7781.9844 18
796.90485 1117.5975 7402.9385 18
812.30505 1079.7523 7152.2529 17
849.93982 1073.7504 7112.4961 17
894.20685 1076.2983 7129.373 16
1012.6058 1163.8182 7709.1035 16
1062.7653 1168.738 7741.6919 13
1096.5026 1155.9382 7656.9067 14
1127.246 1141.125 7558.7842 65549
1096.228 1067.3119 7069.8481 65545
1125.3721 1055.3521 6990.6265 262144
1163.8744 1052.7059 6973.0981 6180420
1139.5474 995.36157 6593.2505 9929327
1184.9348 1000.6943 6628.5742 9928294
1221.0796 998.12952 6611.5854 9994087
1262.8894 1000.2111 6625.3735 9993830
1303.7832 1001.4634 6633.6689 9861988
1339.5811 998.84271 6616.3096 9993831
1374.1335 995.46893 6593.9614 10059624
1412.041 994.6449 6588.5034 10125160
1450.86 994.49005 6587.4775 9993831
1488.7761 993.74078 6582.5142 9993574
1517.0635 986.76666 6536.3179 9927525
1564.0227 991.98242 6570.8672 9861989
1596.4924 987.97815 6544.3428 9993831
1649.962 996.8512 6603.1177 9664865
1669.2639 985.14832 6525.5981 9796450
1703.269 982.45642 6507.7671 9730657
1755.309 990.05597 6558.1064 9862243
1800.2458 993.40668 6580.3013 9862243
1835.1836 991.2146 6565.7812 9796450
1876.1278 992.29041 6572.9072 9599071
1915.0938 992.29749 6572.9536 9467484
1950.6383 990.56665 6561.4888 9795937
1981.9188 986.78064 6536.4102 9796194
2010.041 981.59729 6502.0762 9599071
2040.6732 977.81158 6477 9664863
2076.2354 976.4845 6468.209 9796450
2118.342 978.2276 6479.7554 9665120
2163.5144 981.29913 6500.1011 9335899
2202.1545 981.35223 6500.4526 9401436
2249.6472 985.28064 6526.4746 9861730
2281.2358 982.22845 6506.2568 9466971
2313.4946 979.56158 6488.5918 9795682
2342.3005 975.5437 6461.9775 9861218
2420.0374 991.70648 6569.0396 9663841
2483.4966 1001.5995 6634.5703 9072215
2469.3757 980.38348 6494.0356 4138778
2435.5352 952.1095 6306.75 6769973
2525.762 972.45825 6441.5396 7230001
2570.6575 975.00763 6458.4268 7689782
2531.3254 946.00482 6266.3125 9663319
2594.2881 955.51727 6329.3228 8347715
2550.0466 925.83655 6132.7183 11966844
2587.8977 926.37604 6136.292 9729369
2502.3547 883.34198 5851.2358 6175005
2513.6567 875.20374 5797.3281 7161901
2522.1221 866.31073 5738.4204 4793359
2523.5393 855.26544 5665.2573 983552
2515.3213 841.28766 5572.6685 12886403
2620.5559 865.1264 5730.5757 13083529
2643.459 861.52252 5706.7041 13149322
2769.3232 891.14191 5902.9019 12820871
2849.7498 905.58295 5998.5596 13282191
2936.4128 921.62585 6104.8271 13939611
2995.5542 928.7453 6151.9858 10979698
3062.583 938.10956 6214.0146 9994350
3064.01 927.39532 6143.0439 9271402
3095.7515 926.00037 6133.8037 9401963
3153.0088 932.18158 6174.7476 9467238
3183.4858 930.3941 6162.9077 9598565
3129.9224 904.3645 5990.4883 9664101
3137.23 896.30963 5937.1328 8745568
3238.1267 914.87537 6060.1118 10258550
3271.4512 914.15198 6055.3203 10454379
3411.082 942.82745 6245.2656 10846814
3493.0686 955.12531 6326.7266 11702124
3607.4353 975.92188 6464.4824 13017981
3524.9338 943.58221 6250.2651 12820861
3619.457 958.80951 6351.1309 13612177
3577.9883 938.06958 6213.7495 13875866
3556.0605 922.823 6112.7568 13216397
3639.7317 935.01123 6193.4917 12689540
3671.6248 933.78778 6185.3872 9202261
3753.1704 945.09155 6260.2632 9333847
3794.2698 946.08893 6266.8696 9400154
3876.6267 957.25464 6340.8311 9333591
3939.8828 963.53467 6382.4297 9728349
3933.7642 952.89026 6311.9214 9728349
3974.2361 953.62598 6316.7949 9859678
4090.6667 972.40448 6441.1831 9662556
4232.9175 996.91656 6603.5508 9793882
4300.2881 1003.5058 6647.1978 10912362
4274.1426 988.35089 6546.8115 12096635
4231.1709 969.61255 6422.6895 13083784
4182.9946 950.02631 6292.9512 13083785
4267.7026 960.69971 6363.6514 12031097
4360.5967 973.01294 6445.2134 11701877
4340.2178 960.05615 6359.3887 11767670
4319.3574 947.21692 6274.3418 11570293
4478.5132 973.73676 6450.0083 10386277
4562.5669 983.61694 6515.4546 10188644
4600.0859 983.3833 6513.9067 10057572
4539.5093 962.35767 6374.6333 9925988
4526.2148 951.61993 6303.5068 9268317
4524.5786 943.48914 6249.6489 8939867
4462.3604 922.96002 6113.6646 8611417
4497.5049 922.73712 6112.188 8545623
4463.4424 908.43225 6017.4331 9796972
4497.27 908.06226 6014.9819 10849920
4564.0928 914.30768 6056.3516 10585980
4547.2534 903.82678 5986.9263 8875103
4499.8877 887.48767 5878.6963 7032384
4732.042 926.10419 6134.4912 12097667
4895.6748 950.82379 6298.2334 12426886
5005.271 964.75397 6390.5063 12754826
5153.877 985.9375 6530.8257 11965309
5071.8599 963.01587 6378.9932 11702138
5035.3428 949.00867 6286.2104 11438710
5074.6821 949.39899 6288.7954 9925473
5321.582 988.33197 6546.6865 9334108
5349.3813 986.30432 6533.2554 8610386
5345.9336 978.58588 6482.1284 8544594
5127.4478 931.89508 6172.8501 8873816
5051.1396 911.52319 6037.9067 8873559
5039.4805 903.02222 5981.5967 7952457
4949.8848 880.77216 5834.2129 8479828
4930.437 871.22614 5770.9805 8479827
5028.6621 882.46167 5845.4043 8545879
5200.6104 906.3924 6003.9204 8282451
5233.1851 905.87195 6000.4736 4532763
5044.3091 867.28406 5744.8682 8151635
4977.9849 850.14288 5631.3257 10454906
5171.249 877.26746 5810.998 11441030
5229.3516 881.25562 5837.415 3416863
5265.0591 881.44202 5838.6499 3544340
5537.7075 921.03412 6100.9072 11308926
5590.9189 923.85248 6119.5762 11571583
5679.1074 932.37708 6176.0425 11308665
5691.3936 928.41064 6149.7695 12031617
5677.2188 920.20581 6095.4209 12754825
5666.9956 912.74139 6045.9761 12491138
5620.8784 899.62567 5959.0981 12030842
5532.3247 879.92426 5828.5962 11438704
5596.6123 884.62592 5859.7402 11438706
0 0 0 0
0 0 0 0
0 0 0 0
-7017.8711 1199.9447 7648.1738 12
-6977.7021 1200.8319 7653.8291 12
-7977.1733 1381.819 8807.3994 12
-6884.2485 1200.3546 7650.7871 12
-7011.394 1230.6292 7843.75 12
-7926.1338 1400.4677 8926.2617 12
-7905.4395 1406.196 8962.7734 12
-6759.4536 1210.4845 7715.3525 12
-7725.5176 1392.9094 8878.0879 12
-6972.6787 1265.7933 8067.8784 12
-6943.5771 1269.2133 8089.6768 12
-6916.5273 1273.0586 8114.1855 12
-6369.2993 1180.5432 7524.5132 12
-6783.9746 1266.2682 8070.9048 12
-7524.4175 1414.4484 9015.3721 12
-6388.1284 1209.4351 7708.6641 12
-7502.5303 1430.6506 9118.6416 12
-6261.082 1202.582 7664.9839 12
-7634.2402 1477.0441 9414.3428 12
-7626.584 1486.4255 9474.1377 12
-7600.0767 1492.245 9511.2295 12
-7341.1396 1452.1736 9255.8242 12
-5936.8657 1183.2308 7541.644 12
-6978.1812 1401.3165 8931.6729 12
-6466.3579 1308.4603 8339.8281 12
-5771.0215 1176.7539 7500.3613 12
-5751.9644 1181.9717 7533.6182 11
-5722.3599 1185.0867 7553.4722 267
-5738.7397 1197.8491 7634.8174 267
-5720.5049 1203.532 7671.0386 267
-5609.7212 1189.6785 7582.7393 267
-5608.2192 1198.9642 7641.9253 11
-5651.9995 1218.1608 7764.2798 267
-5664.4556 1230.866 7845.2593 267
-5631.2563 1233.7784 7863.8228 267
-5660.8813 1250.6189 7971.1597 267
-5636.0581 1255.6127 8002.9893 267
-5541.3081 1244.9806 7935.2231 267
-5517.4106 1250.2213 7968.6265 267
-5518.1206 1261.1768 8038.4531 11
-5568.0586 1283.672 8181.8325 11
-5670.7671 1318.8351 8405.9551 11
-5645.7339 1324.6499 8443.0166 267
-5614.7324 1329.1556 8471.7354 11
-5634.0332 1345.7579 8577.5547 11
-5597.6831 1349.2488 8599.8047 12
-5525.9478 1344.1962 8567.6006 12
-5635.4009 1383.533 8818.3242 12
-5609.3384 1390.0247 8859.7012 12
-5575.916 1394.798 8890.125 12
-5561.8862 1404.5597 8952.3438 12
-5568.8486 1419.8616 9049.874 11
-5492.0474 1413.8967 9011.8555 12
-5598.6963 1455.5066 9277.0674 12
-5415.3843 1421.8125 9062.3086 12
-5410.4106 1434.735 9144.6738 12
-5353.4282 1433.988 9139.9131 12
-5318.4482 1439.1794 9173.002 12
-5313.6577 1452.7318 9259.3818 12
-5250.4521 1450.4299 9244.71 12
-5199.8281 1451.5918 9252.1162 12
-5174.4722 1459.9077 9305.1191 12
-5137.7217 1465.1531 9338.5518 13
-5097.5342 1469.5219 9366.3975 14
-5063.79 1475.8647 9406.8262 14
-5019.4902 1479.2382 9428.3271 14
-4999.3652 1489.8921 9496.2334 14
-4961.8906 1495.5592 9532.3535 14
-4969.7051 1515.1647 9657.3145 14
-4850.1113 1495.9302 9534.7178 14
-4800.3589 1498.0371 9548.1475 270
-4754.7852 1501.5144 9570.3105 270
-4733.1709 1512.7328 9641.8145 13
-4688.9785 1516.9213 9668.5107 14
-4639.7847 1519.5752 9685.4268 270
-4598.604 1524.9531 9719.7041 270
-4540.8628 1524.9061 9719.4043 270
-4494.6963 1528.7948 9744.1895 269
-4436.1128 1528.5062 9742.3506 268
-4386.5103 1531.3453 9760.4463 268
-4342.2383 1536.1461 9791.0459 268
-4314.936 1547.1616 9861.2559 268
-4284.2798 1557.2605 9925.624 270
-4191.3345 1544.6844 9845.4668 270
-4179.6938 1562.1404 9956.7275 270
-4060.1228 1539.1803 9810.3848 14
-3979.3054 1530.458 9754.791 14
-3923.5466 1531.2579 9759.8896 14
-3880.8892 1537.2719 9798.2207 15
-3817.2654 1535.037 9783.9766 16
-3756.4121 1533.8645 9776.5029 16
-3674.7322 1524.0179 9713.7432 15
-3613.0618 1522.2885 9702.7197 15
-3558.334 1523.4755 9710.2861 15
-3492.7644 1519.9834 9688.0283 17
-3432.3008 1518.6339 9679.4268 18
-3369.239 1516.0692 9663.0801 18
-3320.1199 1519.7982 9686.8477 18
-3249.8423 1513.8027 9648.6338 18
-3197.415 1516.0562 9662.9971 18
-3139.7141 1515.8457 9661.6553 18
-3077.875 1513.5924 9647.293 18
-3016.25 1511.3611 9633.0713 19
-2958.1511 1510.8445 9629.7793 19
-2898.2393 1509.3635 9620.3398 18
-2843.2388 1510.4323 9627.1514 18
-2772.9685 1503.2668 9581.4805 18
-2714.3433 1502.2466 9574.9775 18
-2658.7957 1502.9226 9579.2861 18
-2596.2935 1499.611 9558.1787 18
-2542.282 1501.1653 9568.0859 18
-2474.6636 1494.5728 9526.0664 18
-2412.1953 1490.8552 9502.3721 18
-2349.2917 1486.6848 9475.79 18
-2287.6379 1483.12 9453.0693 18
-2228.5166 1481.0594 9439.9355 19
-2162.1853 1473.9777 9394.7979 19
-2108.1875 1475.1517 9402.2812 19
-2044.2156 1469.2208 9364.4795 19
-1989.8191 1470.0331 9369.6562 19
-1930.7856 1467.3679 9352.6689 19
-1863.3083 1457.9382 9292.5664 19
-1805.1072 1455.4136 9276.4746 19
-1751.5892 1456.6246 9284.1943 19
-1695.3121 1455.5455 9277.3154 19
-1638.4814 1453.9027 9266.8447 19
-1579.8147 1450.4604 9244.9043 19
-1537.7631 1462.5732 9322.1084 19
-1455.6165 1436.0333 9152.9492 19
-1407.2045 1442.0078 9191.0293 19
-1340.8546 1429.3419 9110.2998 19
-1285.4668 1427.7889 9100.4014 19
-1225.2089 1420.4536 9053.6475 19
-1020.1196 1236.8455 7883.3716 19
-928.55823 1179.8663 7520.1992 19
-883.84192 1179.6661 7518.9229 19
-996.82507 1401.1012 8930.2998 19
-947.74066 1406.799 8966.6162 19
-889.67841 1399.0554 8917.2607 19
-834.72314 1395.5284 8894.7803 19
-790.60266 1410.861 8992.5068 19
-736.82208 1409.925 8986.541 19
-681.52112 1405.7074 8959.6592 19
-626.38983 1401.1566 8930.6533 19
-571.75122 1396.9696 8903.9658 19
-517.41144 1392.7356 8876.9795 19
-463.72601 1389.5038 8856.3809 19
-410.17651 1385.9065 8833.4521 19
-357.67471 1385.3143 8829.6777 19
-305.42841 1385.6785 8831.999 18
-252.71497 1383.6355 8818.9775 18
-200.20325 1381.9196 8808.041 19
-145.87895 1362.0695 8681.5205 19
-95.843582 1382.4534 8811.4424 19
-43.733795 1385.8978 8833.3975 19
8.5223789 1371.0295 8738.6299 19
60.117542 1366.6688 8710.8359 19
111.56972 1364.5883 8697.5752 19
162.55533 1359.9196 8667.8174 19
214.39502 1362.9224 8686.957 19
264.66733 1356.7275 8647.4727 19
315.11124 1353.2795 8625.4961 19
363.72049 1344.0148 8566.4443 18
413.99619 1342.4231 8556.2988 18
463.34695 1338.5068 8531.3379 18
513.44019 1337.2949 8523.6133 18
561.42645 1331.3038 8485.4277 18
609.31262 1326.08 8452.1318 18
655.03778 1317.304 8396.1953 18
695.90784 1300.6924 8290.3174 18
734.47272 1282.2476 8172.7539 18
690.18646 1130.3907 7204.853 18
719.89655 1110.3591 7077.1763 18
759.04059 1106.2828 7051.1948 18
793.50171 1096.1627 6986.6919 18
856.68921 1124.7618 7168.9761 18
949.89661 1188.21 7573.3794 18
991.01147 1183.7108 7544.7031 18
1034.895 1182.7646 7538.6724 17
1018.3239 1115.6632 7110.9834 16
1085.319 1141.8108 7277.6421 13
1161.7286 1175.4856 7492.2778 11
1112.1771 1083.9203 6908.6611 262148
1138.6632 1070.3317 6822.0508 1510924
1115.053 1012.1997 6451.5303 8219480
1156.2858 1014.8323 6468.3101 9270875
1190.7401 1011.5377 6447.311 9928036
1228.4711 1011.145 6444.8081 10060137
1262.5094 1007.8281 6423.667 10191723
1296.1715 1004.4141 6401.9062 10257003
1326.3544 998.57458 6364.687 10125416
1363.6187 998.24213 6362.5679 10191210
1416.2888 1008.902 6430.5112 10191209
1436.1447 996.24017 6349.8076 10125417
1468.9036 992.9472 6328.8193 10059623
1502.5049 990.37347 6312.415 9796452
1547.4093 995.19415 6343.1411 9599073
1568.8705 985.06671 6278.5913 9862244
1608.41 986.49652 6287.7041 10125415
1656.256 992.84088 6328.1421 10059622
1703.6035 998.61218 6364.9268 9861987
1734.6758 994.79999 6340.6284 9927779
1766.9818 991.8418 6321.7739 9664864
1829.7557 1005.7538 6410.4453 9467485
1838.7037 990.11523 6310.769 9006421
1906.0194 1005.9037 6411.4019 9006164
1931.0396 999.19 6368.6094 9401179
1918.5195 973.68121 6206.0225 9467229
1968.079 980.04584 6246.5894 9598814
2008.5194 981.71844 6257.25 9204056
2038.6311 978.37329 6235.9287 8940884
2089.2141 984.797 6276.8721 8875091
2102.7407 973.83405 6206.9966 8940884
2138.4429 973.3418 6203.8589 9401179
2203.6248 986.05731 6284.9048 9466971
2247.4255 988.94171 6303.2896 9466974
2302.8997 996.78455 6353.2778 9729889
2306.9539 982.4765 6262.0815 9730147
2379.4387 997.30316 6356.583 9664352
2376.959 980.73706 6250.9951 9993061
2371.2092 963.35095 6140.1797 9598560
2445.4919 978.51373 6236.8237 9532767
2480.4819 977.73694 6231.8726 9401178
2484.0415 964.77576 6149.2607 9664092
2545.8301 974.47778 6211.0996 6374964
2586.7896 976.04407 6221.0825 6768949
2610.5938 971.18433 6190.1079 8280647
2494.2615 915.04865 5832.3115 3545355
2527.4834 914.56311 5829.2173 2098688
2514.8206 897.71136 5721.8081 4136720
2503.1323 881.65125 5619.4443 4006417
2577.8767 896.0564 5711.2598 10123871
2574.9561 883.44208 5630.8589 13015933
2635.4478 892.6283 5689.4097 12950648
2682.2732 897.01221 5717.3516 12885117
2728.4014 901.0564 5743.1284 12689796
2803.4175 914.42371 5828.3286 13611927
2874.791 926.29193 5903.9741 13809822
2920.719 929.77454 5926.1709 11570551
2997.074 942.74524 6008.8438 8479822
3056.1887 950.05206 6055.4155 8610895
3093.7209 950.55804 6058.6401 8216653
3095.4463 940.1767 5992.4722 8020048
3140.2681 942.97211 6010.2896 7099979
3036.9128 901.70862 5747.2852 3023644
3172.7634 931.59674 5937.7856 10783096
3205.2339 930.80743 5932.7544 9796201
3282.6096 942.9342 6010.0483 9795429
3413.2903 969.94843 6182.2305 9860706
3439.7639 967.09088 6164.0171 11834492
3408.0242 948.09875 6042.9653 12492417
3478.2983 957.5863 6103.437 12952198
3485.469 949.68481 6053.0747 12886661
3509.1357 946.39313 6032.0942 13348239
3552.446 948.41229 6044.9639 13216654
3598.6438 951.15424 6062.4404 11967364
3673.8545 961.43457 6127.9648 12822416
3700.542 958.93958 6112.0625 11572098
3696.2817 948.55096 6045.8481 10190189
3749.3955 952.94409 6073.8486 10321259
3781.9585 952.08014 6068.3418 9860450
3831.8235 955.54706 6090.4395 9465178
3908.647 965.60919 6154.5732 9464921
3993.2388 977.38672 6229.6406 8938833
4051.2219 982.49542 6262.2021 8873297
4126.9673 991.77985 6321.3789 9860192
4113.6616 979.68927 6244.3164 9202518
4124.5835 973.53284 6205.0767 10978928
4132.686 966.8255 6162.3257 12360840
4181.2666 969.62256 6180.1533 12426631
4177.7539 960.39557 6121.3428 13216147
4165.6685 949.37372 6051.0918 11308151
4316.1816 975.28064 6216.2168 10782063
4406.7139 987.31049 6292.8921 11044466
4384.6938 974.13318 6208.9028 10912880
4385.9443 966.302 6158.9893 10517865
4349.1392 950.28503 6056.9004 9926498
4379.2554 949.03265 6048.9185 9531228
4347.3262 934.46399 5956.061 8280387
4311.771 919.35699 5859.772 2956051
4332.5947 916.41644 5841.0298 11048589
4284.1294 898.98273 5729.9111 10455680
4351.1318 905.86255 5773.7617 9599345
4414.1152 911.80487 5811.6367 10059379
4467.0601 915.59753 5835.8101 8545626
4419.1206 898.81281 5728.8281 10782832
4721.2095 952.93427 6073.7861 9992548
4884.0117 978.33557 6235.6885 11702651
4909.4932 976.05475 6221.1504 12295046
4970.3774 980.79382 6251.3569 12755340
4989.8369 977.34906 6229.4004 12820620
4950.437 962.5108 6134.8247 12491654
5017.877 968.51038 6173.0645 11373432
5126.4473 982.3042 6260.9834 10781552
5147.6768 979.28424 6241.7349 9268058
4992.7798 943.04053 6010.7256 9202010
4886.3813 916.40582 5840.9619 8807508
4847.2344 902.66962 5753.4106 8873559
4806.5737 888.8454 5665.2983 8545621
4750.8281 872.44287 5560.752 7625030
4455.8848 812.64246 5179.5981 12034187
4776.2646 865.11224 5514.0283 14401704
4910.3179 883.34943 5630.2681 7756097
4957.9995 885.90741 5646.5718 11441018
4840.1289 859.04803 5475.3765 11375226
4882.7466 860.84088 5486.8037 11901826
4958.5742 868.42633 5535.1519 13283483
5091.3882 885.8269 5646.0591 12031366
5240.5767 905.83057 5773.5576 1641482
5360.8901 920.61591 5867.7964 4663842
5407.4131 922.62067 5880.5737 9465698
5600.1558 949.38806 6051.1836 9860711
5618.2227 946.39081 6032.0791 9531485
5524.6055 924.73694 5894.063 11241333
5350.6147 889.98657 5672.5718 11307640
5333.9082 881.6684 5619.5537 7952454
5287.8232 868.6275 5536.4336 8610385
0 0 0 0
0 0 0 0
0 0 0 0
0 0 0 0
-7431.5508 1327.2457 8151.6548 12
-8012.4033 1440.3466 8846.2959 12
-6261.5259 1133.014 6958.7266 12
-6280.2861 1143.9429 7025.8486 12
-6777.0854 1242.6726 7632.2251 12
-6134.3481 1132.3752 6954.8027 12
-6766.7935 1257.5714 7723.7305 12
-6756.5254 1264.2145 7764.5312 12
-6683.3638 1259.1003 7733.1206 12
-6670.4365 1265.3413 7771.4517 12
-6003.6084 1146.7657 7043.1865 12
-6085.2993 1170.5077 7189.0039 12
-6090.7603 1179.8181 7246.1865 12
-6102.8213 1190.5482 7312.0884 12
-6003.0986 1179.469 7244.042 12
-5981.3965 1183.6697 7269.8423 12
-5964.4189 1188.8733 7301.8013 12
-6750.8716 1355.4689 8324.9951 12
-6391.7129 1292.8032 7940.1167 12
-6937.7148 1413.646 8682.3066 12
-6719.1094 1379.3322 8471.5586 12
-6860.2925 1418.917 8714.6797 12
-6882.353 1434.2771 8809.0186 12
-5620.4082 1180.2412 7248.7852 12
-6384.0679 1350.9291 8297.1133 12
-5402.4272 1152.078 7075.8125 11
-6342.769 1363.1886 8372.4082 267
-6293.3999 1363.2422 8372.7373 267
-5681.8384 1240.5498 7619.1875 267
-6048.0908 1331.094 8175.29 267
-6520.4248 1446.636 8884.9238 11
-6361.0479 1422.7653 8738.3154 11
-5383.9053 1214.0933 7456.6973 12
-5883.4966 1337.7332 8216.0664 12
-5798.4829 1329.4053 8164.9185 12
-5824.1958 1346.537 8270.1377 12
-5827.6074 1358.7596 8345.207 12
-5832.4614 1371.5309 8423.6445 12
-5795.9951 1374.7218 8443.2432 12
-5729.8901 1370.8774 8419.6318 12
-4908.0063 1184.557 7275.2915 12
-5611.4829 1366.3451 8391.7949 12
-5422.542 1332.1459 8181.7505 12
-4814.8691 1193.5323 7330.416 12
-4796.5342 1199.8124 7368.9873 12
-5511.0122 1391.1992 8544.4434 12
-5466.8076 1392.8379 8554.5078 12
-5496.9917 1413.6375 8682.2539 267
-5462.5034 1418.0414 8709.3018 12
-5388.084 1412.0646 8672.5938 11
-5402.9849 1429.6062 8780.3311 12
-5411.5889 1445.8069 8879.832 12
-5372.5327 1449.4673 8902.3135 12
-5296.9946 1443.2601 8864.1904 12
-5353.3145 1473.2155 9048.1699 12
-5313.52 1477.0593 9071.7773 12
-5201.9526 1460.826 8972.0762 12
-5159.0435 1463.7373 8989.957 12
-5212.7666 1494.4122 9178.3555 12
-5132.9453 1487.0455 9133.1104 12
-5152.7441 1508.6899 9266.0459 12
-5099.9243 1509.3093 9269.8496 12
-5068.4009 1516.3134 9312.8672 13
-4998.2939 1511.8014 9285.1562 13
-4943.0688 1511.7406 9284.7822 13
-4903.6035 1516.5524 9314.335 14
-4868.8398 1522.9442 9353.5928 11
-4841.7573 1531.9138 9408.6816 11
-4810.9941 1539.9141 9457.8174 267
-4753.1484 1539.3323 9454.2441 11
-4697.8052 1539.5566 9455.6221 268
-4648.645 1541.8372 9469.6289 268
-4591.7173 1541.5658 9467.9619 270
-4534.7266 1541.266 9466.1211 270
-4484.1064 1543.1511 9477.6992 270
-4430.0942 1543.9022 9482.3115 270
-4408.5537 1556.1342 9557.4385 270
-4370.0996 1562.6368 9597.376 270
-4315.5186 1563.4683 9602.4824 270
-4267.7402 1566.8195 9623.0654 270
-4220.248 1570.3678 9644.8584 270
-4171.7314 1573.6274 9664.8779 14
-4137.0815 1582.281 9718.0264 14
-4070.3469 1578.7347 9696.2451 14
-3988.1841 1569.017 9636.5615 14
-3925.5308 1566.8037 9622.9678 14
-3866.3816 1565.9446 9617.6914 15
-3828.2649 1573.7056 9665.3574 16
-3767.9131 1572.4231 9657.4814 16
-3702.3713 1568.902 9635.8555 16
-3646.8215 1569.571 9639.9648 17
-3574.0474 1562.73 9597.9482 18
-3531.0857 1568.9141 9635.9287 18
-3468.1489 1566.2798 9619.751 18
-3408.0588 1564.8651 9611.0615 18
-3346.0178 1562.4911 9596.4814 18
-3289.5505 1562.6827 9597.6582 18
-3257.1472 1574.5138 9670.3213 18
-3176.1174 1562.8416 9598.6328 18
-3121.0828 1563.7678 9604.3223 18
-3068.2258 1565.84 9617.0488 18
-2998.9856 1559.4712 9577.9336 18
-2938.8777 1557.6971 9567.0381 18
-2879.1211 1556.0432 9556.8799 18
-2820.0027 1554.6748 9548.4746 18
-2758.9817 1552.1798 9533.1514 18
-2693.0715 1546.7725 9499.9404 18
-2625.5708 1540.2012 9459.5811 18
-2565.8735 1538.0208 9446.1895 18
-2502.9722 1533.7795 9420.1406 18
-2440.4395 1529.5758 9394.3223 18
-2378.823 1525.7635 9370.9082 18
-2319.1223 1523.0272 9354.1025 18
-2257.1577 1518.6337 9327.1182 18
-2201.8274 1518.595 9326.8809 19
-2143.1196 1516.1652 9311.957 19
-2082.9722 1512.5615 9289.8242 19
-2017.8646 1505.0624 9243.7666 19
-1972 1511.8981 9285.75 19
-1919.6688 1514.0261 9298.8193 19
-1856.5232 1507.4985 9258.7285 19
-1799.5289 1505.7205 9247.8076 19
-1736.6888 1498.7856 9205.2158 19
-1677.2852 1494.4628 9178.666 19
-1713.7114 1578.0967 9692.3271 19
-1649.3333 1571.4849 9651.7188 19
-1496.3815 1476.9731 9071.248 19
-1469.6921 1504.6864 9241.457 19
-1381.4285 1469.0647 9022.6758 19
-1326.7865 1467.7684 9014.7148 19
-1269.8029 1463.6644 8989.5088 19
-1212.6761 1459.0288 8961.0381 19
-1190.6688 1498.1575 9201.3574 19
-1143.0481 1507.2671 9257.3076 19
-1072.2323 1485.1676 9121.5771 19
-989.3515 1443.1227 8863.3457 19
-940.87524 1449.3613 8901.6621 19
-877.70508 1432.3613 8797.252 19
-823.68976 1429.0979 8777.209 19
-777.31213 1439.5391 8841.3359 19
-720.72076 1431.2073 8790.1641 19
-667.0451 1427.8182 8769.3496 19
-611.01941 1418.4012 8711.5127 19
-560.0932 1420.1764 8722.415 19
-507.34146 1417.2129 8704.2139 19
-454.5144 1413.3445 8680.4551 19
-401.69897 1408.5294 8650.8818 19
-350.91638 1410.4764 8662.8398 18
-298.57202 1405.7375 8633.7344 18
-247.90318 1408.5586 8651.0605 18
-196.46031 1407.3062 8643.3691 19
-146.31847 1417.7767 8707.6768 19
-94.677979 1417.2241 8704.2822 19
-44.120491 1450.9635 8911.5029 19
8.445344 1409.9554 8659.6406 19
63.172218 1490.3569 9153.4482 19
109.82551 1393.9933 8561.6035 19
160.03931 1389.4432 8533.6582 19
210.16223 1386.4785 8515.4502 19
261.13666 1389.192 8532.1162 19
313.31476 1396.3898 8576.3223 19
377.65033 1448.1989 8894.5234 18
407.56262 1371.4801 8423.333 18
456.03326 1367.1396 8396.6748 18
504.61877 1363.9637 8377.1689 18
554.03979 1363.413 8373.7861 18
599.94208 1355.0051 8322.1475 18
643.20959 1342.3762 8244.583 18
686.11157 1330.8213 8173.6152 18
724.40686 1312.4441 8060.7466 18
766.41028 1302.6433 8000.5527 18
795.01416 1272.5367 7815.644 18
834.05695 1261.5339 7748.0674 18
875.26807 1254.7881 7706.6357 18
909.69733 1239.4709 7612.561 18
899.86938 1168.1493 7174.5195 18
986.31421 1222.5999 7508.9429 18
1035.2725 1227.8881 7541.4219 16
1072.9801 1219.9469 7492.6489 16
1068.9836 1167.1047 7168.104 14
1094.3622 1149.1475 7057.8145 13
1137.1304 1150.1003 7063.6665 131083
1061.762 1035.7439 6361.314 393219
1100.21 1036.45 6365.6504 4009513
0 0 0 0
1159.1179 1021.868 6276.0918 9731171
1180.0603 1007.9866 6190.835 9599585
1219.3041 1010.1038 6203.8379 9665122
1249.8442 1005.0976 6173.0913 9861988
1286.3198 1005.0136 6172.5757 10191210
1324.7332 1006.4066 6181.1304 9927781
1359.0702 1004.7108 6170.7158 9861988
1390.8412 1001.2568 6149.5015 9928038
1426.1775 1000.4803 6144.7324 10059367
1454.7881 995.14178 6111.9443 10059624
1490.8931 995.06451 6111.4702 10125417
1531.4802 997.91144 6128.9556 9993574
1558.0807 991.72412 6090.9541 9993831
1607.3862 999.94147 6141.4233 9928038
1635.1371 994.68274 6109.1255 9796195
1674.6964 996.67969 6121.3901 9730658
1711.9413 997.24371 6124.8545 9730401
1722.894 982.78656 6036.0615 9796449
1755.9803 981.28625 6026.8472 9796450
1788.9736 979.7948 6017.687 9796193
1826.6771 980.89099 6024.4194 9730400
1867.1888 983.42432 6039.9785 9467484
1899.4038 981.57452 6028.6177 9533278
1937.0681 982.55737 6034.6538 9401692
1979.1786 985.71881 6054.0708 9467229
2022.5305 989.375 6076.5264 9533022
2056.4512 988.37048 6070.3569 9401693
2092.8694 988.58026 6071.645 9269336
2129.7944 989.01825 6074.335 9138007
2151.5127 982.49738 6034.2852 9401181
2198.9482 987.7417 6066.4951 9335387
2226.5024 984.0304 6043.7012 9532510
2250.2688 978.78918 6011.5107 9664352
2280.4351 976.45148 5997.1533 9861732
2312.8374 975.12854 5989.0278 9730146
2356.4919 978.51782 6009.8438 9598303
2379.5857 973.39563 5978.3848 9795682
2393.9917 964.92206 5926.3418 9861733
2417.0488 960.13007 5896.9102 9795687
2516.1892 985.26648 6051.293 3350806
2481.4487 958.00934 5883.8853 3021587
2478.686 943.68225 5795.8916 4202779
2495.9087 937.25146 5756.395 1310720
2505.6431 928.22028 5700.9272 3609864
2510.8811 917.78558 5636.8398 2492416
2576.0786 929.25397 5707.2759 7227962
2541.543 904.9151 5557.792 12687478
2589.4919 910.19183 5590.2002 13015928
2614.6238 907.4165 5573.1548 12753012
2656.698 910.51691 5592.1973 13412739
2710.325 917.4516 5634.7886 13743254
2738.9106 915.84412 5624.9155 14206374
2808.3362 927.76727 5698.145 13611673
2892.387 944.18134 5798.9565 11768185
2995.991 966.51776 5936.1421 11505270
3013.8062 960.9812 5902.1377 9268566
3031.3416 955.48346 5868.3721 7755329
3065.4172 955.26471 5867.0288 6769985
3014.9473 928.99994 5705.7158 1640708
3069.3076 935.26093 5744.1694 11373948
3082.0554 928.84375 5704.7563 11505532
3176.8069 947.01117 5816.3369 10913391
3229.5352 952.39587 5849.4087 10913392
3285.0007 958.46497 5886.6836 11373173
3356.6987 969.09283 5951.9575 11504757
3363.739 961.02679 5902.4175 12491651
3411.5361 964.65118 5924.6782 12820869
3425.2327 958.65778 5887.8677 12755077
3440.6582 953.26416 5854.7417 12491905
3479.4316 954.38245 5861.6099 12360834
3505.9504 952.15051 5847.9019 13019022
3525.3198 948.03955 5822.6533 13676955
3552.8579 946.18384 5811.2559 11636861
3586.6794 946.02112 5810.2563 8807762
3629.6562 948.25317 5823.9653 9663071
3715.9094 961.64282 5906.2012 9925731
3756.9236 963.18439 5915.6694 9925985
3816.708 969.46515 5954.2441 9794143
3821.7053 961.8421 5907.4253 9859936
3873.5588 966.04315 5933.2271 9793886
3912.0164 966.85773 5938.23 9859424
3888.1626 952.39478 5849.4019 9662817
3974.0601 964.83319 5925.7959 9334110
3962.8381 953.68121 5857.3032 8807763
4081.5806 973.72821 5980.4272 10257004
4172.4219 986.83105 6060.9023 13875619
4223.0645 990.28381 6082.1084 14072739
4275.8848 994.18451 6106.0654 13019795
4259.5117 982.06671 6031.6401 11571066
4259.9243 973.98822 5982.0244 10780780
4317.0718 978.90808 6012.2407 10780781
4303.957 967.94556 5944.9111 10123878
4233.7773 944.43164 5800.4941 9729378
4181.8691 925.33942 5683.2334 9400931
4192.5059 920.28119 5652.1675 8809308
4223.3579 919.70544 5648.6309 8677982
4238.2871 915.69855 5624.0215 7888209
4190.6621 898.34454 5517.437 9664873
4236.5127 901.1424 5534.6206 11243391
4375.6431 923.58606 5672.4648 10190187
4412.1978 924.20154 5676.2451 9927014
4601.1948 956.4975 5874.6001 10716272
4693.0449 968.2652 5946.8745 10650221
4815.6685 986.15918 6056.7759 10584428
4803.3848 976.36633 5996.6299 11636859
4853.8818 979.38477 6015.1685 12097152
4828.0361 967.0675 5939.519 12952204
4933.0649 980.95355 6024.8037 13083791
4970.1943 981.2348 6026.5312 12623240
4912.9312 963.00983 5914.5972 11176308
4841.0981 942.20728 5786.8325 9991778
4724.1016 912.96924 5607.2588 9465689
4619.7671 886.56958 5445.1177 9531995
4486.834 855.08582 5251.7515 10717293
4472.1445 846.41522 5198.4985 12296582
4496.9326 845.28387 5191.5498 13086871
4515.7593 843.05475 5177.8594 14208441
4580.1548 849.30579 5216.252 13088156
4669.8848 860.13922 5282.7881 11110251
4884.8384 893.7395 5489.1543 11637108
4793.2754 871.18555 5350.6323 11833973
4858.0234 877.15106 5387.271 12294527
5181.8809 929.51709 5708.8921 10321002
5171.2471 921.59265 5660.2217 8939352
5260.8647 931.52136 5721.2021 8741462
5291.2715 930.90594 5717.4224 8346702
5262.7124 919.99036 5650.3809 6767922
5298.9619 920.47046 5653.3296 3610124
5031.7041 868.55426 5334.4717 4531220
4913.3491 842.82892 5176.4722 4730654
4990.9297 850.82483 5225.5815 2886915
0 0 0 0
0 0 0 0
0 0 0 0
0 0 0 0
-7352.2158 1360.8695 8064.6323 12
-8038.9668 1497.7206 8875.624 12
-6070.1133 1138.3564 6746.0005 12
-6060.2505 1144.0416 6779.6914 12
-6053.2544 1150.3474 6817.0601 12
-6026.9209 1153.0385 6833.0073 12
-6909.0137 1330.7367 7886.0625 12
-6875.9453 1333.3868 7901.7681 12
-6561.7373 1281.1807 7592.3896 12
-6012.9077 1182.1276 7005.3921 12
-6036.6021 1195.0369 7081.8931 12
-5968.6665 1189.8602 7051.2168 12
-6542.2432 1313.3987 7783.3159 12
-6054.1499 1224.0408 7253.7729 12
-5950.8418 1211.7577 7180.9829 12
-6521.5264 1337.5302 7926.3213 12
-5925.0908 1224.0208 7253.6543 12
-5614.5596 1168.3467 6923.7256 12
-5936.8218 1244.502 7375.0278 12
-6755.52 1426.6237 8454.2969 12
-6600.7266 1404.3496 8322.2998 12
-6559.6846 1406.1241 8332.8154 12
-6593.5151 1424.0967 8439.3223 12
-5548.1562 1207.4744 7155.5991 12
-6268.4971 1374.7535 8146.9106 12
-6060.0459 1339.3535 7937.127 11
-6290.6997 1401.2072 8303.6768 267
-6241.3062 1401.1658 8303.4316 267
-6062.1655 1371.7642 8129.1953 267
-5594.729 1276.1326 7562.4741 267
-5876.853 1351.3086 8007.9736 11
-6285.166 1456.9603 8634.0752 11
-6083.957 1421.8938 8426.2676 267
-5092.1099 1199.936 7110.9263 12
-4905.7148 1165.6594 6907.8003 12
-5695.27 1364.6554 8087.0679 13
-4962.8452 1199.2493 7106.8564 14
-4828.8223 1176.8503 6974.1191 13
-4995.0283 1227.8666 7276.4453 14
-4921.4565 1220.3162 7231.7012 14
-4838.2847 1210.2318 7171.9404 12
-5510.8203 1390.6741 8241.2568 12
-5458.9121 1389.8927 8236.627 12
-5414.8833 1391.1216 8243.9092 12
-5397.6597 1399.3219 8292.5049 12
-5346.6035 1398.8214 8289.5391 12
-5347.4268 1412.0106 8367.6992 12
-4693.5518 1250.9526 7413.2559 12
-4853.9331 1305.9222 7739.0103 12
-5248.8213 1425.6349 8448.4375 12
-5249.3291 1439.5039 8530.627 12
-5178.9453 1434.0133 8498.0889 12
-5202.6367 1454.7194 8620.7949 12
-5157.5898 1456.4254 8630.9053 12
-5102.4561 1455.2889 8624.1699 12
-5065.9839 1459.5056 8649.1582 12
-5023.0215 1461.9196 8663.4639 12
-4985.5723 1466.0046 8687.6729 13
-4946.3042 1469.6345 8709.1836 13
-4913.8096 1475.3746 8743.2002 14
-4887.8486 1483.2198 8789.6914 14
-4861.29 1491.0507 8836.0977 14
-4818.0352 1493.8752 8852.8359 14
-4770.6685 1495.473 8862.3047 14
-4778.8179 1514.7029 8976.2627 12
-4772.4492 1529.7122 9065.209 12
-4764.0063 1544.3907 9152.1953 12
-4675.1323 1533.0332 9084.8896 12
-4612.3916 1530.0802 9067.3896 12
-4579.1318 1536.9528 9108.1172 12
-4525.5947 1537.1021 9109.002 12
-4520.4854 1553.9019 9208.5586 12
-4490.0293 1562.2927 9258.2842 13
-4427.7822 1559.6929 9242.877 269
-4387.3882 1564.8224 9273.2744 269
-4333.4707 1565.1971 9275.4961 269
-4280.6147 1565.9698 9280.0752 270
-4236.1143 1569.8595 9303.125 270
-4163.6382 1563.3473 9264.5332 270
-4117.9131 1566.8395 9285.2285 14
-4055.3008 1563.9139 9267.8916 14
-3998.3372 1563.1166 9263.166 13
-3950.2893 1565.8307 9279.251 13
-3894.1895 1565.385 9276.6094 16
-3849.5791 1569.6111 9301.6533 16
-3802.127 1572.7844 9320.459 16
-3742.2417 1570.8324 9308.8916 16
-3684.6719 1569.8085 9302.8232 16
-3629.366 1569.7328 9302.374 16
-3567.1304 1566.6111 9283.875 18
-3521.0188 1570.5839 9307.4189 18
-3454.6316 1565.4954 9277.2627 18
-3398.6133 1565.0168 9274.4268 18
-3339.7363 1563.1844 9263.5684 18
-3280.5928 1561.1638 9251.5947 18
-3225.4441 1561.0083 9250.6719 18
-3192.623 1571.8397 9314.8604 18
-3135.2209 1570.7374 9308.3281 18
-3089.2649 1575.4329 9336.1533 18
-3030.1702 1573.4768 9324.5625 18
-2971.0151 1571.4164 9312.3516 18
-2921.3354 1574.3845 9329.9404 18
-2868.5464 1575.759 9338.0859 18
-2813.512 1575.9297 9339.0986 18
-2753.2449 1573.1178 9322.4346 18
-2692.2417 1569.7612 9302.5439 18
-2642.9526 1573.2374 9323.1436 18
-2578.2808 1567.5099 9289.2012 18
-2500.3635 1553.304 9205.0156 18
-2455.0999 1559.202 9239.9688 18
-2394.8914 1555.6615 9218.9873 18
-2334.8867 1552.0913 9197.8301 18
-2273.5215 1547.4243 9170.1729 18
-2227.8909 1553.5004 9206.1797 18
-2167.1355 1549.0704 9179.9277 19
-2116.3682 1551.7355 9195.7207 19
-2050.7632 1543.3749 9146.1748 19
-1997.9155 1544.422 9152.3809 19
-1944.2474 1544.8755 9155.0684 19
-1882.4575 1538.7166 9118.5693 19
-1812.175 1525.0464 9037.5586 19
-1446.7384 1254.5902 7434.8115 19
-1707.7399 1527.4449 9051.7734 19
-1702.6698 1572.2985 9317.5791 19
-1641.3264 1566.4526 9282.9355 19
-1560.5264 1540.9879 9132.0303 19
-1500.7734 1535.224 9097.873 19
-1481.5295 1572.0138 9315.8916 19
-1385.3167 1526.8203 9048.0713 19
-1307.7292 1499.3419 8885.2324 19
-1271.9834 1519.5431 9004.9463 19
-1204.6082 1502.0736 8901.4199 19
-1178.4125 1536.7037 9106.6416 19
-1135.9399 1552.4136 9199.7393 19
-1064.057 1527.488 9052.0283 19
-986.48364 1491.3134 8837.6543 19
-927.78638 1481.2178 8777.8271 19
-876.39667 1482.2827 8784.1377 19
-821.04663 1476.3608 8749.0439 19
-765.7016 1469.65 8709.2754 19
-712.7243 1466.8423 8692.6367 19
-659.15198 1462.277 8665.582 19
-605.74103 1457.3285 8636.2568 19
-552.55957 1452.0696 8605.0918 19
-500.4458 1448.8324 8585.9082 19
-448.77426 1446.2877 8570.8281 19
-397.02921 1442.8263 8550.3154 19
-346.073 1441.6382 8543.2744 18
-294.9187 1439.0762 8528.0918 18
-243.80656 1435.7029 8508.1016 18
-193.08965 1433.5046 8495.0742 19
-142.62404 1432.2797 8487.8154 19
-92.236259 1430.9272 8479.8008 19
-44.818085 1527.5513 9052.4033 19
8.7753134 1518.368 8997.9824 19
61.407127 1501.4446 8897.6924 19
107.90995 1419.5323 8412.2734 19
157.18869 1414.3658 8381.6562 19
206.38855 1411.1412 8362.5469 19
260.91263 1438.52 8524.7959 19
315.72931 1458.3677 8642.415 19
361.52756 1436.8325 8514.7959 18
400.27066 1395.9675 8272.626 18
446.69049 1387.8721 8224.6523 18
517.48657 1449.6556 8590.7871 18
542.33173 1383.1772 8196.8301 18
590.96021 1383.2996 8197.5547 18
635.09344 1373.6804 8140.5508 18
677.2439 1361.4336 8067.9751 18
717.33008 1346.9259 7982.0015 18
757.14789 1333.7404 7903.8623 18
781.40906 1296.2843 7681.895 18
824.20355 1292.0046 7656.5332 18
848.20929 1260.2557 7468.3862 18
879.24652 1241.585 7357.7412 18
909.5907 1223.7458 7252.0259 18
948.39331 1218.3832 7220.2456 18
1006.9722 1237.7928 7335.2695 15
1033.6072 1217.9548 7217.7075 16
1051.1736 1189.432 7048.6787 16
1087.7229 1183.7483 7014.9966 16
1140.5966 1195.5945 7085.1982 65550
1155.7472 1168.4614 6924.4053 262153
1050.076 1025.2267 6075.5835 458752
0 0 0 0
1099.2025 1004.3179 5951.6768 9468776
1148.4205 1016.665 6024.8462 9797223
1178.3668 1011.7211 5995.5483 9401695
1220.1462 1016.929 6026.4106 8809043
1244.2461 1007.5246 5970.6792 7295804
1289.8455 1015.5681 6018.3457 6572082
1327.9196 1017.4131 6029.2798 8348494
1358.9249 1013.8876 6008.3867 9269595
1376.3435 1000.6637 5930.021 9796452
1416.6014 1004.2903 5951.5122 9928037
1453.9999 1005.7626 5960.2373 9993831
1483.8346 1002.0572 5938.2788 10059367
1512.188 997.5462 5911.5469 10059369
1541.0659 993.57782 5888.0293 10059625
1578.9014 995.4325 5899.0205 9993574
1601.8641 988.03326 5855.1719 9993574
1635.6702 987.49414 5851.9771 9927781
1663.9685 983.72131 5829.6191 9927781
1696.5605 982.58887 5822.9077 10125161
1730.0594 982.01611 5819.5137 9927525
1768.0757 983.97986 5831.1509 9664864
1800.2699 982.69025 5823.5088 9861985
1834.179 982.36761 5821.5972 9730400
1861.4526 978.56885 5799.085 9730658
1917.5559 989.78864 5865.5747 9796193
1981.6276 1004.6487 5953.6367 9335898
2000.0103 996.23071 5903.751 9730400
2019.7738 988.7782 5859.5864 9466971
2047.7524 985.53119 5840.3447 10059108
2095.3411 991.67316 5876.7422 9532767
2126.2439 989.84644 5865.917 9401181
2146.571 983.23431 5826.7329 9401181
2172.3682 979.29718 5803.4014 9335644
2196.082 974.55853 5775.3198 9664096
2228.8845 973.93665 5771.6343 9598303
2268.6724 976.33972 5785.875 9532766
2294.9114 972.92719 5765.6519 9598559
2318.9734 968.70538 5740.6333 9729890
2354.0305 969.13232 5743.1636 9466971
2379.7349 965.75146 5723.1279 9269335
2363.4199 945.65289 5604.022 9138009
2384.6172 940.91254 5575.9307 9269084
2384.1768 927.88092 5498.7041 7953226
2462.5071 945.44373 5602.7827 7558722
2517.8494 953.83051 5652.4834 3023387
2550.6582 953.57288 5650.957 6834745
2514.7407 927.96149 5499.1812 11504503
2506.6267 913.13373 5411.3105 11241327
2523.1555 907.54425 5378.187 11897970
2559.7424 909.21887 5388.1113 11964274
2555.7136 896.60339 5313.3506 12556412
2566.8552 889.55219 5271.5645 12424313
2632.2795 901.25629 5340.9238 12358519
2734.2288 925.03931 5481.8643 12622717
2707.2412 905.15436 5364.0244 12754306
2842.3159 939.28693 5566.2969 11965306
2974.7603 971.77704 5758.8359 11570807
2981.96 963.08002 5707.2969 9794398
3019.0198 964.11377 5713.4229 9465692
3012.0457 951.21851 5637.0044 9465435
3092.2834 965.84589 5723.688 9334106
3126.4785 965.93109 5724.1924 10189670
3176.49 970.84827 5753.332 11044466
3196.1543 966.48444 5727.4717 11176309
3275.4026 980.04059 5807.8066 10583915
3260.7759 965.51831 5721.7461 10188900
3312.7737 970.81946 5753.1616 10780779
3324.7246 964.3963 5715.0972 11900286
3367.7395 967.02264 5730.6611 13150354
3400.9485 966.80872 5729.3936 13281683
3425.2261 964.08533 5713.2544 13413526
3477.7383 969.28448 5744.0649 13610905
3476.2427 959.47614 5685.9399 13610906
3530.7234 965.15784 5719.6099 13084562
3596.001 973.65479 5769.9639 11241589
3594.2969 964.02655 5712.9062 9596764
3651.3489 970.18988 5749.4307 9597021
3680.3469 968.85413 5741.5146 9268057
3643.9336 950.48096 5632.6338 9136212
3740.0024 966.6842 5728.6553 9465176
3726.2371 954.4621 5656.2266 9070163
3770.9976 957.31573 5673.1372 9334106
3842.0996 966.74695 5729.0273 9597278
3865.064 964.00653 5712.7876 9399644
3865.5303 955.75122 5663.8657 9465437
3963.4917 971.53607 5757.4082 8873299
4097.2671 995.75531 5900.9336 10058085
4184.3408 1008.3109 5975.3389 13217175
4217.4067 1007.7504 5972.0176 14072740
4161.9731 986.22839 5844.4761 14073510
4127.3242 969.94611 5747.9858 13347736
4175.9321 973.33606 5768.0752 10189671
4168.6919 963.75952 5711.3237 9334364
4122.5171 945.40845 5602.5732 9729381
4114.1431 935.95001 5546.522 10454131
3956.8955 893.04193 5292.2446 12625300
3983.4104 891.9563 5285.8115 13151387
4056.3015 901.1911 5340.5376 11506815
4050.8342 893.00873 5292.0483 9138266
4167.5161 911.67316 5402.6553 9466201
4283.5879 929.92047 5510.7905 9992548
4336.9971 934.39124 5537.2847 9795168
4468.3979 955.47162 5662.209 9992291
4447.1187 943.83374 5593.2417 9794656
4535.8848 955.55084 5662.6782 9662814
4630.1968 968.25543 5737.9673 9860704
4771.5352 990.53729 5870.0112 9860192
4813.8013 992.07867 5879.1455 11637116
4845.2358 991.38159 5875.0146 12426631
4757.2505 966.43445 5727.1753 13019023
4634.7271 934.87402 5540.1455 11373943
4418.6123 885.01208 5244.6592 11110766
4398.229 874.77612 5184 11506550
4389.2661 866.93793 5137.5508 10387807
4427.9038 868.5448 5147.0728 10323045
4408.0791 858.74042 5088.9712 12691081
4504.687 871.59753 5165.1636 12494742
4540.437 872.58545 5171.0181 14208448
4598.2725 877.77588 5201.7773 14208702
4658.6187 883.37335 5234.9482 11571063
4752.6758 895.24695 5305.312 12886154
4838.6377 905.44952 5365.7734 11307890
4975.8218 925.04132 5481.8765 8806990
5095.0063 941.0545 5576.772 11110003
5125.8936 940.65784 5574.4209 9597023
5209.0205 949.79132 5628.5469 8939095
5015.5757 908.70056 5385.0396 8413521
5030.1919 905.58661 5366.5859 7163455
5111.8369 914.50323 5419.4263 5387304
5097.228 906.19623 5370.1987 6901055
4985.0522 880.75439 5219.4277 4796449
0 0 0 0
0 0 0 0
0 0 0 0
0 0 0 0
-7260.04 1391.0017 7963.5254 12
-8077.6841 1557.7861 8918.3711 12
-6089.6494 1182.1271 6767.7119 12
-6157.7983 1203.2811 6888.8193 12
-6035.0234 1187.1605 6796.5288 12
-6057.5278 1199.5934 6867.7075 12
-5933.4893 1182.9779 6772.583 12
-5924.5435 1189.2386 6808.4263 12
-5963.522 1205.2712 6900.2129 12
-5827.6274 1185.938 6789.5293 12
-6932.1108 1420.5112 8132.4678 12
-6071.251 1252.8159 7172.4077 12
-6656.1118 1383.187 7918.7856 12
-5916.7793 1238.2787 7089.1821 12
-5983.6655 1261.2324 7220.5923 12
-6368.8975 1352.1006 7740.8149 12
-5885.002 1258.4349 7204.5767 12
-5814.8857 1252.5286 7170.7627 12
-5862.2451 1272.0259 7282.3853 12
-6297.4111 1376.585 7880.9893 12
-6085.2656 1340.15 7672.3984 12
-5769.6821 1280.2152 7329.2695 12
-6224.002 1391.498 7966.3667 12
-5564.6001 1253.5845 7176.8076 12
-5867.0913 1331.9092 7625.2192 12
-5574.498 1275.3091 7301.1821 11
-5521.6743 1273.106 7288.5688 267
-5525.3472 1283.9969 7350.9199 267
-5461.4199 1279.2271 7323.6123 267
-5456.6514 1288.3485 7375.833 267
-5443.1636 1295.5419 7417.0151 267
-5394.8379 1294.4932 7411.0112 11
-5705.8486 1380.3578 7902.5884 12
-5132.1602 1251.8459 7166.8545 12
-5639.4038 1387.0527 7940.917 12
-5815.3047 1442.353 8257.5127 12
-5748.0845 1437.7794 8231.3291 11
-5772.9053 1456.347 8337.6289 11
-5162.1953 1313.5242 7519.9639 13
-5632.6636 1445.7157 8276.7646 13
-4853.8511 1256.7648 7195.0151 13
-5529.8364 1444.4808 8269.6953 11
-4903.5112 1292.3281 7398.6162 12
-4845.1929 1288.4794 7376.5815 12
-5473.3203 1468.7688 8408.7441 12
-5435.9404 1472.1409 8428.0498 12
-5386.3521 1472.2389 8428.6104 12
-5385.8369 1485.8772 8506.6904 12
-5347.1406 1489.14 8525.3701 12
-5307.2407 1492.1267 8542.4688 12
-5275.6226 1497.5219 8573.3564 12
-5215.7144 1494.9135 8558.4229 12
-5165.876 1495.1682 8559.8818 12
-5149.0117 1505.0667 8616.5508 12
-5116.4858 1510.5396 8647.8828 12
-5074.0273 1513.1611 8662.8916 12
-5091.9746 1534.0344 8782.3916 11
-5049.6294 1536.9871 8799.2959 11
-4986.4663 1533.5989 8779.8984 11
-4961.9678 1542.156 8828.8887 11
-4920.7305 1545.6378 8848.8213 12
-4877.3687 1548.52 8865.3223 12
-4873.5845 1564.1675 8954.9043 12
-4961.0703 1609.7749 9216.0078 12
-4875.4243 1599.594 9157.7227 12
-4830.98 1602.8542 9176.3867 12
-4709.3159 1580.2764 9047.1289 12
-4684.2695 1589.9735 9102.6455 12
-4656.8389 1599.0779 9154.7676 12
-4550.2231 1580.8855 9050.6162 12
-4550.3496 1599.787 9158.8271 12
-4482.2612 1594.8729 9130.6934 12
-4415.1597 1590.1937 9103.9053 12
-4409.5288 1607.8126 9204.7734 268
-4335.228 1600.5205 9163.0273 269
-4333.2725 1620.0916 9275.0713 269
-4215.8584 1596.4441 9139.6885 14
-4201.6099 1611.7557 9227.3486 14
-4106.4937 1596.0406 9137.3799 14
-4067.1946 1601.89 9170.8672 14
-4029.532 1608.5509 9209.001 15
-3974.4011 1608.3258 9207.7119 16
-3908.0173 1603.4772 9179.9531 16
-3871.5215 1610.9279 9222.6094 16
-3805.9734 1606.3307 9196.29 18
-3796.0969 1625.4375 9305.6768 18
-3732.7959 1621.8948 9285.3945 18
-3679.8613 1622.8175 9290.6777 18
-3603.2273 1613.1582 9235.3779 18
-3541.1309 1609.8097 9216.208 18
-3488.2659 1610.6188 9220.8398 18
-3447.7576 1617.2499 9258.8027 18
-3399.1736 1620.2461 9275.9561 18
-3332.5945 1614.6222 9243.7588 18
-3281.2673 1616.3231 9253.4971 19
-3184.6548 1595.3956 9133.6865 19
-3127.2898 1593.7461 9124.2432 19
-3075.6763 1595.0212 9131.543 20
-3023.0764 1595.8213 9136.123 19
-2957.9456 1589.915 9102.3096 19
-2902.2026 1588.9292 9096.666 19
-2851.6492 1590.801 9107.3818 18
-2819.6003 1603.267 9178.75 18
-2733.6028 1584.9441 9073.8506 18
-2702.6091 1598.4167 9150.9824 18
-2639.9727 1593.3434 9121.9375 18
-2578.9983 1589.0823 9097.542 18
-2520.3623 1586.1106 9080.5293 18
-2467.0137 1586.4093 9082.2393 18
-2400.0774 1577.7889 9032.8877 18
-2345.9617 1577.3955 9030.6357 18
-2276.7083 1566.568 8968.6475 18
-2221.6306 1565.21 8960.873 18
-2170.8545 1566.8903 8970.4922 18
-2113.8252 1564.0281 8954.1064 19
-2050.0579 1555.9047 8907.5996 19
-1992.735 1552.3722 8887.376 19
-1925.1526 1540.4386 8819.0557 19
-1875.2694 1542.3965 8830.2646 18
-1634.0649 1382.589 7915.3623 18
-1766.7509 1539.0352 8811.0215 19
-1666.3384 1495.7722 8563.3398 19
-1425.0121 1319.328 7553.1914 19
-1641.3419 1568.8955 8981.9727 19
-1575.1597 1556.0991 8908.7129 19
-1536.5165 1570.5645 8991.5273 19
-1483.6956 1571.0565 8994.3447 19
-1426.4611 1566.7378 8969.6191 19
-1368.6619 1561.4406 8939.292 19
-1309.7535 1554.4001 8898.9863 19
-1259.9629 1558.0441 8919.8477 19
-1203.8059 1553.7896 8895.4912 19
-1138.7279 1537.1036 8799.9629 19
-1093.7988 1547.3193 8858.4482 19
-1028.9087 1528.9038 8753.0186 19
-974.15167 1524.3895 8727.1748 19
-788.85852 1303.6484 7463.4253 19
-753.21246 1318.6763 7549.46 19
-789.09705 1468.7418 8408.5898 19
-746.6795 1483.4709 8492.9141 19
-694.0368 1478.5457 8464.7168 19
-641.20343 1472.4153 8429.6201 19
-593.04211 1476.8838 8455.2031 19
-541.35974 1472.5995 8430.6748 19
-488.33496 1463.4211 8378.1289 19
-438.3844 1462.4204 8372.3994 19
-389.22318 1464.1334 8382.207 19
-339.50192 1463.9329 8381.0586 19
-289.20676 1460.7648 8362.9209 19
-239.04247 1457.0842 8341.8496 18
-189.43803 1455.7865 8334.4199 19
-139.69908 1452.1753 8313.7461 19
-90.237839 1449.0886 8296.0742 19
-41.038177 1447.8413 8288.9336 19
8.0987177 1450.5111 8304.2188 19
57.133118 1446.0017 8278.4023 19
106.22115 1446.3892 8280.6201 19
155.90071 1452.0413 8312.9785 19
204.55576 1447.728 8288.2852 19
253.31763 1445.6947 8276.6445 19
301.32166 1440.6976 8248.0361 19
312.46799 1285.4662 7359.3315 18
395.09692 1426.3154 8165.6973 18
442.09311 1421.8274 8140.0029 18
502.61295 1457.4371 8343.8701 18
537.31348 1418.505 8120.9829 18
580.22821 1405.8767 8048.6855 18
623.61798 1396.2305 7993.46 18
666.60046 1387.0988 7941.1807 18
708.3996 1376.8713 7882.6284 18
744.6994 1357.8818 7773.9131 18
765.22656 1314.0209 7522.8076 18
776.49219 1259.9609 7213.313 18
813.15662 1250.6052 7159.7515 18
886.5954 1295.9302 7419.2383 18
922.64789 1284.907 7356.1294 18
951.9079 1265.8456 7247.0029 18
988.23755 1257.4254 7198.7969 16
1015.5283 1238.677 7091.4619 16
1030.0804 1206.4984 6907.2383 16
1063.5305 1198.068 6858.9741 16
1087.4283 1179.8938 6754.9263 65550
1148.8861 1202.3169 6883.2993 65547
1152.8517 1165.0992 6670.2271 262149
1065.7157 1041.3323 5961.6572 1510412
1061.299 1003.7411 5746.4468 8680288
1097.0222 1005.2701 5755.2007 9797739
1128.7211 1003.1302 5742.9497 9796710
1181.7064 1019.48 5836.5527 9928038
1190.795 998.10626 5714.1875 9928038
1248.3616 1017.4243 5824.7842 9664866
1268.1533 1005.7447 5757.9175 9006678
1322.824 1021.6138 5848.7686 8151113
1335.1874 1004.8331 5752.6987 8480333
1361.9424 999.4491 5721.875 8151113
1388.2191 993.98431 5690.5889 9861730
1419.5068 992.28143 5680.8403 9730659
1453.0576 992.20294 5680.3906 9796452
1489.0806 993.77771 5689.4062 10059624
1519.7483 991.78796 5678.0151 10190953
1559.7832 995.86511 5701.3569 10190697
1579.361 986.98505 5650.5186 9993319
1609.6083 985.00305 5639.1709 9993062
1639.3807 982.81702 5626.6558 9927525
1675.5933 984.50189 5636.3022 10059111
1708.2151 984.05255 5633.7295 10190697
1740.0822 983.19385 5628.8135 10058854
1772.1566 982.48254 5624.7412 9927525
1808.3513 984.03955 5633.6553 9730145
1841.3717 983.84406 5632.5361 9664352
1877.723 985.40363 5641.4644 9664095
1922.1116 991.05261 5673.8047 9598303
1949.553 987.91956 5655.8682 9795939
1973.5303 983.16663 5628.6577 9927525
2000.9578 980.26196 5612.0283 9927524
2036.978 981.59308 5619.6489 9861732
2064.3223 978.7677 5603.4736 9795939
2091.9895 976.18243 5588.6729 9860962
2129.2554 978.08716 5599.5771 9729632
2154.9399 974.69482 5580.1562 10058598
2182.4978 972.23981 5566.1011 9795938
2234.4307 980.55438 5613.7026 9993317
2243.1047 969.91992 5552.8198 9927523
2269.0764 966.96436 5535.8994 9664350
