# .PCD v0.7 - Point Cloud Data file format
VERSION 0.7
FIELDS x y z rgb
SIZE 4 4 4 4
TYPE F F F U
COUNT 1 1 1 1
WIDTH 1419
HEIGHT 1
VIEWPOINT 0 0 0 1 0 0 0
POINTS 1419
DATA ascii
1257.3992 904.53748 3023.9741 9860963
1274.819 904.18219 3022.7864 10058085
1302.3131 910.88306 3045.1882 9794657
1306.8459 901.5603 3014.0212 9728863
1334.3337 908.11151 3035.9229 9925986
1343.4418 902.14612 3015.9797 10057829
1371.3884 908.82172 3038.2971 10254951
1382.8445 904.53754 3023.9746 9268056
1406.6288 908.32391 3036.6328 10057572
1421.2626 906.18042 3029.4668 10057572
1448.9487 912.30847 3049.9539 9992036
1458 906.69708 3031.1943 9860450
1475.8654 906.63684 3030.9927 9992035
1499.036 909.79791 3041.5605 9794657
1513.4307 907.62079 3034.2822 9991779
1525.2987 903.99731 3022.1687 10057829
1550.5652 908.3067 3036.5752 9926243
1565.0435 906.27002 3029.7666 9597278
1578.4974 903.69324 3021.1519 9597278
1597.2406 904.16821 3022.7397 9399901
1621.7523 907.862 3035.0884 9728609
1646.5171 911.61475 3047.6345 9860451
1660.3593 909.30426 3039.9104 10057830
1677.1443 908.63782 3037.6824 9728866
1699.2114 910.81696 3044.9673 10189160
1705.7866 904.7334 3024.6292 10123367
1718.4194 901.95587 3015.3438 9860195
1747.3984 907.72687 3034.637 9597280
1764.7024 907.37732 3033.4683 9399901
1780.1079 906.06848 3029.0925 9399901
1792.5325 903.28351 3019.7822 10057574
1815.5123 905.82013 3028.2625 9728866
1839.7104 908.909 3038.5886 9728866
1859.7612 909.90875 3041.9312 9860452
1888.3499 915.02649 3059.0403 9070936
1914.6847 918.96509 3072.2075 9202522
1916.4103 911.12952 3046.0122 8873557
1966.696 926.31195 3096.7688 10254956
1968.8075 918.73322 3071.4324 9597025
1979.2167 915.13013 3059.3867 9268317
1998.8156 915.8028 3061.6357 9070680
2004.4854 910.13892 3042.7007 9202522
2018.5024 908.3324 3036.6611 9070936
2038.3551 909.16058 3039.4297 9531230
2063.0134 912.09894 3049.2532 9268315
2083.4753 913.14697 3052.7568 9597279
2102.9512 913.74854 3054.7681 9663073
2123.8364 914.94714 3058.7749 9531487
2146.033 916.68536 3064.5862 9926245
2188.5093 926.98438 3099.0171 9465694
2186.8 918.55225 3070.8271 8676179
2188.1821 911.54688 3047.4075 9005144
2216.6631 915.85266 3061.8022 9597025
2222.0737 910.63403 3044.356 9728868
2245.8762 912.97601 3052.1853 9070938
2256.2131 909.85022 3041.7354 9531489
2274.5498 909.97449 3042.1509 9465695
2290.657 909.21198 3039.6016 9399901
2308.2969 909.06488 3039.1101 9334107
2320.4705 906.78394 3031.4846 8873557
2318.1218 898.9068 3005.1504 10255209
2321.8289 893.4801 2987.0081 8807507
2360.9536 901.66174 3014.3604 8873557
2359.1702 894.21466 2989.4639 9005142
2409.5205 906.492 3030.5085 9399900
2420.6658 903.94733 3022.0015 9070936
2441.1606 904.90601 3025.2063 9005143
2455.4946 903.58331 3020.7847 9004886
2476.6082 904.75671 3024.7073 8938838
2493.217 904.2793 3023.1113 8676436
2507.0906 902.82379 3018.2451 8873559
2515.8123 899.54675 3007.2898 8544594
2527.2021 897.26312 2999.6553 8347215
2564.6919 904.21326 3022.8904 8084043
2555.5872 894.75336 2991.2649 7755077
2576.4939 895.85907 2994.9614 6900024
2613.3235 902.44818 3016.9895 7952455
2625.446 900.47375 3010.3887 7557954
2659.925 906.14197 3029.3384 8018250
2666.4973 902.29114 3016.4646 8544594
2671.4026 897.93121 3001.8887 8413267
2697.9177 900.84467 3011.6289 8281681
2716.5098 901.09155 3012.4541 8281681
2721.8137 896.95624 2998.6294 8281424
2754.6831 901.89972 3015.156 8281424
2751.2205 894.96082 2991.9585 8479060
2773.6221 896.47052 2997.0054 8479316
2778.1289 892.21381 2982.7749 8742488
2768.5999 883.5318 2953.75 8479060
2765.2903 876.93121 2931.6833 8676440
2793.3511 880.29907 2942.9426 8611159
2813.3582 881.10297 2945.6301 7953486
0 0 0 0
0 0 0 0
0 0 0 0
0 0 0 0
-4904.3975 1641.0455 5379.625 12
-4888.3271 1646.3704 5397.0811 12
-5399.7095 1830.5795 6000.9497 12
-5385.4854 1837.8615 6024.8218 12
-5617.332 1929.7758 6326.1323 12
-5598.3623 1936.181 6347.1299 12
-5712.4111 1988.9883 6520.2407 12
-5706.5205 2000.469 6557.8765 12
-5701.3057 2012.3457 6596.8101 12
-5693.9883 2023.639 6633.832 12
-5686.2822 2034.9506 6670.9126 12
-5670.5288 2043.5201 6699.0054 12
-5663.7954 2055.4844 6738.2256 12
-5660.0098 2068.6956 6781.5342 12
-5646.6372 2078.5667 6813.894 12
-5365.582 1989.3346 6521.376 12
-5406.792 2019.1571 6619.1392 12
-5286.8926 1988.8097 6519.6553 12
-5556.1406 2105.4817 6902.126 12
-5064.5913 1933.4443 6338.1582 12
-5064.519 1947.8629 6385.4248 11
-5055.2593 1958.9385 6421.7324 12
-5046.2959 1970.2977 6458.9702 12
-5040.27 1982.9863 6500.5654 12
-5240.9966 2077.8394 6811.5098 12
-5213.043 2082.7988 6827.7676 12
-5120.2388 2061.7229 6758.6772 12
-5097.4653 2068.7356 6781.666 12
-5062.9097 2071.0403 6789.2212 12
-5224.6362 2154.3164 7062.2144 14
-5359.5557 2227.7949 7303.0889 14
-4767.6836 1997.9061 6549.4746 14
-4673.9512 1974.7034 6473.4121 14
-5269.2754 2244.6462 7358.3311 14
-5152 2213.0027 7254.5977 14
-5128.1606 2221.2988 7281.7939 15
-4534.3159 1980.7388 6493.1978 16
-5063.1753 2230.6926 7312.5884 16
-5052.5103 2245.2107 7360.1812 16
-5031.9004 2255.5239 7393.9897 16
-4977.7593 2250.8562 7378.688 16
-5109.436 2330.874 7641 16
-4917.897 2263.5564 7420.3213 16
-4825.4619 2241.0503 7346.5425 16
-5065.1709 2373.7937 7781.6982 16
-4830.8936 2284.8015 7489.9663 16
-4784.4014 2283.7969 7486.6729 16
-4755.9756 2291.4773 7511.8516 16
-4687.0996 2279.6301 7473.0142 16
-4679.6426 2297.7139 7532.2954 16
-4513.436 2237.4482 7334.7349 16
-4481.0801 2243.01 7352.9673 16
-4591.1963 2320.696 7607.6348 16
-4560.9355 2328.2634 7632.4419 16
-4426.1924 2282.1118 7481.1489 16
-4229.9268 2202.9846 7221.7568 16
-4340.396 2283.6233 7486.1045 16
-4137.6421 2199.429 7210.1011 16
-4107.0586 2205.9521 7231.4849 16
-4115.1797 2233.6211 7322.1885 16
-4081.4819 2238.9392 7339.6226 16
-4001.7166 2218.8293 7273.6982 16
-4018.3508 2252.3137 7383.4658 18
-3965.3489 2247.0742 7366.2905 18
-3934.2886 2254.2903 7389.9458 18
-3921.217 2272.0923 7448.3037 18
-3856.8591 2260.2441 7409.4634 18
-3312.8484 1963.7939 6437.6494 18
-3437.804 2061.6067 6758.2964 18
-3570.9268 2166.6812 7102.748 18
-3668.0259 2252.1436 7382.9087 18
-3186.4614 1980.0851 6491.0547 18
-2921.8169 1837.8197 6024.6846 18
-3353.4763 2135.4272 7000.2925 18
-3147.2014 2029.1782 6651.9902 18
-3129.6221 2043.4395 6698.7407 18
-3213.2981 2125.0295 6966.207 15
-3189.1587 2136.5146 7003.8574 16
-3000.7305 2036.7894 6676.9409 16
-2962.5361 2037.7349 6680.0405 16
-3003.3481 2093.7854 6863.7837 16
-2948.2793 2083.6138 6830.4395 16
-2686.0388 1924.7081 6309.5195 16
-2640.011 1918.4323 6288.9463 16
-2739.417 2019.1735 6619.1929 16
-2543.9775 1902.3593 6236.2563 16
-2676.323 2030.8285 6657.3999 16
-2674.1328 2059.5271 6751.479 16
-2672.6443 2089.6462 6850.2148 16
-2551.2441 2025.4938 6639.9116 18
-2526.2429 2037.0636 6677.8398 18
-2435.8313 1995.4182 6541.3188 18
-2268.571 1888.4536 6190.6709 18
-2338.5903 1978.7404 6486.6465 18
-2178.3054 1873.9227 6143.0361 18
-2158.8127 1888.719 6191.541 18
-2206.0115 1963.3832 6436.3027 18
-2193.6008 1986.6884 6512.7012 18
-2122.8342 1957.03 6415.4761 18
-2053.7859 1927.9031 6319.9932 18
-1690.8523 1616.6976 5299.8086 18
0 0 0 0
0 0 0 0
0 0 0 0
-1556.7631 1607.9613 5271.1699 18
-1797.4316 1894.5613 6210.6929 18
-1701.5042 1830.9421 6002.1387 18
-1680.4445 1846.8895 6054.417 18
-1627.4485 1827.6678 5991.4048 18
-1582.6134 1816.9575 5956.2949 18
-1552.0111 1822.4719 5974.3716 18
-1536.1329 1845.9373 6051.2954 18
-1485.0281 1827.1815 5989.811 18
-1420.0181 1789.9794 5867.856 18
-1398.1232 1806.6215 5922.4116 18
-1360.1836 1802.8546 5910.063 18
-1329.8595 1809.249 5931.0249 18
-1291.7953 1805.1747 5917.6685 18
-1251.327 1797.4196 5892.2461 18
-1185.0885 1751.1399 5740.5337 18
-1147.1844 1745.2307 5721.1621 18
-1109.1747 1738.7955 5700.0664 15
-1116.8105 1805.76 5919.5874 16
-1022.52 1706.9196 5595.5718 16
-978.67615 1688.4879 5535.1499 16
-942.75024 1682.9124 5516.8716 16
-916.1972 1694.2688 5554.1001 16
-822.61609 1577.9017 5172.6289 16
-848.0542 1689.6593 5538.9897 16
-813.13348 1685.3163 5524.7524 17
-778.84796 1681.9805 5513.8169 16
-742.0293 1672.6426 5483.2056 16
-707.54974 1667.9633 5467.8662 16
-671.15948 1658.1145 5435.5801 16
-629.74133 1634.2247 5357.2661 16
-603.24066 1648.5658 5404.2783 16
-560.61591 1617.9795 5304.0112 16
-531.19104 1624.1188 5324.1362 18
-463.21088 1505.7057 4935.9585 18
-464.13486 1610.4055 5279.1821 18
-430.22293 1600.6343 5247.1504 18
-394.34073 1581.4388 5184.2246 17
-313.70786 1364.3711 4472.6396 16
-330.00781 1567.7227 5139.2607 17
-306.13919 1602.2001 5252.2832 18
-270.10532 1573.6079 5158.5537 18
-237.13925 1557.8718 5106.9678 18
-186.38158 1403.551 4601.0781 18
-160.59265 1416.589 4643.8188 18
-132.57216 1411.2638 4626.3618 18
-103.85159 1393.7662 4569.002 18
-76.713661 1392.6581 4565.3691 18
-50.538277 1417.3365 4646.2695 18
-24.066626 1482.8403 4861.002 18
4.3479438 1359.9878 4458.2705 18
31.100348 1374.651 4506.3389 18
58.755211 1397.2267 4580.3457 18
92.428383 1503.4275 4928.4902 19
109.6671 1355.4951 4443.5425 17
137.41045 1369.548 4489.6104 19
174.99878 1461.2478 4790.2178 18
206.11249 1480.8319 4854.418 18
212.08675 1337.1241 4383.3198 18
236.6696 1329.2966 4357.6597 18
262.0509 1327.0526 4350.3032 18
281.14084 1296.2042 4249.1772 18
304.71133 1289.3871 4226.8296 18
337.32751 1318.9749 4323.8232 18
359.80954 1307.5573 4286.3945 18
387.00436 1313.6425 4306.3428 16
402.98981 1283.2798 4206.8086 16
462.2644 1386.2736 4544.4399 16
452.90643 1283.4377 4207.3262 16
478.09781 1284.1302 4209.5967 16
534.97479 1365.6385 4476.7944 16
534.35107 1299.5969 4260.2988 16
553.76837 1286.0571 4215.9131 16
571.83405 1270.6829 4165.5137 15
595.70197 1268.9407 4159.8027 14
612.7326 1253.3514 4108.6982 14
637.19275 1253.5701 4109.415 14
659.16083 1249.0503 4094.5984 13
686.99738 1255.577 4115.9941 14
722.17279 1274.6089 4178.3838 16
742.82458 1267.595 4155.3911 16
769.84583 1271.5516 4168.3618 14
796.7749 1275.1147 4180.0425 14
821.2486 1274.652 4178.5254 14
807.35535 1216.4104 3987.5994 14
815.995 1194.4655 3915.6602 12
857.37695 1220.3372 4000.4722 12
896.28357 1241.3884 4069.4817 12
919.98627 1240.8301 4067.6514 12
941.49286 1237.4139 4056.4529 12
974.5061 1248.9148 4094.1545 12
976.81726 1221.4652 4004.1702 12
1002.3733 1223.6951 4011.4797 13
1014.1488 1209.3879 3964.5786 14
1032.5477 1203.4485 3945.1079 14
1057.1501 1204.8422 3949.6768 14
1074.252 1197.8121 3926.6311 15
1093.0328 1192.9128 3910.5703 16
1106.6265 1182.6732 3877.0032 16
1123.7484 1176.5442 3856.9111 16
1141.9277 1171.7444 3841.1768 16
1151.7456 1158.7202 3798.4812 16
1171.48 1155.9807 3789.501 16
1185.4065 1147.7211 3762.4241 16
1205.4486 1145.5782 3755.3997 16
1207.6367 1126.8534 3694.0164 14
1226.8665 1124.4139 3686.0195 14
1236.0577 1113.0206 3648.6702 14
1271.8057 1125.521 3689.6484 65547
1085.6473 944.53577 3096.3484 196614
1080.1034 924.09338 3029.3347 655618
1086.0165 913.96143 2996.1204 4929586
1111.0035 919.94916 3015.7493 7626062
1123.381 915.47168 3001.0713 9203802
1132.1488 908.23785 2977.3574 9664354
1153.0005 910.77118 2985.6624 9860706
1170.2466 910.42303 2984.521 9531741
1189.2562 911.43671 2987.844 9268313
1203.3329 908.69562 2978.8582 9663070
1217.9452 906.43243 2971.4392 9794913
1236.2454 906.93915 2973.1003 9663327
1259.2916 910.86462 2985.9685 9728863
1270.7063 906.38458 2971.2822 10189415
1290.8276 908.15253 2977.0779 9728863
1303.3296 904.58441 2965.3811 9794400
1322.8137 905.89288 2969.6704 9860450
1347.9066 910.95758 2986.2734 9663071
1360.5084 907.55853 2975.1306 9728607
1371.4077 903.12524 2960.5977 9728864
1393.4349 906.03955 2970.1514 9597279
1408.4321 904.36719 2964.6689 9202264
1431.1216 907.61444 2975.314 9794657
1451.3694 909.25299 2980.6853 10057830
1471.7625 910.94196 2986.2222 9926244
1478.4182 904.18927 2964.0857 9728866
1498.8387 905.91467 2969.7419 9531486
1523.243 909.97986 2983.0684 9794400
1538.7542 908.70013 2978.873 10452587
1557.58 909.38452 2981.1167 9794657
1581.1881 912.81464 2992.3611 10189417
1584.605 904.64136 2965.5676 9663073
1619.8148 914.59875 2998.21 9531230
1629.0675 909.8429 2982.6191 9399901
1639.7351 905.97089 2969.926 9860452
1658.5297 906.6236 2972.0659 9334108
1678.8994 908.11469 2976.9539 9399901
1694.3859 906.96094 2973.1716 9728609
1716.1801 909.17242 2980.4214 9794658
1732.603 908.52246 2978.2905 9926245
1749.6436 908.20599 2977.2532 10057831
1765.1709 907.11835 2973.6877 9926245
1791.5477 911.57269 2988.2898 9860452
1808.2858 911.08331 2986.6855 9663073
1836.1753 916.16754 3003.3525 9465694
1832.8098 905.70898 2969.0676 9466207
1879.8752 920.13361 3016.354 9334621
1890.7587 916.74353 3005.2407 9532000
1931.6698 927.83978 3041.616 9136987
1949.3885 927.69397 3041.1379 9926503
1959.1337 923.79089 3028.3433 9992040
1972.0604 921.44543 3020.6543 9465953
1962.7548 908.84747 2979.356 8873559
1986.6313 911.70197 2988.7136 9334110
2001.4369 910.38007 2984.3801 9794659
2026.7203 913.8056 2995.6096 10057830
2052.803 917.52881 3007.8152 9794659
2059.9868 912.81354 2992.3574 9794659
2081.3091 914.39026 2997.5264 9992038
2090.3311 910.58209 2985.0425 9794659
2122.7217 916.93225 3005.8591 9663073
2153.9429 922.67572 3024.6875 9728866
2157.9619 916.76794 3005.3208 10518382
2180.9697 918.95819 3012.5005 9794659
2176.7122 909.71753 2982.2083 8807764
2191.5117 908.52625 2978.303 8873558
2218.3115 912.28894 2990.6379 8939095
2229.845 909.76373 2982.3596 9136731
2250.4146 910.93585 2986.2019 9333853
2259.3789 907.42847 2974.7043 9334110
2276.8679 907.37286 2974.522 9531230
2286.6243 904.26007 2964.3176 9334108
2311.1162 906.97766 2973.2266 9334108
2335.1992 909.49475 2981.478 9531486
2352.7778 909.4599 2981.3638 9268315
2359.6238 905.3078 2967.7524 9531487
2380.2722 906.47351 2971.5737 9531230
2398.478 906.69861 2972.3118 9465694
2412.0457 905.17993 2967.3333 9202522
2428.6299 904.80701 2966.1108 9136473
2432.0657 899.57623 2948.9631 9005145
2452.2693 900.57776 2952.2466 9136731
2468.1155 899.97632 2950.2749 8807766
2477.343 896.98694 2940.4751 9070681
2500.6919 899.11646 2947.4563 8676180
2505.8086 894.70673 2933.0002 8610644
2529.1287 896.81244 2939.9033 8676437
2538.8438 894.09808 2931.0051 8610644
2554.2808 893.42218 2928.7893 8544851
2579.3269 896.09351 2937.5466 8413265
2603.4109 898.39716 2945.0981 8347215
2612.804 895.63428 2936.0408 8544850
2649.6375 902.25177 2957.7344 8544596
2646.2759 895.18524 2934.5688 8149838
2653.7917 891.86658 2923.6897 7886922
2675.25 893.24609 2928.2119 8281681
2696.8594 894.65802 2932.8406 8347474
2703.8574 891.23572 2921.6218 8479574
2749.3252 900.4566 2951.8494 7821900
2726.9956 887.49634 2909.3635 8216401
2733.459 884.01062 2897.9368 8414037
2764.0139 888.3111 2912.0344 8282451
2770.3157 884.81195 2900.5637 8545366
0 0 0 0
0 0 0 0
0 0 0 0
0 0 0 0
-4848.2065 1653.759 5317.9893 14
-4826.4409 1657.1067 5328.7539 14
-4849.8262 1676.1025 5389.8389 13
-4832.1724 1681.073 5405.8223 13
-5569.5762 1950.541 6272.3506 14
-5556.8701 1959.1669 6300.0884 13
-6035.9028 2142.4524 6889.4795 11
-6033.5244 2156.1934 6933.666 12
-6022.7222 2167.0918 6968.7119 12
-5638.6191 2042.8922 6569.3237 12
-5631.9702 2054.6694 6607.1958 12
-5156.3579 1894.3256 6091.5781 12
-5875.1196 2173.5994 6989.6382 12
-5870.5361 2187.3252 7033.7764 12
-5393.4653 2023.9425 6508.3872 267
-5618.7222 2123.6589 6829.0449 266
-5613.5938 2137.1135 6872.311 11
-5611.5244 2151.9382 6919.9829 12
-5225.54 2018.6711 6491.4365 11
-5053.1821 1966.5656 6323.8804 12
-5037.144 1974.9713 6350.9106 11
-5024.0122 1984.6514 6382.0391 12
-4994.7642 1988.064 6393.0127 12
-6020.5962 2414.6912 7764.917 12
-5246.2534 2120.3303 6818.3418 12
-4960.5771 2020.4327 6497.1011 12
-4944.8071 2029.7643 6527.1084 12
-4925.9355 2037.96 6553.4629 13
-6025.1699 2512.5452 8079.5854 13
-4878.6411 2050.73 6594.5278 14
-4956.0024 2100.0715 6753.1953 15
-4839.3574 2067.3384 6647.9351 16
-4804.8604 2069.4487 6654.7212 15
-4768.3945 2070.739 6658.8711 15
-4736.292 2073.9617 6669.2339 13
-4742.7642 2094.272 6734.5459 14
-5395.5703 2402.752 7726.5244 14
-5172.8276 2323.2766 7470.9556 14
-5193.229 2352.5754 7565.1719 14
-5160.6343 2358.1677 7583.1543 16
-5046.7559 2326.3892 7480.9639 16
-5017.7217 2333.5042 7503.8442 16
-4988.5513 2340.6826 7526.9272 16
-4958.9189 2347.7717 7549.7246 16
-4854 2319.0217 7457.2725 16
-4821.5698 2324.6934 7475.5107 16
-4846.9814 2358.6165 7584.5981 16
-4817.2393 2366.0854 7608.6157 16
-4784.6494 2372.2834 7628.5459 16
-4752.8291 2378.9846 7650.0952 16
-4715.0645 2382.8108 7662.3994 16
-4637.9673 2366.6411 7610.4023 16
-4584.8018 2362.4854 7597.0391 16
-4540.0352 2362.6182 7597.4663 16
-4527.1367 2379.5042 7651.7656 16
-3996.103 2121.6389 6822.5498 16
-3969.6907 2129.1584 6846.73 16
-4392.8105 2380.4316 7654.7485 16
-3929.3994 2151.5308 6918.6729 16
-3889.0081 2151.8687 6919.7588 16
-3997.9482 2235.7222 7189.4062 16
-3967.6609 2242.6851 7211.7969 16
-3926.5095 2243.592 7214.7139 18
-3889.0737 2246.6653 7224.5967 18
-3850.9124 2249.3833 7233.3369 18
-3820.6982 2256.8569 7257.3696 18
-3786.2861 2261.9927 7273.8848 18
-3752.2981 2267.5032 7291.6045 18
-3716.3269 2271.9292 7305.8374 18
-3683.5 2278.4048 7326.6611 18
-3645.3 2281.6719 7337.167 18
-3609.7024 2286.666 7353.2271 18
-3570.5061 2289.4749 7362.2593 18
-3343.7207 2170.5796 6979.9277 18
0 0 0 0
0 0 0 0
-3400.3201 2292.3977 7371.6577 15
-3350.2634 2288.0469 7357.667 15
-3336.6934 2308.8281 7424.4937 18
-3314.811 2324.3367 7474.3638 18
-3301.0427 2346.0315 7544.1279 17
-3265.8132 2352.8601 7566.0869 16
-3238.0703 2365.3481 7606.2446 16
-3208.7917 2377.051 7643.8774 16
-3180.5312 2389.854 7685.0479 16
-3150.7512 2401.8704 7723.689 16
-3115.4219 2409.9485 7749.666 16
-3077.9043 2416.5503 7770.895 16
-3040.2876 2423.2737 7792.5156 16
-3001.0403 2428.8848 7810.5591 18
-2960.9854 2434.0078 7827.0332 18
-2917.7468 2436.6353 7835.4819 18
-2875.6187 2440.2896 7847.2339 18
-1876.776 1618.8378 5205.6929 18
0 0 0 0
0 0 0 0
0 0 0 0
-1758.7233 1623.775 5221.5693 18
-1729.816 1625.6892 5227.7251 18
-1700.2452 1627.0383 5232.0635 18
-1656.0038 1614.1379 5190.5796 18
-1625.8711 1614.7612 5192.584 18
-1595.7336 1615.4041 5194.6514 18
-1564.8281 1615.2792 5194.25 18
-1546.7361 1628.6416 5237.2188 18
-1834.303 1970.986 6338.0952 18
-1620.4988 1777.651 5716.3882 18
-1441.5499 1615.1121 5193.7119 18
-1410.6089 1614.9266 5193.1157 18
-1379.6205 1614.6774 5192.3145 18
-1348.1885 1613.8859 5189.769 18
-1316.4274 1612.6541 5185.8081 18
-1284.2343 1610.8217 5179.9155 18
-1251.5292 1608.2417 5171.6191 18
-1311.5031 1727.6162 5555.4912 18
-1183.3268 1598.9102 5141.6118 18
-1160.3757 1609.3386 5175.1465 18
-1116.8866 1591.0754 5116.418 18
-1080.3668 1581.9985 5087.229 16
-1048.0126 1578.675 5076.542 16
-1021.6209 1584.4026 5094.9595 16
-991.20593 1584.0492 5093.8232 16
-956.35144 1576.3558 5069.084 16
-974.13416 1657.7393 5330.7886 14
-881.83588 1550.9684 4987.4453 15
-845.98175 1539.5083 4950.5933 15
-812.09583 1530.9352 4923.0249 16
-777.73938 1520.8031 4890.4429 16
-743.20477 1509.5248 4854.1753 16
-709.7572 1499.6349 4822.3726 19
-678.65802 1494.0854 4804.5273 16
-640.63525 1472.14 4733.957 16
-609.81042 1465.4821 4712.5474 16
-576.13019 1450.9939 4665.958 16
-545.44873 1442.978 4640.1812 16
-516.30908 1438.4067 4625.481 16
-487.84018 1435.2957 4615.4771 16
-455.65042 1420.2178 4566.9912 18
-425.11713 1408.7249 4530.0332 16
-394.53479 1395.5087 4487.5342 16
-365.25348 1385.3167 4454.7598 16
-337.03378 1377.8768 4430.8354 16
-309.263 1371.17 4409.2681 16
-281.8544 1364.9791 4389.3604 16
-254.69313 1358.8491 4369.6479 16
-227.35905 1350.3051 4342.1729 18
-200.17917 1340.6128 4311.0054 18
-173.34653 1330.7502 4279.2905 18
-146.82739 1320.3268 4245.772 18
-120.7404 1310.2816 4213.4697 18
-95.081467 1300.8549 4183.1562 18
-72.480057 1341.3634 4313.4194 18
-47.528553 1358.8243 4369.5684 18
-21.451546 1347.3921 4332.8057 16
4.0102196 1278.7198 4111.9766 16
28.354345 1277.6239 4108.4521 16
56.111694 1360.2855 4374.2671 16
74.098557 1228.6923 3951.1028 16
97.354294 1226.6843 3944.6462 16
121.45656 1234.0554 3968.3491 16
144.78906 1232.4825 3963.2913 15
168.22171 1232.0822 3962.0037 18
191.76427 1232.4863 3963.3035 18
215.81824 1235.7305 3973.7356 18
239.84644 1238.2032 3981.6875 18
263.767 1239.7272 3986.5879 18
287.39526 1239.7396 3986.6279 18
310.95197 1239.465 3985.7449 18
334.6485 1239.7471 3986.6519 18
358.25092 1239.6664 3986.3923 16
381.85709 1239.6079 3986.2041 16
405.42447 1239.4376 3985.6565 16
429.07913 1239.5382 3985.98 16
452.16742 1238.0774 3981.2825 16
474.66235 1235.2175 3972.0859 16
498.5174 1236 3974.6025 16
544.51038 1289.1233 4145.4307 15
578.57355 1310.6355 4214.6074 14
601.06671 1305.2424 4197.2651 14
618.16327 1289.0247 4145.1138 14
640.59918 1284.755 4131.3838 14
662.89917 1280.5372 4117.8208 13
686.28143 1278.6354 4111.7046 13
708.23279 1274.2893 4097.729 14
728.79834 1267.8206 4076.9277 14
749.03809 1261.2185 4055.6973 14
767.44373 1252.0347 4026.165 14
789.1814 1248.6768 4015.3669 12
804.5976 1235.8062 3973.9788 12
828.11823 1235.7612 3973.8345 12
849.92456 1233.2314 3965.6997 12
870.62274 1229.2733 3952.9714 12
890.08649 1223.8252 3935.4517 12
929.42786 1245.2882 4004.4705 12
950.755 1242.1471 3994.3696 12
996.31433 1270.0486 4084.0923 12
1007.3098 1253.6113 4031.2351 12
1011.7878 1230.0126 3955.3486 14
1029.0392 1222.6594 3931.7029 13
1045.1479 1214.3042 3904.835 14
1027.8729 1168.364 3757.1055 14
1033.6451 1150.014 3698.0974 13
1050.9611 1145.0027 3681.9824 16
1065.3102 1137.0286 3656.3401 16
1081.3192 1131.1088 3637.304 16
1096.8234 1124.9026 3617.3467 16
1113.032 1119.6429 3600.4331 16
1129.0477 1114.3907 3583.5439 16
1141.8309 1106.201 3557.208 16
1137.0212 1081.5731 3478.0122 14
1185.3606 1107.4792 3561.3186 14
1171.9888 1075.8309 3459.5471 12
1122.5741 1012.7542 3256.7114 65547
1124.4453 997.29614 3207.0029 131080
1074.395 937.0672 3013.3247 327681
1096.8773 941.03479 3026.0835 3416863
0 0 0 0
1102.2357 915.69006 2944.5823 8611923
1120.2224 916.12866 2945.9929 9269595
1133.021 912.37616 2933.926 9927269
1155.264 916.22748 2946.3105 9532511
1163.5864 909.08807 2923.3523 9531998
1184.7292 912.02747 2932.8047 9465948
1200.8947 911.10565 2929.8403 9926499
1223.0229 914.66962 2941.301 9794657
1233.9807 909.89673 2925.9526 9663070
1251.0371 909.69061 2925.29 9663070
1266.0947 908.05652 2920.0354 9597278
1283.9596 908.45294 2921.3101 9926243
1300.278 907.75891 2919.0784 9926243
1319.2395 908.90436 2922.7617 9992036
1336.4404 908.82275 2922.4993 9926243
1344.8523 902.84283 2903.2698 9663071
1369.8622 908.01605 2919.9053 9663070
1388.6138 908.96368 2922.9524 10913137
1402.39 906.67126 2915.5808 9925987
1430.0044 913.27234 2936.8079 10057830
1442.5404 910.20068 2926.9304 10123624
1447.2263 902.30774 2901.5488 10057574
1478.9432 911.25531 2930.3215 9399901
1499.2882 913.0697 2936.1562 9531487
1507.4076 907.48242 2918.1892 9531487
1528.7422 909.88745 2925.9231 10057574
1545.6355 909.62482 2925.0784 9860452
1549.4075 901.73151 2899.696 9399644
1582.2997 910.77307 2928.7708 9926245
1603.6222 913.03113 2936.032 10255210
1613.092 908.56476 2921.6697 10189417
1632.0999 909.50842 2924.7041 9926245
1656.2068 913.24402 2936.7166 9926245
1679.1541 916.26898 2946.4438 9531487
1682.1477 908.45563 2921.3186 10320746
1708.1458 913.09863 2936.2493 9136729
1719.9279 910.12531 2926.688 9794659
1737.7976 910.4007 2927.5735 10057574
1760.8779 913.37335 2937.1326 9926245
1780.1313 914.3222 2940.1838 10123624
1796.4387 913.75421 2938.3572 10452333
1809.3805 911.50153 2931.1133 10058088
1846.4523 921.33209 2962.7253 9860964
1857.8889 918.30646 2952.9961 9860708
1861.6134 911.56116 2931.3049 9663332
1884.1833 914.08301 2939.4148 9597539
1900.4529 913.53021 2937.637 8873816
1926.1073 917.4577 2950.2666 9729125
1943.4639 917.39752 2950.0732 9070938
1952.2363 913.32263 2936.9695 8939607
1969.0078 913.02887 2936.0249 9465694
1992.2555 915.71692 2944.6687 9663072
2016.9423 919.01392 2955.271 9531230
2030.9757 917.44189 2950.2158 9860451
2046.0901 916.3808 2946.8037 9728866
2061.748 915.5791 2944.2256 9794402
2093.9485 922.0752 2965.115 9794659
2101.5488 917.72076 2951.1125 9202522
2109.0332 913.388 2937.1797 9597023
2122.4202 911.66144 2931.6277 9465694
2148.2983 915.28491 2943.2795 9860451
2158.0457 912.03284 2932.8218 9005143
2172.325 910.73267 2928.6409 8939352
2193.613 912.3681 2933.9001 8084042
2198.1934 907.0835 2916.9065 9202266
2208.2666 904.13031 2907.4099 9202265
2219.9983 901.89667 2900.2271 9136729
2250.1428 907.12018 2917.0242 9005144
2252.0938 900.9848 2897.2947 10254955
2295.4072 911.36475 2930.6736 9531489
2305.8186 908.62347 2921.8586 9794661
2319.9297 907.37018 2917.8281 9728867
2336.5461 907.10803 2916.9854 9663074
2352.3882 906.55127 2915.1948 9860452
2361.7246 903.51392 2905.4275 9202267
2384.384 905.58051 2912.073 9334109
2395.4414 903.24249 2904.5549 9334367
2404.8237 900.31085 2895.1277 9268317
2426.175 901.87 2900.1414 9005402
2435.6396 899.01971 2890.9756 8939608
2445.4819 896.34753 2882.3826 8741973
2463.8469 896.8147 2883.885 8808022
2478.5186 895.94031 2881.0732 8741973
2503.2681 898.69586 2889.9343 8676180
2536.6565 904.49451 2908.5808 9005402
2533.7751 897.36945 2885.6687 8676437
2543.5547 894.79376 2877.3862 9071194
2572.4126 898.91925 2890.6526 8676182
2576.1509 894.27032 2875.7029 8413267
2579.9807 889.71399 2861.0513 7886923
2603.2285 891.86993 2867.9841 7952716
2607.6365 887.58508 2854.2053 8018252
2628.5635 888.94196 2858.5688 8544853
2637.6023 886.28687 2850.0308 8281681
2659.6348 888.00391 2855.552 8282451
2655.7227 881.09149 2833.324 8479830
2697.7434 889.40948 2860.072 8348244
2703.0112 885.58228 2847.7649 8676953
2716.1528 884.36621 2843.8545 8611416
0 0 0 0
0 0 0 0
0 0 0 0
0 0 0 0
-4797.7148 1667.7233 5262.605 14
-4775.2612 1670.7789 5272.2476 14
-5296.4263 1865.3302 5886.166 14
-5265.2734 1866.6526 5890.3389 14
-5236.584 1868.8717 5897.3413 14
-6004.9888 2157.5049 6808.1416 14
-5646.5898 2042.4603 6445.1113 14
-5631.4287 2050.8491 6471.582 12
-6020.1797 2207.4575 6965.77 12
-5623.7539 2076.3352 6552.0049 12
-5615.4487 2087.6829 6587.814 12
-5619.6328 2103.8652 6638.8784 12
-5903.0713 2225.5598 7022.8926 12
-5893.5796 2237.7583 7061.3862 12
-5184.8945 1982.7532 6256.7017 12
-5052.3081 1945.9669 6140.6201 12
-5038.5034 1954.7294 6168.2705 12
-5032.8901 1966.8209 6206.4263 12
-5011.188 1972.757 6225.1577 12
-4989.8901 1978.9412 6244.6724 12
-4967.9229 1984.9504 6263.6353 12
-4946.1006 1991.1085 6283.0674 12
-4915.5967 1993.8389 6291.6831 12
-4894.9316 2000.632 6313.1191 12
-4889.7686 2013.9144 6355.0327 14
-4872.6631 2022.4464 6381.9556 14
-4858.4458 2032.3198 6413.1123 14
-4850.8804 2045.1534 6453.6094 14
-4830.7812 2052.865 6477.9434 15
-4811.1069 2060.8818 6503.2412 15
-4791.2866 2068.9651 6528.7485 14
-4771.8457 2077.3455 6555.1929 14
-4777.0103 2096.6624 6616.1489 14
-4756.9277 2105.1265 6642.8579 14
-5245.7329 2340.8137 7386.584 14
-5144.3262 2314.8799 7304.7485 15
-5089.8003 2309.7808 7288.6577 15
-5158.354 2360.9268 7450.0518 14
-5063.7012 2337.6128 7376.4829 15
-5069.9492 2360.8784 7449.8994 16
-5040.8169 2367.9331 7472.1606 16
-5003.9272 2371.436 7483.2148 16
-4972.2114 2377.4758 7502.2734 16
-4949.4556 2387.9473 7535.3169 16
-4921.8403 2396.2437 7561.4966 16
-4896.1978 2405.6619 7591.2163 16
-4863.1655 2411.5903 7609.9233 16
-4832.729 2418.9287 7633.0806 16
-4800.2798 2425.3889 7653.4663 16
-4768.7153 2432.4236 7675.665 16
-4704.7124 2422.8887 7645.5767 16
-4677.8682 2432.4905 7675.8755 16
-4647.9727 2440.6787 7701.7139 16
-4618.6309 2449.3228 7728.9912 16
-4573.9438 2449.9209 7730.8789 16
-4492.6079 2430.7024 7670.2329 16
-4548.2529 2485.9617 7844.6069 16
-4509.2349 2490.0869 7857.6245 16
-4476.7417 2497.9395 7882.4038 16
-4342.8477 2448.7805 7727.2803 16
-4321.8013 2462.8835 7771.7832 16
-4283.9575 2467.6147 7786.7124 16
-4247.2246 2473.0955 7804.0068 18
-4205.9233 2476.0078 7813.1973 18
-3849.8799 2291.6353 7231.3979 18
-3817.0647 2297.6782 7250.4673 18
-4096.188 2493.7681 7869.2412 18
-3650.738 2248.1726 7094.249 18
-3643.8252 2270.0574 7163.3081 18
-3592.0493 2264.1802 7144.7617 18
-3606.5574 2300.4414 7259.1865 18
-3571.4331 2305.5383 7275.27 18
-3537.3511 2311.4407 7293.895 18
-3502.6179 2317.0581 7311.6216 18
-3467.6899 2322.686 7329.3809 18
-3432.0393 2327.9666 7346.0439 18
-3401.1116 2336.6274 7373.374 17
-3368.3047 2344.2061 7397.2886 16
-3315.1843 2337.6606 7376.6338 16
-3310.4539 2365.5176 7464.5386 16
-3280.6038 2375.9368 7497.417 17
-3247.0671 2383.9353 7522.6572 17
-3219.0371 2396.2561 7561.5356 17
-3187.582 2406.3386 7593.3516 18
-3156.9863 2417.3684 7628.1567 16
-3127.3071 2429.4304 7666.2192 16
-3098.6179 2442.6282 7707.8657 16
0 0 0 0
0 0 0 0
-2988.845 2465.1133 7778.8193 18
-2945.5928 2467.498 7786.3447 18
-2902.1355 2469.7844 7793.5586 18
-2859.5813 2472.925 7803.4697 18
-2804.4097 2465.0789 7778.71 18
-2761.5576 2467.9797 7787.8643 18
-2292.5691 2083.6724 6575.1582 18
0 0 0 0
0 0 0 0
0 0 0 0
0 0 0 0
0 0 0 0
0 0 0 0
0 0 0 0
-1552.0063 1632.5741 5151.6895 18
-2312.5757 2481.4392 7830.3364 18
-2265.394 2480.5881 7827.6509 18
-2216.9934 2478.3386 7820.5522 18
-1429.6378 1632.2904 5150.7944 18
-2123.5547 2477.468 7817.8052 18
-2077.0652 2477.2776 7817.2041 18
-1337.093 1631.1063 5147.0576 18
-1305.6067 1629.8783 5143.1826 18
-1273.7322 1628.0952 5137.5562 18
-1241.3672 1625.5826 5129.6274 18
-1208.3927 1622.1257 5118.7188 18
-1176.6215 1620.1475 5112.4766 18
0 0 0 0
0 0 0 0
0 0 0 0
0 0 0 0
-1004.7833 1587.9857 5010.9878 16
-971.60333 1582.3123 4993.085 16
-937.93927 1575.4691 4971.4912 16
-904.11273 1567.9003 4947.6074 16
-870.55786 1560.3112 4923.6597 16
-1027.163 1904.8412 6010.8457 16
-983.56555 1889.519 5962.4951 16
-1177.9397 2347.2556 7406.9116 16
-899.62933 1862.0607 5875.8486 16
-857.60248 1846.5464 5826.8926 17
-812.65405 1823.176 5753.1455 16
-769.49585 1801.9509 5686.1685 16
-938.13892 2297.4775 7249.8335 16
-894.23694 2295.0703 7242.2378 16
-544.27545 1467.3137 4630.2002 16
-513.01221 1456.458 4595.9443 16
-482.04926 1445.2856 4560.689 16
-451.08783 1432.7908 4521.2607 18
-420.31717 1419.3618 4478.8848 16
-390.92151 1409.0786 4446.4355 16
-362.61383 1401.5143 4422.5659 16
-334.93292 1395.3823 4403.2163 16
-307.52689 1389.4562 4384.5156 16
-279.99634 1381.8217 4360.4248 16
-252.36012 1372.0602 4329.6216 16
-224.89891 1361.1481 4295.188 18
-197.59491 1348.5238 4255.3511 18
-170.94002 1337.2839 4219.8828 18
-144.83316 1327.2136 4188.1055 18
-119.18911 1318.0961 4159.3345 18
-93.994003 1310.4836 4135.313 18
-69.164124 1304.3895 4116.0825 18
-44.628643 1300.2321 4102.9634 18
0 0 0 0
0 0 0 0
0 0 0 0
0 0 0 0
0 0 0 0
0 0 0 0
0 0 0 0
0 0 0 0
0 0 0 0
0 0 0 0
0 0 0 0
237.44479 1249.1648 3941.8176 18
260.91211 1249.6786 3943.439 18
284.24374 1249.5115 3942.9116 18
307.63419 1249.6085 3943.2178 18
331.00226 1249.6074 3943.2144 18
354.54889 1250.2362 3945.1985 16
377.56281 1249.0249 3941.3762 16
400.17154 1246.6925 3934.0159 16
423.08328 1245.5088 3930.2808 16
445.56628 1243.2523 3923.1602 16
468.05936 1241.2463 3916.8303 16
491.44342 1241.6813 3918.2026 16
551.96185 1331.6675 4202.1597 15
578.57544 1335.6165 4214.6211 14
601.42029 1330.8987 4199.7339 14
621.50043 1320.681 4167.4912 14
642.258 1312.6288 4142.082 14
657.65283 1294.6127 4085.2312 14
674.87061 1281.3372 4043.3394 14
696.13446 1276.3904 4027.7297 14
717.70917 1272.3229 4014.8943 14
738.34888 1266.9121 3997.8203 14
760.0365 1263.58 3987.3054 14
781.06592 1259.3873 3974.0754 12
797.18671 1247.7572 3937.376 12
823.59503 1252.4326 3952.1294 12
841.50201 1244.2792 3926.4009 12
862.19623 1240.5751 3914.7119 12
881.89838 1235.6748 3899.249 12
900.06189 1228.9238 3877.946 12
964.37677 1283.9545 4051.5984 12
983.87225 1278.0891 4033.0898 12
994.84204 1261.6893 3981.3394 11
1007.246 1247.8263 3937.594 12
1020.282 1235.3563 3898.2439 12
986.68842 1168.2294 3686.4207 12
1052.1749 1218.7794 3845.9348 12
1013.3941 1148.9695 3625.645 14
1031.2858 1144.9785 3613.051 14
1047.2404 1139.043 3594.3213 14
1062.5726 1132.6808 3574.2449 14
1078.0034 1126.67 3555.2778 16
1097.0199 1124.5657 3548.6375 16
1106.8691 1113.3198 3513.1501 16
1116.2891 1102.0654 3477.636 16
1128.9868 1094.3964 3453.436 14
1145.9722 1091.0825 3442.979 14
1160.8149 1085.8804 3426.5635 14
1095.8893 1007.5211 3179.2957 11
1159.4039 1047.8981 3306.7078 11
1064.8745 946.46295 2986.6228 262150
1100.0408 961.73376 3034.8108 655618
1090.6027 938.14417 2960.3726 4337706
1086.5422 919.85431 2902.6577 7428425
1101.4695 917.95874 2896.6763 9007196
1116.6926 916.36414 2891.6443 9533027
1136.8802 918.83002 2899.4255 9664354
1157.1184 921.26282 2907.1023 9400413
1172.699 919.97034 2903.0239 9597790
1184.4077 915.72168 2889.6169 9203033
1200.4114 914.86749 2886.9216 9860963
1219.589 916.4223 2891.8279 9729120
1236.1022 915.95959 2890.3677 9925986
1251.7323 914.8642 2886.9109 9202263
1272.3138 917.36829 2894.813 9794656
1288.5035 916.6814 2892.6453 9860451
1305.1879 916.35968 2891.6304 10255209
1321.7345 915.95105 2890.3408 10255209
1338.6855 915.82947 2889.957 9992037
1350.6478 912.34106 2878.9492 9992036
1368.6472 912.96692 2880.9241 9794657
1383.5992 911.56946 2876.5144 9728863
1398.464 910.14941 2872.0332 9925987
1417.6055 911.51324 2876.3372 9925987
1431.8569 909.73792 2870.7346 10057574
1436.0255 901.67328 2845.2861 10189416
1475.9728 916.00024 2890.4958 10123367
1487.9192 912.82037 2880.4617 9728866
1504.8361 912.72742 2880.1682 10057574
1526.9003 915.72339 2889.6223 9926245
1524.4849 904.13477 2853.0537 9663073
1550.7563 909.62726 2870.3855 9399901
1573.0216 912.67609 2880.0063 9926245
1610.5762 924.43518 2917.113 10189160
1619.7222 919.81171 2902.5234 10189417
1612.4719 906.07227 2859.1675 9663073
1657.3976 921.63208 2908.2676 9465693
1666.2502 917.0188 2893.7102 10123625
1687.3833 919.18927 2900.5591 9728869
1694.7992 913.91895 2883.9282 9925991
1713.8816 914.98224 2887.2834 9992040
1739.9031 919.69238 2902.1467 9991784
1751.1034 916.55267 2892.2393 10057833
1768.5039 916.68768 2892.6653 9925991
1776.177 911.82642 2877.3252 9992295
1805.0177 917.82098 2896.2415 9795172
1825.8574 919.67255 2902.0842 9729378
1850.5138 923.39404 2913.8276 10190185
1866.4966 922.75873 2911.8228 9202781
1872.5743 917.28296 2894.5437 9136988
1893.2764 919.00537 2899.9788 9794917
1910.5594 919.05206 2900.1262 9597537
1936.4144 923.18469 2913.1667 9071192
1952.6422 922.69501 2911.6216 9070936
1977.7018 926.35077 2923.1575 8478542
1983.121 920.82324 2905.7153 9465437
2004.8483 922.89819 2912.2629 9399900
2024.9888 924.21344 2916.4131 9202522
2034.5992 920.74109 2905.4561 9597023
2050.7722 920.27203 2903.9758 9399901
2050.5054 912.49487 2879.4346 9663073
2079.3894 917.71136 2895.8955 9662816
2094.0911 916.63464 2892.4978 9399902
2112.0554 916.99194 2893.6252 9597025
2121.7446 913.77948 2883.4883 9465696
2144.5422 916.21857 2891.1851 9728868
2152.3667 912.27301 2878.7344 8741716
2189.8596 920.86536 2905.8481 9005144
2193.0149 914.99677 2887.3293 9070938
2205.106 912.91852 2880.7715 9070938
2226.2891 914.60742 2886.1008 8939352
2221.4763 905.67242 2857.9058 9531232
2253.7756 911.88818 2877.5203 9531233
2278.1711 914.83685 2886.8247 9597284
2300.4795 916.90955 2893.3652 9728357
2308.6025 913.33948 2882.0999 9399649
2325.4692 913.25574 2881.8357 9268316
2339.5178 912.07458 2878.1084 9662817
2365.2227 915.42188 2888.6709 8741973
2361.8198 907.53638 2863.7878 8873815
2378.5461 907.44281 2863.4924 8939608
2387.4404 904.38385 2853.8396 8939609
2403.2842 903.98187 2852.5713 9268574
2425.9146 906.12042 2859.3196 8808023
2441.9507 905.78326 2858.2556 8873816
2455.3516 904.48004 2854.1433 9334366
2472.7415 904.65411 2854.6926 8150093
2493.7927 906.15613 2859.4324 8347471
2509.1687 905.58966 2857.6448 9071195
2529.231 906.71069 2861.1824 8742230
2540.1714 904.56866 2854.4229 8741976
2547.6492 901.22992 2843.8872 8281424
2554.8015 897.82068 2833.1292 8347474
2572.8508 898.26038 2834.5168 8544853
2583.1887 896.01965 2827.4458 8413010
2602.0818 896.75616 2829.77 8414037
2611.9783 894.40253 2822.343 8348244
2622.5342 892.30328 2815.7185 8414037
2625.407 887.63287 2800.981 7755850
2648.4565 889.80011 2807.8196 8019279
2682.5852 895.63904 2826.2451 8611415
2682.1892 889.95038 2808.2939 8676699
0 0 0 0
0 0 0 0
0 0 0 0
0 0 0 0
0 0 0 0
-4712.459 1679.6392 5202.9092 14
-5234.1138 1877.8569 5816.9155 14
-5224.3257 1886.7719 5844.5303 14
-5221.3628 1898.2869 5880.1997 14
-5458.3818 1997.7909 6188.4272 11
-5428.6548 2000.3507 6196.3564 11
-5403.0239 2004.4651 6209.1016 12
-5957.2334 2225.2256 6892.937 12
-5876.1836 2210.1057 6846.1006 12
-5872.9409 2224.2429 6889.8931 12
-5862.2378 2235.7332 6925.4854 12
-5933.4785 2278.8572 7059.0679 12
-5939.3188 2297.2971 7116.188 12
-5054.6392 1969.0894 6099.52 12
-4983.4355 1955.3345 6056.9121 12
-4980.6885 1968.4344 6097.4917 12
-4995.6875 1988.791 6160.5488 12
-4990.8101 2001.4763 6199.8433 12
-4978.019 2011.1525 6229.8164 12
-4974.2461 2024.6439 6271.6079 12
-5020.9146 2059.0239 6378.1045 12
-4972.313 2054.5598 6364.2764 12
-4972.6597 2070.4075 6413.3667 14
-4810.4604 2018.3008 6251.9595 14
-4750.7544 2008.7214 6222.2861 14
-4725.7656 2013.7864 6237.9751 14
-4723.2725 2028.5928 6283.8403 14
-5338.1719 2310.9048 7158.3398 14
-4682.938 2043.4922 6329.9932 14
-4681.4087 2059.3213 6379.0259 14
-4724.2388 2095.0803 6489.7939 14
-5163.1084 2308.5015 7150.8945 13
-5353.1567 2413.2825 7475.4683 14
-5314.4526 2415.8267 7483.3496 14
-4744.9307 2175.0859 6737.6221 14
-4704.8154 2174.9998 6737.355 13
-5081.0278 2369.0242 7338.3721 13
-4594.6006 2160.7217 6693.127 16
-4599.3779 2181.8037 6758.4316 16
-4597.0674 2199.8643 6814.3765 16
-4927.2983 2378.7886 7368.6182 16
-4446.7539 2165.9885 6709.4419 16
-4293.0508 2109.9875 6535.9712 16
-4386.1953 2175.3943 6738.5771 16
-4141.8125 2073.0635 6421.5938 16
-4116.6768 2079.5903 6441.8115 16
-4089.9756 2085.4409 6459.9351 16
-4067.231 2093.4385 6484.7085 16
-4052.4136 2105.708 6522.7148 16
-4032.5164 2115.5486 6553.1978 16
-4014.0386 2126.333 6586.603 16
-3994.5081 2136.7656 6618.9199 16
-3972.4207 2146.0239 6647.5986 16
-3950.0752 2155.3269 6676.416 16
-4053.105 2233.9204 6919.8696 16
-4027.262 2242.3645 6946.0264 16
-4008.7776 2255.1226 6985.5469 16
-3983.1528 2264.0884 7013.3188 16
-3956.0718 2272.4065 7039.0859 15
-3908.8777 2269.2258 7029.2329 17
-3862.3687 2266.3787 7020.4136 17
-3862.1865 2290.9492 7096.5244 18
-3824.2231 2293.4033 7104.126 18
-3795.5806 2301.564 7129.4053 18
-3765.0359 2308.7419 7151.6396 18
-3703.8643 2297.0889 7115.543 18
-3523.2219 2210.2202 6846.4551 18
-3501.6365 2222.2705 6883.7832 18
-3479.0386 2233.9553 6919.978 18
-3445.7893 2238.9973 6935.5967 18
-3422.0181 2250.3943 6970.9004 18
-3401.6772 2264.353 7014.1396 18
-3381.9177 2279.0493 7059.6631 18
-3356.3452 2290.1475 7094.041 18
-3327.3594 2299.1682 7121.9839 18
-3302.7402 2311.4768 7160.1113 18
-3275.1143 2321.9741 7192.6289 18
-3247.709 2332.9067 7226.4937 18
-3217.8645 2342.3562 7255.7646 18
-3188.2053 2352.198 7286.2515 18
-3164.6846 2366.9014 7331.7969 18
0 0 0 0
-3119.7583 2399.1802 7431.7847 15
-3096.5872 2415.4607 7482.2153 16
-3070.1365 2429.6187 7526.0718 16
0 0 0 0
0 0 0 0
0 0 0 0
-2941.8877 2471.7593 7656.6079 18
-2890.9248 2466.9905 7641.8359 18
-2850.3557 2471.0806 7654.5059 18
-2812.6533 2477.8286 7675.4087 18
-2770.4514 2480.7693 7684.5181 18
-2744.3982 2498.5105 7739.4736 18
-2701.9055 2501.6333 7749.147 18
0 0 0 0
0 0 0 0
0 0 0 0
0 0 0 0
0 0 0 0
-1582.3154 1631.3993 5053.4795 18
-1553.542 1632.6335 5057.3032 18
-1524.5214 1633.6516 5060.4565 18
-1495.1021 1634.2748 5062.3867 18
-1465.4025 1634.611 5063.4277 18
-1435.541 1634.7765 5063.9409 18
-1405.6785 1634.948 5064.4722 18
-1375.7809 1635.0853 5064.8975 18
-1345.3438 1634.5731 5063.311 18
-1314.4812 1633.5092 5060.0151 18
-1283.1591 1631.8108 5054.7544 18
-1251.443 1629.5184 5047.6533 18
-1219.2522 1626.4803 5038.2427 18
-1188.0499 1624.6417 5032.5474 15
-1155.5438 1620.8795 5020.8931 16
-1122.942 1616.7806 5008.1963 16
-1088.9999 1610.4769 4988.6699 15
-1057.9427 1608.207 4981.6387 16
-1236.3466 1933.3545 5988.8267 16
-993.19214 1599.0205 4953.1816 16
-959.83875 1592.3846 4932.6265 16
-926.34314 1585.0889 4910.0269 16
-894.75568 1580.6907 4896.4028 16
-857.8512 1566.2898 4851.7939 16
-823.68799 1556.0686 4820.1323 16
-790.08972 1546.2185 4789.6206 16
-755.69 1534.0077 4751.7959 16
-721.93933 1522.2198 4715.2817 16
-689.07208 1511.4207 4681.8296 17
-657.02197 1501.583 4651.356 16
-626.02551 1493.397 4625.9985 16
-595.4776 1485.5802 4601.7852 16
-564.02948 1474.6593 4567.9565 16
-532.25879 1461.7517 4527.9731 16
-499.79877 1445.4799 4477.5688 16
-469.34387 1433.5074 4440.4829 16
-440.22797 1424.4453 4412.4116 18
-412.08188 1417.5751 4391.1299 16
-384.87515 1413.2275 4377.6631 16
-356.94363 1405.3981 4353.4102 16
-328.63235 1394.7367 4320.3853 16
-300.20361 1381.7333 4280.1055 16
-272.03394 1367.6321 4236.4248 16
-245.13771 1357.7164 4205.71 16
-218.97212 1350.0612 4181.9966 18
-193.1505 1342.843 4159.6377 18
-167.41434 1334.1942 4132.8467 18
-141.90933 1324.7389 4103.5576 17
-116.90282 1316.9885 4079.5498 17
-92.017578 1306.9194 4048.3591 15
-67.341461 1293.7653 4007.6128 15
-43.194313 1281.9772 3971.0974 15
-19.548584 1274.6637 3948.4431 16
3.838752 1270.698 3936.1584 16
26.601782 1244.3401 3854.5112 16
0 0 0 0
0 0 0 0
0 0 0 0
0 0 0 0
138.57639 1224.5576 3793.2324 15
160.94875 1223.7429 3790.709 18
183.46713 1224.1022 3791.8215 18
206.06171 1224.8358 3794.0942 18
228.71324 1225.7303 3796.8652 18
251.21217 1225.7201 3796.8335 18
273.71979 1225.7504 3796.9272 18
296.31433 1226.1359 3798.1216 18
319.19598 1227.571 3802.5669 18
341.72791 1227.5607 3802.5347 15
364.32666 1227.7767 3803.2041 16
386.85941 1227.7582 3803.1465 16
408.67667 1225.5959 3796.4487 16
429.82315 1221.7527 3784.5437 16
450.86145 1217.9983 3772.9143 16
516.80188 1330.17 4120.3813 16
548.39435 1347.8025 4175 16
570.22943 1340.9667 4153.8252 14
591.80194 1334.1045 4132.5688 14
609.82092 1320.0956 4089.1743 14
626.87317 1305.1445 4042.8616 14
645.92786 1295.3101 4012.3977 14
666.27515 1288.674 3991.8416 14
679.29053 1268.7981 3930.2734 14
701.20801 1266.3165 3922.5864 15
720.68481 1259.7279 3902.1772 14
741.25146 1255.3949 3888.7551 14
767.0943 1259.9894 3902.9873 12
778.69 1241.5984 3846.0188 12
801.41559 1241.4952 3845.699 12
816.36688 1229.687 3809.1216 12
835.7373 1224.9919 3794.5776 12
857.37415 1223.7777 3790.8167 12
877.12457 1220.0017 3779.1201 12
895.77686 1214.9243 3763.3921 12
911.42957 1206.1243 3736.1326 12
974.11816 1258.5094 3898.4028 12
986.90155 1245.4862 3858.0618 12
1000.5296 1234.0946 3822.7749 12
1014.2543 1223.3241 3789.4116 12
938.47449 1107.4043 3430.3342 12
1000.4078 1155.4569 3579.1836 13
1015.0302 1148.005 3556.1006 14
1028.0172 1139.0444 3528.3438 14
1038.0875 1127.2738 3491.8828 14
1052.3115 1120.3857 3470.5459 14
1065.5242 1112.7053 3446.7551 16
1078.0323 1104.5923 3421.6238 16
1094.0219 1100.28 3408.2659 16
1103.2085 1089.4062 3374.583 14
1118.3289 1084.6749 3359.927 14
1131.2887 1078.0503 3339.4065 14
1133.8944 1061.9562 3289.5527 14
1156.516 1064.8353 3298.4712 14
1158.8486 1049.2487 3250.1895 65546
1065.6976 949.13196 2940.0645 262148
0 0 0 0
1056.8557 911.45374 2823.3511 5719093
1076.7611 914.14813 2831.6973 8613207
1102.2666 921.44122 2854.2886 9598820
1121.7062 923.51959 2860.7266 9664354
1138.0128 922.99524 2859.1023 9927012
1152.6744 921.17145 2853.4529 10453100
1170.1672 921.63031 2854.8745 9597791
1187.027 921.58466 2854.7329 9400411
1203.1842 921.0025 2852.9297 10979187
1210.1423 913.49237 2829.6658 8808274
1228.3282 914.54718 2832.9333 9597790
1252.5446 920.00293 2849.8333 9992036
1270.656 920.8891 2852.5784 9663071
1276.6464 913.0827 2828.397 9531484
1303.0114 919.8623 2849.3975 9268313
1322.3973 921.60443 2854.7939 10452586
1331.3756 916.14081 2837.8699 9926242
1350.0132 917.37744 2841.7004 9992036
1366.8162 917.35223 2841.6223 10123624
1381.5784 915.97461 2837.355 10057575
1398.921 916.32037 2838.426 9728866
1418.5848 918.16034 2844.1255 9992038
1426.8733 912.68085 2827.1521 9992039
1445.0208 913.56158 2829.8804 9926247
1457.684 910.99481 2821.9294 9991783
1479.1099 913.90033 2830.9297 9925989
1496.8248 914.47357 2832.7053 10123367
1509.6895 912.10364 2825.3643 9728865
1541.2814 920.97601 2852.8477 9531230
1559.9486 922.01672 2856.0713 9531230
1576.9987 922.08942 2856.2964 9860451
1590.4462 920.07654 2850.0613 9794659
1601.5103 916.74158 2839.7307 9794659
1628.9622 922.75916 2858.3711 10057830
1641.8579 920.49231 2851.3491 9794402
1654.4999 918.13062 2844.0334 9728867
1661.3809 912.65204 2827.0627 9992040
1683.2814 915.45105 2835.7332 10583921
1709.4657 920.5014 2851.3772 9926248
1720.2327 917.23242 2841.2512 9860454
1748.2227 923.12115 2859.4924 9531489
1762.8401 921.90338 2855.7202 9597539
1773.1385 918.47168 2845.0898 9729124
1804.0955 925.70459 2867.4949 9531746
1805.8177 917.94189 2843.449 9400160
1821.0105 917.10675 2840.8621 9860711
1835.3035 915.83801 2836.9319 9334367
1856.3871 917.95007 2843.4744 9465953
1875.7793 919.19537 2847.3318 9794918
1891.6324 918.69965 2845.7961 9729125
1909.1075 918.99347 2846.7063 9333853
1941.5396 926.41888 2869.7075 9202524
1954.8859 924.6875 2864.3445 9268316
1972.5607 925.01587 2865.3616 7623492
1980.006 920.5824 2851.6284 8347214
1995.9542 920.14398 2850.2703 8676180
1993.8617 911.46588 2823.3884 9663074
2018.2141 914.92035 2834.0894 8939352
2039.4835 916.93176 2840.3201 9334108
2056.9607 917.2193 2841.2107 9399903
2078.6038 919.34473 2847.7944 9334110
2098.5251 920.68054 2851.9324 9597281
2128.4214 926.33636 2869.4519 10057831
2121.9927 916.21832 2838.1099 9728868
2144.0925 918.48047 2845.1172 9333853
2159.3342 917.7923 2842.9856 9005144
2175.9695 917.70245 2842.7073 9005145
2188.9976 916.10449 2837.7573 8873559
2199.7473 913.58459 2829.9517 9531234
2224.6929 916.95392 2840.3884 8873306
2213.8757 905.64307 2805.3516 8544596
2229.2134 905.12036 2803.7324 10386800
2283.6633 920.36841 2850.9653 9992296
2296.2612 918.64917 2845.6399 9794660
2302.5408 914.44562 2832.6189 9597282
2312.1726 911.62463 2823.8804 9202524
2315.5103 906.38043 2807.6357 9268317
2344.2261 911.07416 2822.1753 8610644
2351.6543 907.48676 2811.0627 8742230
2367.9517 907.34814 2810.6333 9005401
2388.2046 908.71667 2814.8726 8610644
2402.4553 907.79816 2812.0273 9005402
2408.1797 903.69269 2799.3101 9202781
2448.1055 912.38989 2826.251 9136731
2466.3801 912.95471 2828.0005 8610644
2456.3623 903.1098 2797.5044 8873815
2457.6213 897.5152 2780.1743 8215886
2488.9502 902.9032 2796.8647 8347474
2512.6191 905.45984 2804.7839 8676439
2513.2971 899.75195 2787.103 9136733
2520.0293 896.27185 2776.3232 9005147
2543.6162 898.79266 2784.1316 8808795
2549.8582 895.19153 2772.9766 8676952
2558.1562 892.3537 2764.1863 8940380
2586.3901 896.46198 2776.9121 8414037
2597.8064 894.72607 2771.5347 8151124
2595.5515 888.33295 2751.7312 7953488
2606.0183 886.3465 2745.5779 8479576
2641.969 892.99829 2766.1829 8808284
0 0 0 0
0 0 0 0
0 0 0 0
0 0 0 0
0 0 0 0
-4627.3188 1679.5696 5108.9082 14
-5174.1177 1890.4092 5750.2393 12
-5167.7896 1900.6147 5781.2822 12
-5456.6602 2020.2496 6145.187 12
-6037.4507 2250.2974 6844.9453 12
-5390.1128 2022.6091 6152.3643 12
-5974.7197 2257.248 6866.0884 12
-5975.3667 2272.9722 6913.918 12
-5529.2261 2117.7864 6441.874 12
-5564.8403 2146.2456 6528.4419 12
-5591.7832 2171.7358 6605.9775 12
-5911.3203 2312.0244 7032.7061 12
-5917.1777 2330.7478 7089.6597 12
-5926.9453 2351.2908 7152.1465 12
-4886.1919 1952.3732 5938.7212 12
-4885.6978 1966.3389 5981.2017 12
-4879.4468 1978.1746 6017.2036 12
-4877.9263 1992.1169 6059.6133 11
-4851.5239 1996.0286 6071.5117 14
-4858.9961 2014.0399 6126.2983 14
-4849.1543 2025.0917 6159.916 14
-4806.1836 2022.3712 6151.6406 14
-5189.7275 2200.4514 6693.3247 14
-4824.9634 2061.5481 6270.8086 14
-4811.8037 2071.8828 6302.2451 14
-4785.1255 2076.5132 6316.3296 14
-4877.9868 2133.5 6489.6719 14
-4898.3916 2159.4502 6568.6069 14
-4758.0347 2114.3767 6431.5029 14
-4753.8286 2129.5667 6477.707 14
-4703.6748 2124.2529 6461.5444 13
-4576.9795 2084.0015 6339.1074 13
-4574.498 2100.1089 6388.1025 14
-4565.0342 2113.2527 6428.0835 14
-4576.2983 2136.2942 6498.1709 14
-4574.4927 2153.5735 6550.731 15
-5016.2241 2381.7437 7244.7783 16
-5005.0376 2396.9478 7291.0259 16
-4907.5903 2370.7458 7211.3252 16
-4886.2139 2381.1548 7242.9873 16
-4862.043 2390.3745 7271.0317 16
-4856.6201 2409.0583 7327.8643 16
