# .PCD v0.7 - Point Cloud Data file format
VERSION 0.7
FIELDS x y z rgb
SIZE 4 4 4 4
TYPE F F F U
COUNT 1 1 1 1
WIDTH 1370
HEIGHT 1
VIEWPOINT 0 0 0 1 0 0 0
POINTS 1370
DATA ascii
-5190.957 922.32672 11550.426 12
-5094.4805 917.28052 11487.23 12
-5027.0933 917.40613 11488.805 12
-4917.6147 909.74847 11392.906 12
-4838.8965 907.64734 11366.594 12
-4742.8574 902.19214 11298.277 12
-4674.8447 901.98834 11295.725 12
-4605.6768 901.55243 11290.266 13
-4547.7168 903.32983 11312.524 270
-4472.2729 901.63568 11291.309 270
-4411.7905 902.95221 11307.795 270
-4349.1768 903.86621 11319.242 272
-4819.7627 1017.3569 12740.502 274
-4760.981 1020.9427 12785.407 275
-4572.856 996.45953 12478.801 278
-4146.5991 918.4278 11501.598 279
-4090.6831 921.18524 11536.13 537
-4094.425 937.69916 11742.937 539
-4008.6377 933.92572 11695.682 286
-3921.6851 929.74329 11643.304 1315
-3619.6213 873.49982 10938.959 1827
-3232.1624 794.22107 9946.1406 1054
-3636.1025 910.0755 11397.002 533
-3986.3118 1016.6127 12731.182 274
-3336.3235 867.26337 10860.858 16
-3148.0322 834.4151 10449.496 16
-3420.0933 924.7179 11580.37 16
-3363.2261 927.96277 11621.006 16
-3298.0676 929.00781 11634.094 16
-3234.0161 930.41602 11651.729 273
-3163.0181 929.84357 11644.56 273
-3113.1365 935.59167 11716.544 273
-3052.2834 938.22955 11749.578 273
-2982.1926 938.08472 11747.765 272
-2907.1526 936.33893 11725.902 272
-2834.9243 935.43542 11714.588 272
-2761.4343 934.05994 11697.361 16
-2699.7615 936.71344 11730.593 16
-2629.9985 936.62622 11729.5 16
-2563.4031 937.69305 11742.859 16
-2493.4553 937.55872 11741.178 16
-2425.614 938.23151 11749.604 16
-2345.5242 934.06628 11697.441 16
-2278.0911 934.84113 11707.146 16
-2200.6018 931.40857 11664.159 16
-2137.3416 933.97113 11696.249 16
-2061.3982 930.97723 11658.757 17
-1992.1455 930.90228 11657.818 17
-1921.5942 930.19336 11648.94 18
-1840.0194 923.89655 11570.084 18
-1885.3838 983.31702 12314.215 18
-1705.7836 925.46869 11589.772 18
-1627.6641 920.1344 11522.971 19
-1560.229 920.63739 11529.27 19
-1493.7246 921.76086 11543.339 19
-1418.7585 917.51984 11490.229 19
-1341.5613 911.33563 11412.782 19
-1267.6035 906.81219 11356.135 19
-1198.6487 905.5611 11340.468 19
-1132.1188 906.10223 11347.244 19
-1058.4139 900.60663 11278.421 19
-990.02124 899.19482 11260.741 19
-916.44806 892.53363 11177.322 19
-847.05127 889.21893 11135.812 21
-777.17444 884.79755 11080.441 21
-706.38086 878.41992 11000.574 21
-639.06079 875.50409 10964.06 21
-574.57764 876.2547 10973.459 21
-503.9791 866.68042 10853.56 21
-438.73892 864.86755 10830.856 21
-373.18692 861.71338 10791.355 20
-308.92252 860.84247 10780.449 20
-243.97018 857.10052 10733.589 21
-180.4278 857.41974 10737.586 21
-141.21541 1036.6995 12982.731 21
-53.276779 859.28137 10760.899 21
10.410564 852.40033 10674.727 21
73.54229 850.9079 10656.038 21
135.93147 846.17224 10596.731 21
197.28604 840.02417 10519.738 21
260.9357 844.25433 10572.714 21
320.68268 836.66425 10477.662 21
388.39993 848.95801 10631.618 21
448.4487 843.39777 10561.986 21
505.05582 833.51959 10438.281 21
561.47711 825.52393 10338.15 21
626.26453 830.19189 10396.608 21
686.55164 828.59229 10376.576 21
746.50085 826.88141 10355.15 21
806.13861 825.11169 10332.987 21
864.1394 822.03448 10294.452 21
924.05408 821.0639 10282.297 21
980.737 817.51935 10237.908 21
1036.4484 813.62531 10189.142 21
1092.0878 810.10638 10145.074 21
1147.9435 807.10693 10107.512 19
1206.3828 806.13141 10095.295 19
1254.354 798.58344 10000.771 19
1308.6646 795.57043 9963.0391 19
1366.2772 794.73846 9952.6191 19
1425.0232 794.60712 9950.9756 19
1481.657 793.35529 9935.2988 19
1533.6095 789.78845 9890.6309 18
1590.1027 788.73645 9877.4561 16
1643.2998 786.18237 9845.4707 16
1677.8273 775.1778 9707.6582 65552
1711.1432 764.36151 9572.2051 196619
1836.7292 794.13367 9945.0459 393219
0 0 0 0
1857.4543 754.66351 9450.7559 9730931
1917.2137 756.14337 9469.2881 9598313
1921.7687 736.3858 9221.8613 9795948
1981.5502 738.29742 9245.8008 9861739
2075.054 752.33264 9421.5654 10190705
2093.6108 739.17145 9256.7461 10190705
2144.5642 737.82825 9239.9248 10059119
2202.1204 738.76703 9251.6816 9927532
2255.7109 738.36212 9246.6113 10059375
2305.2173 736.67139 9225.4375 10124655
2368.5913 739.38782 9259.4561 9993326
2431.2236 741.755 9289.1006 10059118
2485.498 741.52386 9286.2061 10322034
2547.6851 743.61224 9312.3594 9928046
2598.7388 742.4314 9297.5713 10257012
2671.6504 747.41455 9359.9756 10191218
2696.939 739.14294 9256.3896 9928046
2767.562 743.37823 9309.4287 10059376
2821.9441 743.17078 9306.8311 9993838
2873.5881 742.26416 9295.4766 10059630
2914.9487 738.78516 9251.9092 10125165
2958.6311 736.01233 9217.1846 9993320
3038.1902 742.10321 9293.4609 10321771
3080.7876 739.10968 9255.9727 10321513
3129.2776 737.60986 9237.1904 10321000
3226.3916 747.4259 9360.1182 11044723
3184.491 725.25024 9082.4092 11242103
3276.6169 733.82825 9189.833 11308410
3377.6956 744.09802 9318.4424 10518894
3317.9426 719.17657 9006.3477 9992807
3378.5046 720.70996 9025.5508 9927013
3432.8276 720.88544 9027.748 9664098
3458.8284 715.19928 8956.5391 9335386
3509.0676 714.62103 8949.2979 5190178
3500.8215 702.32684 8795.3369 11046006
3583.2007 708.30774 8870.2363 10650991
3621.2085 705.47137 8834.7158 8676687
3687.2896 708.10706 8867.7227 8874067
3764.0547 712.69165 8925.1357 9597533
3824.3601 714.07587 8942.4707 9597534
3886.0662 715.68005 8962.5605 9926755
3958.8074 719.24603 9007.2178 9992291
3940.1729 706.33649 8845.5498 9597787
3939.2683 696.90271 8727.4092 9466974
4147.6479 724.25842 9069.9883 10322797
4263.0542 734.8869 9203.0898 12165003
4329.2339 736.8681 9227.9014 11046519
4391.8867 738.20715 9244.6699 12098948
4316.9014 716.66333 8974.874 12230534
4454.4512 730.49823 9148.1309 12888977
4431.8965 718.06018 8992.3672 14010794
4419.0918 707.47852 8859.8516 13680031
4408.9072 697.56 8735.6406 10389098
4499.895 703.69293 8812.4443 14273713
4511.6763 697.44104 8734.1504 13613216
4536.1479 693.27045 8681.9219 13349529
4672.793 706.14484 8843.1494 9598303
4750.6304 709.94531 8890.7432 9137495
4822.2168 712.73846 8925.7227 9334360
4754.7993 695.1488 8705.4443 10715240
4685.894 677.7215 8487.2002 11175019
4824.4585 690.35205 8645.374 10122074
4819.1294 682.3432 8545.0781 11042919
4921.1235 689.53882 8635.1904 11832690
4984.4443 691.22333 8656.2852 12689026
5151.0181 707.04639 8854.4395 12294526
5169.4111 702.41553 8796.4473 12426627
5363.668 721.53485 9035.8809 12625036
5513.2793 734.32977 9196.1133 11835266
5514.4492 727.29626 9108.0322 10585199
5571.8896 727.74878 9113.6992 9335389
5558.7759 719.06592 9004.9619 9203286
5683.6729 728.23102 9119.7383 9729117
5605.3931 711.43628 8909.415 11176301
5583.4497 702.03851 8791.7256 12558192
5428.9004 676.29535 8469.3398 12492141
5538.1406 683.58392 8560.6162 12755574
5502.9771 673.07788 8429.0479 12953471
5514.0625 668.36682 8370.0498 13348490
5562.2188 668.19305 8367.874 13414542
5601.0581 666.91296 8351.8438 12691077
6186.0327 730.11359 9143.3135 11835523
6146.563 719.15582 9006.0879 10782579
6204.4258 719.67676 9012.6113 10388080
6395.3862 735.49554 9210.7129 9993322
6275.7822 715.63263 8961.9668 9795944
6480.5356 732.77948 9176.6992 9466724
6218.1465 697.25897 8731.8701 9269860
6206.4839 690.20728 8643.5615 8809309
6230.5015 687.20648 8605.9824 12363159
6105.8555 667.99054 8365.3379 11639692
6221.4985 675.16034 8455.126 11442312
6389.1592 687.81537 8613.6074 11507078
6496.7544 693.85474 8689.2393 11572613
6570.2783 696.18915 8718.4727 11374975
6638.3818 697.91705 8740.1113 11177592
6742.3315 703.35773 8808.2461 10651248
6785.7676 702.4505 8796.8848 7625284
6726.8379 691.04126 8654.0059 9467744
6782.6191 691.49957 8659.7451 10258297
6752.2148 683.23029 8556.1875 10258038
7024.0635 705.44012 8834.3242 11836291
7014.1807 699.23578 8756.627 11901057
7094.6802 702.06653 8792.0762 11571578
6982.8477 685.96222 8590.3994 8347727
7110.9839 693.49384 8684.7188 7294016
7070.4233 684.58331 8573.1318 11701879
6924.5811 665.67896 8336.3896 10057564
6925.9209 661.09119 8278.9365 9202773
7533.5415 714.03149 8941.915 9138267
8288.0029 780.05261 9768.707 10521214
9153.376 855.52423 10713.849 10260876
9134.2764 847.85785 10617.842 9474699
9025.6719 832.04523 10419.818 11119528
9067.5488 830.22583 10397.032 12698308
8867.1055 806.39355 10098.578 13553617
8511.8184 768.89355 9628.9609 13619665
8049.4272 722.28247 9045.2432 13488078
8099.2134 721.94214 9040.9814 13882836
8387.3379 742.71149 9301.0791 14276822
8118.9868 714.2547 8944.71 14605533
7999.5483 699.18231 8755.957 13026501
8109.4648 704.22137 8819.0615 9736856
8203.5908 707.83344 8864.2959 7301744
8291.0566 710.82843 8901.8027 4605767
8342.6201 710.72693 8900.5322 4342846
8548.3496 723.67816 9062.7217 5922131
8395.416 706.2937 8845.0137 7764075
8364.6875 699.34216 8757.959 8488051
0 0 0 0
0 0 0 0
0 0 0 0
0 0 0 0
-7625.229 717.45917 8364.1006 12
-7581.4263 718.00507 8370.4648 12
-7513.6406 716.27197 8350.2598 12
-7484.2939 718.20453 8372.79 12
-7385.9297 713.49561 8317.8936 11
-7440.0918 723.55676 8435.1865 11
-7455.9546 730.00427 8510.3506 12
-7318.2891 721.40527 8410.1045 12
-7282.1382 722.76404 8425.9443 11
-6992.6162 698.82031 8146.8096 12
-6971.9692 701.60107 8179.2275 12
-6948.1782 704.10211 8208.3848 12
-6987.333 713.06213 8312.8398 12
-6919.9971 711.20471 8291.1865 12
-9409.2139 973.95026 11354.26 12
-9299.3965 969.51624 11302.568 12
-9245.3271 970.87225 11318.377 12
-9176.5527 970.6925 11316.281 12
-9115.2422 971.30542 11323.427 12
-7935.8633 851.90436 9931.4551 12
-8994.71 972.78467 11340.672 12
-7798.624 849.77649 9906.6484 12
-6954.1533 763.50659 8900.9189 12
-6900.7183 763.4306 8900.0332 12
-6902.1538 769.4707 8970.4482 12
-6836.0166 768.01282 8953.4521 14
-6808.3657 770.88983 8986.9922 14
-6825.0049 778.86658 9079.9844 14
-6786.6162 780.64044 9100.6641 14
-6684.8887 775.09863 9036.0586 14
-6645 776.69531 9054.6729 14
-6620.6641 780.15076 9094.9561 11
-6582.2339 781.98846 9116.3799 12
-6523.0332 781.36859 9109.1533 12
-6466.3555 781.04303 9105.3584 12
-6481.3022 789.43616 9203.2041 12
-6427.9316 789.57977 9204.8789 268
-6397.728 792.59595 9240.041 268
-6402.6846 800.05774 9327.0303 268
-6409.8921 807.93323 9418.8428 268
-6336.1855 805.65869 9392.3262 269
-6463.0703 829.0755 9665.3174 270
-6458.2051 835.85907 9744.4004 270
-6422.6152 838.75281 9778.1348 270
-6404.981 844.06525 9840.0674 270
-6371.4556 847.36212 9878.502 14
-6349.2539 852.23993 9935.3672 270
-6319.5117 856.18744 9981.3877 270
-6255.3335 855.50006 9973.374 270
-6230.2251 860.19385 10028.094 13
-6213.1675 866.10022 10096.95 13
-6207.5337 873.72949 10185.892 13
-6210.8477 882.78027 10291.405 13
-6173.0518 886.10956 10330.218 269
-6181.6313 896.22919 10448.191 270
-6196.8955 907.53241 10579.965 267
-6187.4683 915.41382 10671.846 268
-6140.1299 917.79126 10699.562 268
-6105.291 922.1062 10749.864 268
-6070.8555 926.57361 10801.945 268
-6026.6646 929.63153 10837.595 12
-6024.1992 939.26093 10949.854 12
-6079.2104 958.15894 11170.166 12
-6072.0371 967.56421 11279.812 12
-5997.9224 966.39313 11266.159 12
-5902.2393 961.68152 11211.231 12
-5870.9082 967.4671 11278.68 268
-5778.3208 963.17529 11228.646 268
-5713.3193 963.4353 11231.678 12
-5645.9751 963.3017 11230.12 12
-5604.1167 967.56512 11279.822 12
-5516.9336 964.01154 11238.396 12
-5460.4668 965.80402 11259.292 12
-5418.252 970.19293 11310.457 12
-5376.7012 974.81207 11364.307 12
-5315.8569 976.00604 11378.226 12
-5254.5356 977.14203 11391.469 12
-5176.0825 975.08014 11367.432 12
-5108.9468 975.12402 11367.943 12
-5055.0674 977.73315 11398.36 12
-4940.8574 968.58594 11291.723 12
-4893.188 972.41101 11336.315 12
-4804.0215 967.98108 11284.672 12
-4737.9858 968.15265 11286.672 12
-4659.127 965.67145 11257.746 12
-4599.8452 967.23468 11275.97 13
-4530.0283 966.59601 11268.524 270
-4460.7617 966.05737 11262.245 270
-4389.6934 965.10632 11251.158 270
-4306.9121 961.51105 11209.244 272
-4832.2056 1095.6813 12773.394 274
-4651.0894 1071.3977 12490.297 275
-4148.8276 971.15515 11321.675 533
-4084.4607 971.80414 11329.241 278
-4707.2808 1138.7079 13274.996 537
-4586.5161 1128.3521 13154.268 283
-4680.5332 1171.3914 13656.018 284
-3893.481 991.56134 11559.568 1059
-3649.3965 946.04504 11028.942 1314
-3481.8528 919.07263 10714.499 1054
-3337.9263 897.44775 10462.398 277
-3633.1335 995.30634 11603.228 275
-3431.6794 958.25397 11171.273 16
-3397.0083 967.23224 11275.941 16
-3369.9753 978.78912 11410.671 16
-3338.3577 989.46063 11535.079 16
-3277.6489 991.77557 11562.066 16
-3209.5642 991.90985 11563.632 272
-3142.1143 992.25031 11567.602 272
-3077.4626 993.50964 11582.282 272
-3017.8293 996.48334 11616.949 272
-2940.3552 993.56732 11582.955 272
-2865.2063 991.31641 11556.714 272
-2791.1138 989.32971 11533.553 272
-2725.0759 990.16992 11543.348 16
-2653.7183 989.07074 11530.533 16
-2588.3921 990.22076 11543.94 16
-2518.6367 989.69287 11537.786 16
-2450.7556 989.89246 11540.113 16
-2378.6211 988.33624 11521.971 16
-2314.8948 990.28497 11544.689 16
-2245.8398 990.00336 11541.406 16
-2169.5349 986.4079 11499.49 16
-2099.4641 985.50555 11488.971 17
-2032.4312 986.01642 11494.927 18
-1963.4097 985.56464 11489.659 18
-1887.969 981.74231 11445.1 18
-1819.839 981.57843 11443.188 18
-1742.9902 976.51715 11384.185 18
-1674.4719 975.90332 11377.028 18
-1603.4751 973.73285 11351.726 19
-1535.056 973.00623 11343.255 19
-1471.5319 975.45795 11371.836 19
-1400.6222 973.01404 11343.346 19
-1327.4327 968.66022 11292.589 19
-1256.6647 965.7049 11258.136 19
-1184.7708 961.50446 11209.168 19
-1111.012 955.20166 11135.689 19
-1040.5487 951.11517 11088.05 19
-973.1366 949.45465 11068.691 19
-901.34027 942.96741 10993.063 19
-828.7301 934.55151 10894.951 21
-760.12317 929.60925 10837.335 21
-692.27728 924.77148 10780.937 21
-627.07568 922.84149 10758.437 21
-560.64703 918.46436 10707.408 21
-495.08896 914.57825 10662.104 21
-433.36948 917.68347 10698.305 21
-368.06839 912.96899 10643.344 21
-304.27863 910.82861 10618.391 21
-240.59309 907.96552 10585.013 21
-177.5894 906.56342 10568.668 21
-114.52823 903.1803 10529.228 21
-52.051701 901.82751 10513.457 21
10.237175 900.41052 10496.938 21
72.29187 898.51636 10474.855 21
133.72765 894.2337 10424.929 21
194.55289 889.86511 10374 21
255.26524 887.20227 10342.956 21
315.91489 885.39478 10321.885 21
376.52026 884.0697 10306.438 21
437.77664 884.42975 10310.635 21
489.02203 866.95386 10106.902 21
555.6759 877.62775 10231.337 21
614.24127 874.68323 10197.011 21
673.81543 873.57422 10184.081 21
735.26068 874.87378 10199.231 21
795.76617 874.94269 10200.035 21
853.82159 872.49823 10171.537 21
913.42566 871.85431 10164.03 21
969.50592 868.13458 10120.667 21
1023.5532 863.13397 10062.37 21
1076.9734 858.18439 10004.668 20
1134.7634 857.05176 9991.4629 19
1189.9324 854.1499 9957.6338 19
1238.16 846.77515 9871.6592 19
1292.0548 843.76672 9836.5869 19
1347.1621 841.77563 9813.375 18
1403.3379 840.58936 9799.5459 18
1458.2565 838.77435 9778.3867 18
1509.3914 835.00482 9734.4414 18
1568.8375 835.94153 9745.3613 16
1616.5221 830.76703 9685.0371 17
1654.535 821.1474 9572.8926 16
1691.1157 811.47833 9460.1709 16
1719.4988 798.62231 9310.2959 65549
1774.3201 798.46332 9308.4424 262152
0 0 0 0
1884.6381 798.45917 9308.3945 6443591
1877.5922 772.8526 9009.874 9599594
1907.0927 763.28937 8898.3867 9335650
1944.9397 757.49146 8830.7949 9269603
2012.2113 763.15704 8896.8438 9269603
2057.8545 760.53986 8866.333 9466981
2118.2529 763.37054 8899.333 9927533
2158.3342 758.91974 8847.4453 9730154
2205.8267 757.22406 8827.6777 9927532
2287.3413 767.01569 8941.8281 9927533
2317.4287 759.50934 8854.3193 9730154
2391.4436 766.41315 8934.8037 9664104
2410.146 755.67542 8809.623 9664874
2490.6113 764.34735 8910.7207 9598825
2525.5984 758.99219 8848.29 9599080
2589.8938 762.48346 8888.9912 9599079
2657.9082 766.90857 8940.5791 9467749
2704.3513 765.05823 8919.0078 9467235
2756.6392 764.90057 8917.1699 9203806
2801.6726 762.7738 8892.376 9401440
2859.1628 764.05444 8907.3057 9729891
2924.6587 767.38916 8946.1816 9926756
2974.4648 766.56171 8936.5352 10123878
3012.5107 762.78546 8892.5117 9992035
3043.7966 757.45673 8830.3896 9729119
3139.4036 768.04407 8953.8164 9400155
3124.9636 751.80438 8764.4951 8874068
3190.0869 754.92407 8800.8643 8546132
3193.2097 743.50726 8667.7676 10848373
3225.0579 739.03442 8615.624 10651249
3265.9553 736.74237 8588.9033 11046007
3272.7241 726.94 8474.6279 10059112
3324.4302 727.26459 8478.4111 6901307
3404.7036 733.7359 8553.8535 9269596
3461.5566 735.04413 8569.1055 9795940
3428.7463 717.55029 8365.1631 9598305
3463.5168 714.49652 8329.5625 10124648
3487.3147 709.29681 8268.9443 10190442
3599.8289 722.03552 8417.4512 9993062
3614.1367 714.99738 8335.4014 11177079
3624.8018 707.43811 8247.2754 9860962
3721.2126 716.5921 8353.9922 10452844
3770.7202 716.5921 8353.9922 9992805
3949.8562 740.90759 8637.4609 8282188
4176.8916 773.47089 9017.082 8480080
4104.4751 750.4599 8748.8213 9730147
4118.6792 743.66302 8669.584 9467231
4163.5078 742.49506 8655.9678 11507067
4216.2368 742.74731 8658.9082 12165510
4255.542 740.65723 8634.542 13219481
4273.3481 734.91931 8567.6504 13812131
4355.7061 740.28729 8630.2295 13877153
4406.2734 740.19031 8629.0986 12230533
4516.812 750.05426 8744.0928 11308918
4509.0386 740.27069 8630.0361 10518632
4547.0112 738.13257 8605.1104 10387561
4563.7251 732.62921 8540.9521 1837829
4329.4004 687.38867 8013.5405 1179648
4320.6211 678.55157 7910.5176 6703670
4439.3486 689.71417 8040.6509 11767147
4442.2114 682.82965 7960.3916 12227434
4522.4688 687.86139 8019.0513 11305570
4687.9375 705.61438 8226.0146 10845535
4665.9937 695.08337 8103.2446 11635825
4798.3042 707.51178 8248.1348 11241837
4934.5503 720.26404 8396.7998 10584423
5087.2642 735.14136 8570.2383 10453097
5225.4521 747.64618 8716.0195 11045235
5385.7505 763.03876 8895.4648 11177078
5380.9019 754.96216 8801.3086 10848113
5338.1875 741.77893 8647.6191 10913903
5315.4741 731.5993 8528.9453 12558727
5173.0205 705.28601 8222.1865 13347729
5204.3286 702.93341 8194.7598 13215879
5250.6665 702.6355 8191.2871 12294505
5392.0879 714.95038 8334.8535 11767645
5415.062 711.47913 8294.3857 11900000
5531.9673 720.30084 8397.2285 11111256
5479.1743 707.06628 8242.9404 12953716
5691.1387 727.92957 8486.1641 13677959
5784.7939 733.42761 8550.2598 13677964
5964.2563 749.61469 8738.9678 12690820
6001.0728 747.74908 8717.2188 12032383
5930.625 732.664 8541.3574 10979443
5805.293 711.11121 8290.0967 10189929
5870.2241 713.0307 8312.4736 9400927
5894.2041 709.98541 8276.9717 9203293
5847.0918 698.49762 8143.0479 11506560
5952.1821 705.23138 8221.5498 11111801
6013.9106 706.75983 8239.3682 10585457
6004.1606 699.93109 8159.7593 11374973
6096.1904 704.98157 8218.6377 10980213
6100.8989 699.93396 8159.793 10519663
6212.814 707.16852 8244.1328 10322284
6411.6479 724.10632 8441.5928 11046007
6348.4233 711.41522 8293.6406 11112056
6362.6724 707.53418 8248.3955 11309437
6388.5117 704.99152 8218.7529 11309693
6319.8706 692.13983 8068.9292 11309439
6391.7563 694.7558 8099.4263 11046523
6565.8198 708.35638 8257.9805 10585972
6562.2202 702.73029 8192.3916 10453618
6550.1177 696.28271 8117.2271 9860968
6401.3984 675.51282 7875.0923 9795175
7084.9175 742.23053 8652.8838 9531742
6299.0557 655.16016 7637.8218 9334610
6337.6641 654.4729 7629.8101 13085046
6195.79 635.28949 7406.1709 13742973
6182.5078 629.46851 7338.3096 12822385
6152.4951 622.03729 7251.6772 11045727
0 0 0 0
0 0 0 0
0 0 0 0
0 0 0 0
7747.4038 756.85468 8823.3711 7691877
8338.8691 809.17444 9433.3115 6114902
7765.1157 748.48163 8725.7588 6576995
7951.7412 761.40009 8876.3613 6578279
8220.2285 781.93567 9115.7646 7829627
8176.4673 772.69489 9008.0361 9935262
8206.5908 770.51099 8982.5762 11712185
8167.7559 761.92261 8882.4531 13487823
8096.1416 750.40594 8748.1924 13619409
8604.918 792.48816 9238.7842 13487821
8710.6787 797.15625 9293.2051 13553868
8523.9287 775.16492 9036.8311 14014164
8295.7773 749.7066 8740.0391 14014420
8303.834 745.77838 8694.2441 12501180
0 0 0 0
0 0 0 0
0 0 0 0
0 0 0 0
-6760.7153 680.06458 7415.8164 12
-6902.1108 698.83038 7620.4497 12
-6832.0669 696.29437 7592.7954 12
-6833.478 701.05536 7644.7119 12
-6812.6479 703.58301 7672.2749 12
-6773.0054 704.18866 7678.8789 12
-6849.6533 716.97491 7818.3081 12
-6661.3809 702.01642 7655.1924 12
-6648.9092 705.50684 7693.2534 12
-6604.8188 705.66724 7695.0029 12
-6565.9478 706.39154 7702.9004 12
-6498.3135 704.0097 7676.9277 12
-6464.4688 705.28076 7690.7881 12
-6471.9849 711.11438 7754.4014 12
-6257.856 692.50397 7551.4624 12
-6110.854 681.10724 7427.186 12
-6153.6167 690.84955 7533.4219 12
-6114.6289 691.48926 7540.3979 12
-6112.8198 696.37384 7593.6621 12
-6473.1021 742.88623 8100.8599 12
-6147.8838 710.83435 7751.3481 12
-6135.7256 714.76935 7794.2568 12
-6696.4204 786.00348 8571.0352 12
-6680.1069 790.08154 8615.5049 12
-6638.0483 791.15417 8627.2012 12
-6594.2939 792.03961 8636.8564 13
-6548.897 792.74011 8644.4951 13
-6519.3267 795.38257 8673.3096 14
-6562.6426 807.03003 8800.3213 14
-6519.4658 808.1427 8812.4541 14
-6401.6216 799.94287 8723.0381 14
-6340.4238 798.74567 8709.9834 11
-6269.835 796.33612 8683.708 12
-6218.2368 796.3186 8683.5176 12
-6164.8501 796.06982 8680.8047 12
-6125.7612 797.67877 8698.3496 12
-6164.8994 809.58783 8828.2129 268
-6139.6445 813.1723 8867.2998 268
-6104.6201 815.51343 8892.8291 268
-6078.4834 819.09302 8931.8633 268
-6086.2964 827.35046 9021.9072 270
-6469.436 887.22717 9674.8369 270
-6468.1885 894.98785 9759.4639 270
-6434.8418 898.40704 9796.749 270
-6420.4077 904.5531 9863.7686 270
-6291.48 894.53308 9754.5049 14
-6241.167 895.60858 9766.2324 270
-6210.2612 899.5152 9808.832 268
-6143.7969 898.29645 9795.542 268
-6107.8867 901.56445 9831.1787 268
-6103.6372 909.61383 9918.9541 268
-6078.6416 914.69794 9974.3936 268
-6146.1196 933.93359 10184.15 268
-6118.7422 938.99414 10239.334 268
-6090.6265 944.04169 10294.375 268
-6057.627 948.42664 10342.191 12
-6118.2461 967.70886 10552.455 12
-6047.3623 966.37482 10537.908 12
-6032.1299 973.9989 10621.046 12
-6008.3525 980.38959 10690.733 12
-5972.2134 984.87787 10739.676 12
-5891.9971 982.11578 10709.557 12
-5974.5322 1006.7173 10977.826 12
-5913.0459 1007.3256 10984.459 12
-5952.3394 1025.307 11180.539 12
-5787.4683 1008.1295 10993.226 12
-5740.1997 1011.2794 11027.574 12
-5670.5039 1010.5052 11019.132 12
-5634.8296 1015.8465 11077.376 12
-5628.7983 1026.7207 11195.955 12
-5593.8433 1032.5155 11259.145 12
-5522.0674 1031.5718 11248.854 12
-5445.8652 1029.7681 11229.185 12
-5423.6235 1038.2494 11321.67 12
-5363.0513 1039.5137 11335.456 12
-5325.2329 1045.2762 11398.295 12
-5212.0811 1036.2098 11299.43 12
-5122.7065 1031.6962 11250.211 12
-5030.6411 1026.5145 11193.706 12
-4950.4087 1023.641 11162.372 12
-4869.2939 1020.5048 11128.173 12
-4762.6191 1011.8521 11033.819 12
-4705.3013 1013.5907 11052.777 12
-4662.7588 1018.6061 11107.469 12
-4617.2158 1023.1003 11156.477 12
-4532.3647 1018.8887 11110.55 14
-4465.1162 1018.5681 11107.054 14
-4394.0059 1017.3439 11093.705 15
-4349.2861 1022.2854 11147.59 16
-4269.0571 1018.9045 11110.723 17
-4201.9839 1018.6067 11107.475 19
-4144.7173 1020.7143 11130.457 277
-4118.0679 1030.5521 11237.735 279
-4031.5388 1025.4823 11182.45 537
-4108.1567 1062.4352 11585.406 539
-3698.8308 972.83551 10608.359 539
-3636.24 972.90948 10609.166 541
-4249.1479 1156.902 12615.526 544
-3539.7964 981.03009 10697.718 542
-3495.4897 986.41724 10756.463 538
-3598.7412 1034.4186 11279.896 279
-3573.1528 1046.5024 11411.666 531
-3480.2095 1038.9449 11329.256 272
-3431.9839 1044.7025 11392.038 272
-3355.2185 1041.8291 11360.706 272
-3280.4746 1039.4786 11335.074 272
-3231.9507 1045.5118 11400.863 16
-3169.6841 1047.262 11419.948 272
-3090.5627 1043.3983 11377.817 272
-3032.1318 1046.5033 11411.676 272
-2986.7158 1054.3445 11497.18 272
-2917.436 1053.9307 11492.669 272
-2832.1711 1047.5847 11423.468 272
-2760.4868 1046.074 11406.994 272
-2684.0566 1042.6439 11369.591 16
-2628.4893 1047.3503 11420.912 16
-2555.8923 1045.3405 11398.995 16
-2495.4023 1048.3076 11431.351 16
-2421.7031 1045.7362 11403.311 16
-2351.6592 1044.641 11391.368 17
-2277.2126 1041.4675 11356.763 17
-2200.9661 1037.2524 11310.799 18
-2138.5825 1039.5112 11335.43 18
-2066.615 1037.1067 11309.209 18
-1994.7488 1034.5936 11281.805 18
-1928.162 1034.7393 11283.394 18
-1874.9098 1042.3086 11365.934 18
-1788.3154 1031.2155 11244.968 18
-1720.3125 1030.3992 11236.066 19
-1649.4357 1027.7264 11206.923 19
-1580.8414 1026.3114 11191.491 19
-1510.1952 1023.382 11159.547 19
-1442.0549 1021.96 11144.041 19
-1377.4746 1023.0455 11155.879 19
-1309.5797 1021.6547 11140.712 19
-1238.8132 1017.757 11098.21 19
-1166.7793 1012.3226 11038.949 19
-1093.7292 1005.3087 10962.465 19
-1021.5484 998.25824 10885.583 19
-955.21796 996.35968 10864.881 19
-883.12524 987.74176 10770.906 19
-813.32904 980.54974 10692.48 21
-747.79016 977.7088 10661.5 21
-682.11096 974.14288 10622.615 21
-617.57568 971.65155 10595.449 21
-552.94208 968.42426 10560.257 21
-487.69254 963.15668 10502.816 21
-425.47821 963.21918 10503.498 21
-361.64786 959.01776 10457.683 21
-298.9296 956.63739 10431.726 21
-236.17064 952.85168 10390.444 21
-174.39394 951.75635 10378.5 21
-112.50573 948.52728 10343.288 21
-51.113884 946.76166 10324.035 21
10.050781 945.0907 10305.814 21
70.964958 942.961 10282.591 21
131.46051 939.80627 10248.19 21
191.2616 935.24957 10198.501 21
251.31885 933.83307 10183.054 21
310.95172 931.69342 10159.723 21
370.27057 929.45978 10135.365 21
429.73236 928.15833 10121.174 21
455.41998 863.16315 9412.4287 21
499.01068 842.58142 9187.9932 21
604.69159 920.57465 10038.477 21
662.65845 918.46332 10015.454 21
724.36975 921.46234 10048.157 21
782.9989 920.38287 10036.386 21
840.14172 917.83197 10008.569 21
898.74365 917.10651 10000.658 21
954.03284 913.29944 9959.1436 21
1009.2579 909.87811 9921.8359 21
1062.191 904.8811 9867.3457 18
1118.4491 903.09027 9847.8174 19
1171.6981 899.16785 9805.0449 19
1222.0205 893.47626 9742.9805 19
1273.2244 888.91376 9693.2285 19
1325.2537 885.29651 9653.7842 18
1379.1322 883.1629 9630.5176 18
1432.9668 881.17181 9608.8057 18
1487.0995 879.50922 9590.6758 18
1542.3573 878.60999 9580.8701 18
1589.6851 873.4176 9524.249 18
1622.334 860.79285 9386.582 18
1661.1426 852.1651 9292.5 17
1693.4276 840.85187 9169.1338 65551
1724.6172 829.71497 9047.6904 65550
1756.4624 819.55566 8936.9072 131082
1833.7148 830.55768 9056.8799 393218
0 0 0 0
0 0 0 0
1869.6174 778.46234 8488.8027 8941405
1918.829 778.01837 8483.9609 8414547
1940.913 766.87866 8362.4873 7822152
1991.7036 767.35358 8367.666 6901306
2063.95 775.87109 8460.5459 8743255
2102.1616 771.49365 8412.8115 9401442
2147.0042 769.69635 8393.2129 9467236
2205.1169 772.63 8425.2031 9796201
2266.9053 776.69312 8469.5098 9861994
2313.968 775.64417 8458.0713 9993578
2364.2839 775.70697 8458.7559 9927785
2432.77 781.60492 8523.0713 9665126
2487.1963 782.83777 8536.5146 9796712
2533.5059 781.51752 8522.1182 9994088
2569.2585 777.05621 8473.4688 9862502
2639.9851 783.14075 8539.8184 9927526
2675.9995 778.89276 8493.4961 9730403
2753.0757 786.53278 8576.8066 9533025
2771.0796 777.32507 8476.4014 9729890
2822.5464 777.6651 8480.1084 9664354
2862.3801 774.84412 8449.3467 9598561
2905.3582 772.9566 8428.7646 9598561
2958.6375 773.82721 8438.2578 9598818
3003.1047 772.40234 8422.7207 8940632
3006.45 760.62042 8294.2441 9138010
3072.3057 764.77808 8339.5811 9730147
3105.3005 760.75366 8295.6963 9203802
3101.1641 747.89978 8155.5303 9335388
3073.6128 729.88019 7959.0347 8742995
3225.1797 754.29694 8225.2891 8875095
3258.9714 750.85181 8187.7212 9138524
3288.2158 746.47546 8139.999 9204574
3250.9602 727.34741 7931.4155 9993835
3289.3394 725.44543 7910.6758 9731432
3316.7283 721.20715 7864.4585 10126704
3352.071 718.79181 7838.1201 10587254
3414.197 722.10724 7874.2739 11047034
3478.6267 725.81396 7914.6938 10652018
3504.9336 721.57343 7868.4531 9730915
3685.6423 748.81433 8165.5034 9203803
3785.5686 759.14917 8278.2002 9730404
3826.7251 757.58478 8261.1416 9533025
3959.6338 773.99493 8440.0869 8414543
3956.7659 763.78625 8328.7656 8086092
4012.4617 764.99451 8341.9414 8086090
4038.2966 760.54962 8293.4717 9863011
4041.2527 751.95453 8199.7461 11903105
4175.4302 767.68994 8371.334 13153173
4186.125 760.61896 8294.2275 13745565
4216.4761 757.24225 8257.4062 13746335
4355.8716 773.30176 8432.5283 12296067
4472.8047 785.05444 8560.6865 10782830
4462.2607 774.42004 8444.7227 9006677
4383.5142 752.31628 8203.6904 8282441
4478.147 760.12701 8288.8633 6440235
4302.272 722.35016 7876.9229 2628111
4338.3789 720.59399 7857.7725 11900276
4404.3027 723.77502 7892.46 10781537
4413.249 717.62421 7825.3882 10451806
4384.7676 705.57855 7694.0356 10057051
4482.0127 713.80426 7783.7329 10452066
4580.77 722.10046 7874.2002 10320739
4740.959 739.8158 8067.3779 10518375
4820.7578 744.75787 8121.2695 12229764
4911.5757 751.28778 8192.4756 11308662
4960.0322 751.27356 8192.3203 9269078
5105.5615 765.82031 8350.9463 9203541
5170.1377 768.06152 8375.3857 9663580
5064.9688 745.28308 8126.9966 11637628
5117.7334 745.95392 8134.3115 11835009
5096.8638 735.97949 8025.5449 11571835
5156.1284 737.65387 8043.8032 10255463
5241.0767 742.93823 8101.4272 9071445
5101.7866 716.62885 7814.5342 8808528
5131.4575 714.31262 7789.2764 9005907
5326.1436 734.80328 8012.7188 9532506
5616.9102 768.07019 8375.4805 9730144
5781.7417 783.68457 8545.748 10782834
5601.8569 752.70886 8207.9717 12230281
5439.146 724.55432 7900.958 9335391
5438.9517 718.34454 7833.2432 7888202
5449.8403 713.69135 7782.502 8414545
5500.2114 714.24329 7788.5205 11111802
5543.9282 713.92908 7785.0942 10783093
5657.4448 722.53455 7878.9331 10058857
5716.98 724.16138 7896.6729 9269340
5769.6333 724.89709 7904.6958 9203547
5727.1733 713.76715 7783.3286 7032887
5734.3208 708.94824 7730.7803 8019265
5813.5967 713.05237 7775.5342 7953727
5786.2607 704.11859 7678.1152 8875081
5888.6641 710.98871 7753.0312 9533015
5825.9438 697.97015 7611.0688 12428167
6021.8057 715.89264 7806.5059 11441020
5992.0186 706.92047 7708.6685 10980215
6114.0796 715.86304 7806.1836 10520178
6196.7153 720.08997 7852.2764 10783349
6154.2778 709.82806 7740.3745 8942170
6337.6245 725.56708 7912.002 14074541
6375.0688 724.49384 7900.2983 13084561
6126.3677 691.15436 7536.7456 10782061
6015.0215 673.68121 7346.2085 7493436
6006.1206 667.85052 7282.6274 12955008
5934.2046 655.14618 7144.0918 13150844
5996.7095 657.35687 7168.1982 13150074
5987.8169 651.76508 7107.2222 12426097
5995.7876 648.07404 7066.9731 10517849
6025.2769 646.74396 7052.4692 9202509
6038.8667 643.73737 7019.6836 11507839
6232.3657 659.81891 7195.0459 9995372
6544.2446 688.12946 7503.7607 11048066
6515.5464 680.48785 7420.4321 12034193
6830.3906 708.58795 7726.8521 11770767
6980.2192 719.30902 7843.7603 11243912
6977.8267 714.3056 7789.2002 7888214
6823.2339 693.88995 7566.5767 9072233
6852.1514 692.28125 7549.0342 9073006
6883.7231 690.95978 7534.624 8942707
6982.3325 696.34088 7593.3027 6772574
7655.4136 758.5777 8271.9688 4865606
6724.2393 662.06781 7219.5688 5721175
7752.6343 758.49725 8271.0918 8551557
7824.2852 760.69788 8295.0879 11052204
7580.5469 732.39941 7986.5059 12565696
7816.6021 750.52008 8184.104 13684944
0 0 0 0
0 0 0 0
0 0 0 0
0 0 0 0
-6948.9531 744.17096 7622.2949 12
-6881.3389 741.75177 7597.5156 12
-6784.9595 736.17969 7540.4429 12
-6673.48 728.8844 7465.7197 12
-6649.9194 731.15857 7489.0132 12
-6687.3926 740.21887 7581.8149 12
-6622.5249 737.99731 7559.0601 12
-6637.4033 744.69257 7627.6377 12
-6494.6147 733.66876 7514.7246 12
-6561.1582 746.30334 7644.1362 12
-6544.6597 749.60223 7677.9253 12
-6492.5117 748.83563 7670.0737 12
-6443.9316 748.47253 7666.3545 12
-6420.6343 751.06183 7692.876 12
-6423.8901 756.81641 7751.8179 12
-6400.3911 759.47919 7779.0918 12
-6343.0312 758.13348 7765.3086 12
-6410.0708 771.74524 7904.729 12
-6270.6143 760.51312 7789.6821 12
-6600.8306 806.49976 8260.708 12
-6052.5894 745.04034 7631.1997 12
-6199.1753 768.82886 7874.8574 12
-6446.1348 805.52112 8250.6836 12
-6539.5459 823.43994 8434.2207 12
-6519.7051 827.26453 8473.3945 12
-6492.563 830.2149 8503.6143 12
-6477.7275 834.79742 8550.5518 12
-6388.5112 829.79108 8499.2734 12
-6363.6494 833.13037 8533.4766 12
-6339.5933 836.62952 8569.3174 12
-6294.7134 837.41498 8577.3623 13
-6227.3574 835.19873 8554.6621 11
-6025.9727 814.823 8345.96 12
-5979.4717 815.22638 8350.0918 12
-5921.7686 814.0965 8338.5186 12
-5900.9619 818.06262 8379.1426 12
-5887.1704 823.07684 8430.502 268
-5890.3633 830.57184 8507.2705 268
-5891.9761 837.97144 8583.0625 12
-5963.5503 855.53674 8762.9775 12
-6065.8013 877.85016 8991.5264 12
-6121.8525 893.81378 9155.0361 12
-6351.1753 935.58746 9582.9102 12
-6307.4482 937.52905 9602.7979 268
-6240.5835 936.03564 9587.501 268
-6327.7192 957.82587 9810.6914 12
-6256.9795 955.90106 9790.9756 268
-6074.3335 936.68384 9594.1396 268
-6038.8809 940.01569 9628.2666 12
-6175.8594 970.50769 9940.5869 12
-6040.6216 958.39764 9816.5479 12
-5972.9033 956.86877 9800.8877 12
-6011.0498 972.43622 9960.3398 12
-5961.9521 974.05853 9976.9561 12
-5941.6548 980.4657 10042.583 12
-5880.0005 980.10901 10038.93 12
-5894.2915 992.53339 10166.188 12
-5848.9214 995.06433 10192.112 12
-5960.3623 1024.6045 10494.682 12
-5774.9209 1003.1944 10275.386 12
-5825.1191 1022.6985 10475.16 12
-5793.8081 1028.1583 10531.083 12
-5832.7236 1046.3352 10717.262 12
-5756.4556 1044.0219 10693.567 12
-5749.7256 1054.4091 10799.961 12
-5796.2573 1074.9076 11009.92 12
-5706.9751 1070.3995 10963.746 12
-5647.1885 1071.3837 10973.825 12
-5571.5088 1069.3402 10952.896 12
-5533.7632 1074.6151 11006.925 12
-5398.4214 1060.8375 10865.805 12
-5369.6162 1067.9153 10938.3 12
-5262.668 1059.4348 10851.438 12
-5276.7446 1075.4098 11015.064 12
-5246.627 1082.6653 11089.379 12
-5108.6167 1067.5582 10934.643 12
-5009.0859 1060.2074 10859.351 12
-5004.2622 1072.9716 10990.09 12
-4899.1221 1064.2797 10901.062 12
-4854.124 1068.5955 10945.267 12
-4771.4746 1064.627 10904.619 12
-4726.0791 1068.9761 10949.165 12
-4671.3569 1071.3071 10973.042 12
-4615.145 1073.3578 10994.046 12
-4561.522 1076.0776 11021.904 12
-4497.5469 1076.3992 11025.197 14
-4431.2485 1076.1658 11022.808 270
-4364.999 1075.9375 11020.47 15
-4312.2329 1079.0764 11052.619 16
-4243.5161 1078.259 11044.248 17
-4161.8149 1074.0652 11001.292 19
-4096.7544 1074.1007 11001.655 19
-4035.6404 1075.1888 11012.801 277
-3854.3528 1043.7694 10690.981 279
-3803.8721 1047.3146 10727.294 280
-3620.5525 1013.7844 10383.855 537
-4627.4741 1318.1344 13501.212 283
-4248.5698 1231.4967 12613.811 537
-4258.3511 1256.4386 12869.281 279
-3600.0735 1081.5828 11078.292 278
-3543.5303 1084.3704 11106.844 275
-3488.1306 1087.62 11140.128 274
-3424.6289 1088.4199 11148.322 272
-3371.8445 1092.7246 11192.413 272
-3293.7014 1088.819 11152.41 272
-3240.677 1093.2272 11197.562 272
-3181.0776 1095.5552 11221.406 272
-3128.2324 1100.3584 11270.604 272
-3057.6633 1099.0009 11256.699 272
-2988.877 1098.2378 11248.883 272
-2925.376 1099.4261 11261.056 272
-2859.5596 1099.7797 11264.676 272
-2782.8938 1095.8777 11224.709 272
-2723.5125 1098.7576 11254.207 272
-2645.5784 1094.1094 11206.598 16
-2573.54 1091.7231 11182.155 16
-2509.1057 1092.5214 11190.332 16
-2437.5391 1090.1732 11166.28 16
-2371.7485 1090.3494 11168.085 16
-2301.8315 1088.5841 11150.005 18
-2230.8389 1086.1909 11125.491 18
-2165.9109 1086.6946 11130.65 18
-2097.1799 1085.2621 11115.978 17
-2026.4028 1082.6434 11089.155 18
-1959.8384 1082.1753 11084.36 19
-1891.7596 1080.8096 11070.372 18
-1821.481 1078.0436 11042.041 19
-1751.9235 1075.5144 11016.135 19
-1687.2397 1075.8972 11020.056 19
-1622.9935 1076.601 11027.264 19
-1552.397 1072.9745 10990.12 19
-1481.303 1068.6718 10946.048 19
-1423.2345 1073.8022 10998.599 19
-1356.623 1072.6704 10987.006 19
-1286.5325 1068.5349 10944.647 19
-1215.0027 1062.7015 10884.897 19
-1143.2711 1056.0276 10816.538 19
-1074.8625 1051.8125 10773.364 19
-1008.1773 1048.8579 10743.102 19
-937.48358 1041.0537 10663.166 19
-870.24542 1036.236 10613.819 19
-800.04913 1026.8708 10517.896 21
-734.5177 1022.4163 10472.27 21
-670.24097 1019.0473 10437.762 21
-606.70685 1016.2371 10408.978 21
-542.53711 1011.6056 10361.539 21
-481.1626 1011.6691 10362.189 21
-417.86072 1007.106 10315.45 21
-354.97766 1002.1612 10264.803 21
-293.54337 1000.1071 10243.764 21
-232.29872 997.79651 10220.097 21
-171.5202 996.56464 10207.479 21
-110.89991 995.4104 10195.656 21
-50.351429 992.90887 10170.034 21
9.9003944 991.11029 10151.612 21
69.963829 989.7356 10137.531 21
129.50145 985.62909 10095.47 21
188.56444 981.64691 10054.683 21
247.20566 977.90881 10016.394 21
305.79587 975.45551 9991.2656 21
363.89508 972.48596 9960.8496 21
422.604 971.7475 9953.2852 19
478.48969 965.4931 9889.2236 19
533.84741 959.6546 9829.4219 18
594.94104 964.26135 9876.6074 18
651.95099 962.01709 9853.6201 18
710.77679 962.60095 9859.6006 20
768.66486 961.92267 9852.6533 20
825.74384 960.39917 9837.0479 20
881.36322 957.49078 9807.2588 19
938.15002 956.1322 9793.3428 19
994.28674 954.30786 9774.6572 19
1046.9692 949.5517 9725.9414 19
1101.0659 946.50757 9694.7607 19
1153.8907 942.72607 9656.0283 19
1203.8077 937.03857 9597.7734 19
1250.6493 929.57837 9521.3613 19
1298.7897 923.68591 9461.0068 18
1348.5728 919.40125 9417.1201 18
1400.1809 916.65186 9388.959 18
1456.1375 916.85059 9390.9941 18
1509.0326 915.17786 9373.8623 18
1549.8749 906.57404 9285.7354 18
1594.5045 900.69952 9225.5645 18
1614.8311 881.94128 9033.4307 17
1646.783 870.53247 8916.5742 15
1669.1709 854.93451 8756.8086 15
1718.3035 853.56238 8742.7549 14
1767.6448 852.37115 8730.5537 11
1791.1201 839.12982 8594.9268 262150
1679.1603 764.92456 7834.8667 591109
1759.9944 780.17474 7991.0703 6377798
1832.4532 791.01056 8102.0576 8941920
1867.153 785.40973 8044.6899 9270368
1903.3284 780.69312 7996.3794 9730406
1951.9115 781.17133 8001.2769 9928043
1990.4789 777.71356 7965.8604 9927786
2056.666 784.9574 8040.0571 9730408
2109.6719 786.9563 8060.5312 9927530
2161.6345 788.48621 8076.2012 9861994
2221.2869 792.69409 8119.3008 9796712
2282.0183 797.10028 8164.4326 9796711
2326.6331 795.81097 8151.2261 9599332
2375.7036 796.06732 8153.8516 9664870
2433.6167 799.21716 8186.1152 9467745
2471.6216 795.83386 8151.4604 9862503
2515.0564 794.29498 8135.6987 10059112
2567.0457 795.46484 8147.6812 10124906
2636.7368 801.97571 8214.3701 9993577
2674.281 798.65002 8180.3062 9861990
2709.3918 794.72906 8140.145 9664354
2765.6599 797.0426 8163.8418 9401182
2791.4119 790.6333 8098.1934 9664354
2829.3098 787.82275 8069.4053 9533024
2861.6748 783.59058 8026.0566 9269853
2917.7336 785.87854 8049.4922 9335132
2943.1526 779.97302 7989.0034 9598559
2984.8679 778.50488 7973.9653 9269595
3043.0645 781.31396 8002.7383 8545616
3083.7144 779.60083 7985.1919 9072216
3109.7759 774.30725 7930.9712 9598559
3122.5103 765.90234 7844.8818 9730658
3197.1594 772.70789 7914.5889 9204059
3236.2673 770.85095 7895.5693 9072985
3212.9968 754.40082 7727.0762 11046777
3243.3557 750.82806 7690.4814 9994346
3298.7417 753.06769 7713.4209 10257774
3382.9958 761.74628 7802.313 8611919
3429.2593 761.75195 7802.3711 9138264
3437.0415 753.32318 7716.0381 9072472
3501.5923 757.39478 7757.7422 9533279
3589.2229 766.28833 7848.8359 10520176
3617.3386 762.41064 7809.1177 9138524
3674.1533 764.60327 7831.5762 9139035
3735.4404 767.66028 7862.8882 9204828
3808.9253 773.11786 7918.7881 9007448
3793.1909 760.55359 7790.0967 8678225
3868.2095 766.26917 7848.6392 8941653
4143.3232 811.01562 8306.9629 11639165
4049.4841 783.34027 8023.4932 13218710
4024.5374 769.47937 7881.52 13877921
4119.4976 778.59924 7974.9321 14075043
4384.2998 819.2489 8391.293 13547158
4403.3862 813.58734 8333.3037 11375221
4213.6147 769.88989 7885.7251 10388072
4231.187 764.6203 7831.751 9269590
4180.1914 747.20862 7653.4087 9532250
4239.1602 749.61584 7678.0649 9335127
4242.0112 742.15393 7601.6353 9071699
4241.0342 734.18616 7520.0239 9137235
4251.2695 728.30493 7459.7847 9729372
4262.7656 722.75854 7402.9746 10518887
4281.2515 718.49817 7359.3369 10913646
4524.9126 751.73267 7699.7466 10519144
4614.0205 758.88348 7772.9907 10453352
4768.1421 776.48035 7953.2295 11769728
4807.145 775.16937 7939.8013 12822416
4894.9219 781.67261 8006.4116 12361866
4976.4634 787.06482 8061.6426 11112058
4953.0444 775.91199 7947.4077 12428176
4967.2847 770.81323 7895.1831 12297617
4742.1895 729.01654 7467.0732 12232340
4987.7754 759.68158 7781.165 12627098
5111.2061 771.34979 7900.6787 13942185
5115.4844 764.98785 7835.5151 13547169
5055.604 749.23206 7674.1343 9138266
5057.0386 742.76306 7607.874 8348495
5069.7876 738.05548 7559.6558 8743251
4855.9849 700.73798 7177.4258 7822407
4829.4258 690.85406 7076.188 5388847
4849.5464 687.76031 7044.4995 11311240
5290.4707 743.88831 7619.3994 11443081
5267.6387 734.40973 7522.314 11639942
5272.104 728.86407 7465.5117 12363153
5363.8276 735.37366 7532.187 12165515
5539.3628 753.17157 7714.4849 11901572
5622.7954 758.25757 7766.5791 11769729
5688.4937 760.88879 7793.5303 10519662
5786.6479 767.78406 7864.1558 8348492
5756.0566 757.62335 7760.0835 7756099
5786.1211 755.54407 7738.7861 7953733
5777.4399 748.47797 7666.4102 8678223
5725.7876 735.99854 7538.5874 9533021
5637.2168 719.0036 7364.5142 10717039
5680.6133 718.97229 7364.1929 11703423
5794.4624 727.79041 7454.5142 9993830
5859.9434 730.44598 7481.7144 10388076
5921.6353 732.59283 7503.7041 10585711
5953.3999 731.03296 7487.7266 10256747
6015.5459 733.19904 7509.9136 10322285
6053.0674 732.35406 7501.2583 10519408
6007.5591 721.54895 7390.5854 5518627
5808.9077 692.63989 7094.4795 6834996
5939.0806 703.07269 7201.3394 11769454
5920.5542 695.87915 7127.6582 11636842
5950.6943 694.46704 7113.1943 11570788
5970.3745 691.86273 7086.519 12030827
6003.8994 690.88782 7076.5337 11504488
6056.8013 692.14081 7089.3677 10319959
6084.8564 690.55682 7073.1431 9925464
6128.9844 690.80603 7075.6958 10780519
6143.8496 687.776 7044.6602 10846573
6276.3584 697.86761 7148.0254 9794143
6412.5107 708.22644 7254.1274 9992039
6488.9658 711.89795 7291.7329 9531745
6425.2085 700.23999 7172.3247 9268831
6347.8232 687.25983 7039.3735 7624521
6024.4292 647.98853 6637.1299 7099721
6296.4194 672.85083 6891.7866 10059892
6270.2427 665.73517 6818.9033 9402731
6383.9629 673.46893 6898.1177 9928563
6409.6143 671.87268 6881.7676 9928307
0 0 0 0
6858.248 709.86615 7270.9224 9665398
7163.1797 736.79913 7546.7881 9533560
7368.6685 753.23267 7715.1108 9600384
0 0 0 0
0 0 0 0
0 0 0 0
0 0 0 0
-6779.6436 770.11011 7436.5791 12
-6736.208 770.1828 7437.2808 12
-6695.0396 770.51721 7440.5103 12
-6638.3091 769.05328 7426.374 12
-6595.8916 769.23907 7428.168 12
-6522.4028 765.77936 7394.7588 12
-6524.4126 771.1969 7447.0732 12
-6410.5552 762.89917 7366.9463 12
-6462.3901 774.34143 7477.439 12
-6418.0732 774.34088 7477.4336 12
-6409.9277 778.73486 7519.8638 12
-6374.6069 779.86566 7530.7837 12
-6310.4517 777.46002 7507.5537 12
-6344.0527 787.14954 7601.1201 12
-6070.8086 758.63287 7325.749 12
-5972.3667 751.70679 7258.8672 12
-5928.02 751.53833 7257.2402 12
-5938.0562 758.31232 7322.6533 12
-5924.3721 762.13446 7359.562 12
-6277.5591 813.55914 7856.1455 12
-5881.3042 767.90039 7415.2407 12
-5908.7461 777.2912 7505.9233 12
-6217.3569 824.09265 7957.8618 12
-6294.8911 840.74677 8118.6826 12
-6301.313 848.08649 8189.5591 12
-6234.2793 845.57721 8165.3281 12
-6331.8159 865.52448 8357.9492 12
-6322.4067 871.05212 8411.3271 12
-6116.415 849.36884 8201.9424 12
-6153.6016 861.37817 8317.9102 12
-6054.5757 854.36047 8250.1436 13
-5955.3848 847.20496 8181.0469 12
-5908.2085 847.3924 8182.856 12
-5815.251 840.96234 8120.7642 12
-5774.7285 842.07092 8131.4697 12
-5788.2988 851.1524 8219.165 12
-5767.979 855.3623 8259.8184 268
-5738.4111 858.26117 8287.8105 12
-5704.8906 860.61377 8310.5283 12
-5753.1909 875.45789 8453.8711 12
-5881.2949 902.81311 8718.0273 12
-6192.6182 959.02771 9260.8643 12
-6163.772 963.09589 9300.1484 12
-6281.311 990.31665 9563.0059 12
-6236.0845 992.13757 9580.5898 268
-6220.9683 998.82648 9645.1816 12
-6139.9087 994.95349 9607.7822 12
-6109.5913 999.30762 9649.8281 12
-6128.4888 1011.8699 9771.1357 12
-6095.1328 1015.9619 9810.6504 268
-6083.2129 1023.7404 9885.7627 12
-5966.9863 1013.9454 9791.1787 12
-6040.4248 1036.5039 10009.014 12
-5893.4639 1021.3152 9862.3447 12
-5881.3257 1029.4208 9940.6152 12
-5945.0605 1051.1046 10150.007 12
-5815.6528 1038.7347 10030.557 12
-5731.3784 1034.2538 9987.2861 12
-5688.5752 1037.2412 10016.134 266
-5644.0684 1039.9777 10042.559 267
-5510.5146 1026.1897 9909.415 267
-5475.0117 1030.5608 9951.625 12
-5513.4712 1049.1007 10130.655 12
-5562.7959 1070.139 10333.812 11
-5466.9946 1063.4164 10268.895 267
-5536.6826 1089.095 10516.86 267
-5384.4648 1071.2113 10344.167 11
-5320.7808 1070.7319 10339.537 12
-5248.6313 1068.5179 10318.158 12
-5251.3296 1081.6689 10445.151 268
-5186.8594 1081.1332 10439.978 268
-5098.5181 1075.549 10386.054 12
-5053.3203 1079.0408 10419.771 12
-5021.0317 1085.4093 10481.27 12
-4971.9619 1088.2645 10508.842 12
-4942.3501 1095.505 10578.76 12
-4883.7959 1096.434 10587.73 12
-4840.7129 1100.9056 10630.911 12
-4765.9028 1098.1847 10604.636 12
-4710.041 1099.8153 10620.382 12
-4675.2339 1106.4731 10684.674 12
-4628.9277 1110.5549 10724.089 12
-4574.022 1112.6584 10744.402 12
-4521.6235 1115.4399 10771.262 12
-4474.3252 1119.5774 10811.214 12
-4434.5513 1125.745 10870.771 14
-4403.2505 1134.277 10953.162 270
-4316.918 1128.6761 10899.077 270
-4249.98 1128.0531 10893.061 16
-4191.8042 1129.7722 10909.661 16
-4123.8149 1128.859 10900.843 274
-4061.9907 1129.6311 10908.299 19
-3996.3052 1129.337 10905.459 19
-3941.0815 1132.0385 10931.545 20
-3853.7026 1125.4393 10867.821 277
-4402.1646 1307.4637 12625.542 277
-4292.5962 1296.9655 12524.165 277
-3700.5801 1137.7662 10986.854 276
-4343.1284 1359.2368 13125.489 277
-3573.1213 1138.6464 10995.354 275
-3526.488 1144.6602 11053.427 274
-3451.8406 1141.6364 11024.228 273
-3397.9358 1145.4886 11061.427 272
-3333.4209 1145.8452 11064.871 272
-3228.8435 1132.1686 10932.802 272
-3000.0664 1073.4904 10366.175 16
-3152.1763 1151.4978 11119.454 16
-3078.0859 1148.4406 11089.933 16
-3016.4958 1150.0156 11105.142 16
-2955.0198 1151.7053 11121.458 16
-2884.8706 1150.0148 11105.133 272
-2814.9641 1148.3441 11089.001 272
-2752.7395 1149.8024 11103.083 272
-2688.2302 1150.3542 11108.412 272
-2623.9465 1151.033 11114.966 16
-2554.5393 1149.4413 11099.596 15
-2488.698 1149.4124 11099.316 18
-2418.5964 1147.3607 11079.505 18
-2345.6431 1143.8041 11045.16 18
-2272.0793 1139.7368 11005.885 18
-2203.9163 1138.2188 10991.225 18
-2138.9436 1138.3058 10992.065 18
-2071.4319 1137.0046 10979.501 19
-2002.183 1134.6348 10956.616 19
-1935.7772 1133.771 10948.275 19
-1864.1232 1129.6671 10908.646 19
-1797.5826 1128.4783 10897.167 19
-1729.1888 1125.9943 10873.179 19
-1660.4475 1123.0828 10845.064 19
-1595.6272 1122.6957 10841.326 19
-1526.4481 1119.0806 10806.417 19
-1468.3856 1123.6556 10850.596 19
-1402.2 1122.1488 10836.046 19
-1336.2855 1120.7251 10822.297 19
-1263.1036 1112.7551 10745.336 19
-1195.4156 1109.0361 10709.422 19
-1126.3301 1103.5305 10656.258 19
-1057.3193 1097.4486 10597.528 19
-990.74628 1093.2886 10557.356 19
-923.87231 1088.2133 10508.347 19
-854.73071 1079.5403 10424.596 19
-787.24365 1071.7684 10349.547 21
-721.39777 1065.1063 10285.214 21
-657.7951 1060.8322 10243.94 21
-594.54761 1056.3199 10200.368 21
-533.53271 1055.2018 10189.571 21
-473.547 1056.0935 10198.182 21
-410.76111 1050.0879 10140.188 21
-348.60611 1043.9127 10080.558 21
-288.31427 1041.9167 10061.284 21
-227.85741 1038.1283 10024.7 21
-168.16658 1036.3883 10007.898 21
-108.80746 1035.9106 10003.285 21
-49.339989 1032.0228 9965.7422 21
9.6975079 1029.7274 9943.5771 21
68.520309 1028.1526 9928.3691 21
126.96237 1024.9591 9897.5322 21
185.24649 1022.9118 9877.7617 21
242.22711 1016.3782 9814.6709 21
299.84286 1014.5238 9796.7637 21
356.51886 1010.6071 9758.9414 21
414.22754 1010.3025 9756 19
468.1601 1001.9906 9675.7363 19
511.29788 974.90985 9414.2305 19
583.85358 1003.7313 9692.5449 19
639.85376 1001.4776 9670.7822 19
697.9389 1002.5895 9681.5195 19
754.77087 1001.869 9674.5625 19
