# .PCD v0.7 - Point Cloud Data file format
VERSION 0.7
FIELDS x y z rgb
SIZE 4 4 4 4
TYPE F F F U
COUNT 1 1 1 1
WIDTH 1390
HEIGHT 1
VIEWPOINT 0 0 0 1 0 0 0
POINTS 1390
DATA ascii
1317.8966 903.52026 3081.627 9532000
1341.1418 906.88971 3093.1191 9531743
1352.8915 902.49976 3078.1462 9926244
1376.2362 905.85852 3089.6021 10057830
1393.8083 905.37946 3087.968 9926501
1413.7671 906.44299 3091.5955 9860965
1431.6858 906.18811 3090.7261 9795172
1449.62 905.94928 3089.9116 9795171
1469.9908 907.22028 3094.2466 9925991
1485.7644 905.65759 3088.9167 9992297
1503.3538 905.22632 3087.4458 9860711
1532.3951 911.61829 3109.2466 9992040
1547.1478 909.45892 3101.8818 9794918
1568.0696 910.93408 3106.9131 9531489
1583.407 909.16864 3100.8916 9005401
1588.3481 901.5426 3074.8818 9531489
1618.9399 908.48395 3098.5564 9992297
1652.6199 916.98297 3127.5439 9992298
1657.2504 909.35352 3101.5225 9597284
1671.2355 906.96838 3093.3875 9992042
1670.7839 896.88531 3058.9971 9794663
1704.3669 905.09229 3086.9888 9268319
1720.6451 904.0332 3083.3762 8808022
1749.3871 909.47583 3101.9397 9268573
1772.7495 912.03784 3110.6777 9202781
1767.7877 900.12494 3070.0464 8939609
1821.1781 917.86383 3130.5483 9597282
1800.2347 898.15894 3063.3411 8215886
1843.6456 910.63403 3105.8899 9663077
1862.204 910.7085 3106.1438 9334369
1878.7546 909.8092 3103.0767 9531748
1890.6577 906.69861 3092.467 9399905
1909.5107 906.94861 3093.3198 9531492
1937.8329 911.64856 3109.3499 9465955
1947.3225 907.48383 3095.1453 9268576
1972.2972 910.54565 3105.5884 8807768
1991.1049 910.7301 3106.2173 8873818
2009.2954 910.63147 3105.8811 8676183
2021.5884 907.88605 3096.5173 9400161
2055.2859 914.71631 3119.8132 9531491
2077.2581 916.25293 3125.054 9728868
2094.8689 915.85553 3123.6987 9663075
2115.7393 916.87769 3127.1848 9597025
2125.9563 913.3053 3115.0007 9070681
2141.2251 911.94623 3110.3652 9202524
2155.1738 910.05273 3103.9072 9663075
2168.3406 907.86401 3096.4421 9137498
2183.7666 906.64996 3092.3013 9203034
2207.0916 908.70831 3099.3218 9268828
2219.1279 906.12329 3090.5049 9597793
2237.3054 906.06757 3090.3149 9729122
2253.9443 905.39471 3088.02 9795172
2268.781 904.01465 3083.3132 9400414
2287.9231 904.3584 3084.4856 9466207
2309.387 905.60724 3088.7449 9400414
2329.9773 906.49646 3091.7778 9400159
2346.0654 905.63397 3088.8362 9202781
2379.9375 911.59668 3109.1731 8149836
2373.4319 902.12048 3076.8528 9136731
2391.3728 902.00995 3076.4756 9268574
2405.9558 900.64404 3071.8169 9268574
2434.6458 904.53979 3085.1042 8873559
2442.4116 900.66156 3071.8767 8807766
2453.0293 897.88446 3062.4048 8873815
2442.7454 887.55377 3027.1702 9268575
2495.7676 900.20782 3070.3291 9465955
2510.7205 899.04663 3066.3689 8215888
2511.8464 892.98669 3045.7002 8939354
2518.0166 888.79364 3031.3989 9202783
2540.2046 890.2738 3036.4473 8742232
2549.6448 887.29669 3026.2935 9202783
2577.8928 890.8609 3038.4497 8742233
2596.8787 891.19702 3039.5959 9334369
2633.897 897.67419 3061.6877 9532261
2639.9531 893.58258 3047.7324 9334882
2658.9919 893.91119 3048.8533 9269345
2679.2024 894.6264 3051.2927 7887692
2718.6211 901.70319 3075.4292 8677208
2720.1272 896.19458 3056.6414 8743000
2735.0776 895.15906 3053.1094 9006171
2769.5757 900.4928 3071.3013 8414035
2770.1406 894.79608 3051.8713 8348244
2808.7861 901.39404 3074.375 8216657
2801.9302 893.39868 3047.1055 7821899
2822.9585 894.33984 3050.3152 8874587
2855.3857 898.8573 3065.7229 7361346
2880.6206 901.06769 3073.262 9137500
2886.2678 897.1618 3059.9402 9729636
2910.8 899.13831 3066.6814 11703683
2954.7776 907.05963 3093.6985 11703426
0 0 0 0
0 0 0 0
0 0 0 0
0 0 0 0
0 0 0 0
-3911.6663 1291.8406 4318.7739 12
-3895.5884 1295.004 4329.3496 12
-3870.0391 1295.04 4329.4697 12
-3863.8428 1301.5957 4351.3862 12
-3893.3877 1320.3605 4414.1191 12
-3869.5195 1321.1427 4416.7339 12
-3845.25 1321.7975 4418.9233 12
-3781.5847 1308.8262 4375.5586 12
-3464.3936 1207.3234 4036.2227 12
-3737.2827 1311.4786 4384.4263 12
-3331.4434 1177.2473 3935.6748 12
-3283.3877 1168.4459 3906.251 11
-3555.3457 1274.2102 4259.8335 11
-3653.4502 1318.7339 4408.6812 13
-3628.314 1319.094 4409.8853 13
-3295.3499 1206.7349 4034.2554 14
-3289.0913 1213.245 4056.0198 14
-3483.553 1294.4359 4327.4502 14
-3450.5989 1291.6998 4318.3032 14
-3474.7639 1310.465 4381.0371 14
-3454.3945 1312.5903 4388.1426 15
-3432.4368 1314.1398 4393.3228 16
-3413.3411 1316.8171 4402.2734 16
-3378.1648 1313.2845 4390.4634 16
-3140.3848 1230.3218 4113.1094 16
-3270.7727 1291.4283 4317.3955 15
-3245.8706 1291.7004 4318.3052 15
-3221.9624 1292.3755 4320.562 15
-3196.4175 1292.3997 4320.6426 16
-3209.9653 1308.358 4373.9937 16
-2923.5176 1201.3049 4016.1023 16
-2897.6597 1200.4524 4013.2524 16
-2885.6472 1205.3693 4029.6902 16
-2865.5107 1206.9464 4034.9626 16
-2847.9226 1209.6324 4043.9424 16
-2833.988 1213.9291 4058.3064 15
-2826.8899 1221.2527 4082.7903 18
-2814.9082 1226.5747 4100.5825 18
-2786.1045 1224.5956 4093.9658 18
-2766.4424 1226.6351 4100.7842 18
-2920.1538 1306.2654 4366.9976 18
-2916.978 1316.5123 4401.2544 18
-2683.9358 1222.2632 4086.1682 18
-2701.3042 1241.3729 4150.0542 18
-2721.1357 1261.976 4218.9326 18
-2803.6052 1312.2802 4387.1055 18
-2771.5701 1309.4283 4377.5718 18
-2740.7454 1307.1 4369.7876 18
-2717.6218 1308.4349 4374.2505 18
-2706.1663 1315.4673 4397.7607 18
-2698.8906 1324.6884 4428.5874 18
-2645.488 1311.2277 4383.5869 18
-2618.6104 1310.7773 4382.0815 18
-2611.0115 1320.0648 4413.1309 18
-2584.751 1320.0099 4412.9473 18
-2556.6301 1318.9943 4409.5518 18
-2501.2629 1303.7557 4358.6074 18
-2606.3005 1372.6808 4589.0322 18
-2472.6755 1316.0358 4399.6611 18
-2420.5457 1302.0198 4352.8042 18
-2414.5466 1312.7833 4388.7876 18
-2385.696 1311.2213 4383.5659 18
-2354.438 1308.2874 4373.7573 20
-2328.1594 1308.0858 4373.0835 19
-2298.8293 1306.1459 4366.5981 19
-2383.2554 1369.5315 4578.5034 18
-2284.521 1327.9121 4439.3652 18
-2224.2695 1307.9526 4372.6382 18
-2181.7534 1298.0743 4339.6138 18
-2152.8044 1296.1289 4333.1099 18
-2133.4148 1299.9611 4345.9214 18
-2089.2039 1288.5778 4307.8657 18
-2073.3845 1294.6409 4328.1353 18
-2054.5107 1298.9244 4342.4561 18
-2028.3213 1298.6331 4341.4819 18
-2001.0745 1297.6486 4338.1904 18
-2070.563 1360.1854 4547.2583 18
-2001.3822 1332.0762 4453.2861 18
-2013.1708 1357.8273 4539.375 18
-2048.3779 1400.2849 4681.3159 18
-1954.4056 1354.3883 4527.8779 18
-1922.8973 1351.1033 4516.896 18
-1891.7657 1347.994 4506.5015 18
-1860.0605 1344.3812 4494.4233 18
-1827.6625 1340.1553 4480.2954 18
-1725.8929 1284.1875 4293.1885 18
-1698.6956 1282.8621 4288.7573 18
-1671.9735 1281.8607 4285.4102 18
-1653.1866 1287.0062 4302.6118 18
-1620.2113 1281.0941 4282.8472 18
-1594.8867 1281.1396 4282.999 18
-1568.9303 1280.6707 4281.4312 18
-1546.7472 1283.3169 4290.2783 19
-1578.0909 1331.2046 4450.3721 19
-1498.8987 1285.8921 4298.8872 19
-1503.9491 1312.5333 4387.9521 19
-1424.9607 1265.4789 4230.6436 19
-1401.3422 1266.7925 4235.0352 19
-1376.4642 1266.9948 4235.7114 19
-1373.394 1287.6509 4304.7671 19
-1376.606 1315.0902 4396.5 19
-1286.4816 1252.7028 4187.9316 19
-1265.5531 1256.5653 4200.8442 19
-1247.3824 1263.3757 4223.6128 19
-1216.0369 1256.8484 4201.7905 19
-1190.3779 1256.0483 4199.1162 18
-1163.2388 1253.6188 4190.9941 18
-1113.6768 1226.3911 4099.9688 18
-1088.7284 1225.6582 4097.5186 18
-1066.5914 1228.129 4105.7783 18
-1035.9398 1220.682 4080.8821 18
-1021.4125 1232.333 4119.833 18
-993.26648 1227.7213 4104.4155 18
-963.09882 1220.3165 4079.6604 18
-937.30145 1218.2106 4072.6199 18
-912.41119 1217.2031 4069.2522 18
-906.21838 1241.7617 4151.3545 19
-853.86621 1202.6752 4020.6833 19
-826.11761 1196.9937 4001.6895 19
-792.69354 1182.5098 3953.2681 19
-760.64966 1169.2654 3908.9907 19
-746.49487 1183.5519 3956.7517 18
-709.86578 1161.9766 3884.623 18
-683.84906 1156.9088 3867.6809 18
-660.31439 1155.834 3864.0879 18
-634.85687 1151.1953 3848.5801 18
-608.11914 1143.8031 3823.8672 18
-588.1684 1149.0983 3841.5693 18
-556.33734 1130.6747 3779.9773 18
-568.80066 1204.5039 4026.7974 18
-538.69727 1190.7119 3980.6887 18
-505.45486 1168.4005 3906.0994 18
-477.82132 1157.5352 3869.7749 20
-454.03876 1155.3735 3862.5486 18
-430.58286 1153.8579 3857.4814 18
-407.19318 1152.3596 3852.4724 18
-383.87466 1150.8966 3847.5818 18
-360.45374 1148.9226 3840.9822 18
-330.76151 1125.3455 3762.1614 18
-313.60266 1144.0846 3824.8083 18
-282.76724 1111.9615 3717.417 18
-257.09134 1096.4138 3665.4392 18
-238.31882 1110.1541 3711.3743 18
-215.41637 1105.494 3695.7954 18
-199.01259 1136.9042 3800.8032 18
-171.65987 1105.8008 3696.8213 18
-150.01466 1107.7426 3703.3125 18
-130.85736 1131.8691 3783.9705 18
-108.46918 1132.2494 3785.2419 18
-86.650536 1140.3231 3812.2334 18
-63.43549 1129.234 3775.1609 18
-40.712135 1119.5831 3742.8967 18
-18.35812 1109.1423 3707.9922 19
3.6470008 1118.5795 3739.5417 19
25.703724 1114.0459 3724.3857 19
48.103558 1121.702 3749.981 19
70.142288 1118.76 3740.1455 19
92.774948 1124.4293 3759.0984 19
115.33051 1127.1497 3768.1926 19
131.80893 1079.2289 3607.988 19
157.73109 1111.2163 3714.9258 19
180.02658 1112.9476 3720.7139 19
201.9631 1112.324 3718.6289 19
223.67534 1110.7094 3713.231 19
245.65892 1110.6108 3712.9016 19
267.1918 1108.6583 3706.374 19
288.71646 1106.9708 3700.7327 19
311.64691 1110.5311 3712.6353 19
333.67087 1110.6046 3712.8811 18
353.72559 1104.52 3692.5393 18
377.16818 1109.1071 3707.874 18
398.89301 1108.4154 3705.562 18
420.82974 1108.3544 3705.3579 18
442.06046 1106.532 3699.2656 18
463.73953 1105.9512 3697.3237 17
486.30145 1107.4332 3702.2783 18
512.01825 1115.6616 3729.7869 18
528.01868 1102.9136 3687.1687 18
547.57568 1098.3124 3671.7864 18
571.18652 1101.8833 3683.7246 18
591.97015 1099.938 3677.2212 16
612.25641 1097.2396 3668.2 17
634.17804 1097.5564 3669.2593 17
655.27454 1096.4716 3665.6326 17
676.05627 1094.9467 3660.5344 18
693.5343 1088.3322 3638.4214 18
711.66699 1083.1129 3620.9727 18
732.99866 1082.9253 3620.3455 18
754.13312 1082.4652 3618.8074 18
775.43719 1082.2673 3618.146 18
794.28925 1078.7501 3606.3872 18
798.37799 1055.8917 3529.9692 18
820.58331 1057.5492 3535.51 18
857.4975 1077.6084 3602.5708 18
877.83472 1076.3669 3598.4204 18
877.96124 1050.9908 3513.585 18
900.37543 1052.8523 3519.8081 18
917.05133 1048.0714 3503.825 18
948.9527 1060.5177 3545.4343 18
966.45929 1056.6862 3532.625 18
978.17694 1046.8219 3499.6477 16
995.11053 1042.8333 3486.3132 65552
1010.6866 1037.6133 3468.8621 65552
1004.0174 1010.2187 3377.2788 262155
0 0 0 0
0 0 0 0
0 0 0 0
977.26819 910.68823 3044.5369 9599076
1001.4534 916.30847 3063.3262 9861222
1015.4546 912.57654 3050.8499 9927526
1032.4111 911.58453 3047.5337 9927526
1051.016 912.05719 3049.1135 9795940
1068.4563 911.52014 3047.3181 9860962
1088.2975 913.0152 3052.3164 9466207
1104.6606 911.59131 3047.5562 10123879
1117.9011 907.6778 3034.4727 10058344
1142.3584 912.85132 3051.7683 9992038
1153.6332 907.49384 3033.8577 9925988
1172.9243 908.50989 3037.2546 9794659
1189.9446 907.763 3034.7576 9663072
1212.5964 911.27039 3046.4832 9991781
1228.4865 909.66797 3041.1262 9860964
1250.1494 912.32477 3050.0081 10124137
1268.7601 912.71008 3051.2964 9729379
1281.635 909.01648 3038.948 9334364
1301.0607 910.00696 3042.2595 9466207
1324.7782 913.93134 3055.3792 9203034
1340.7428 912.47333 3050.5049 9795172
1353.0906 908.62555 3037.6411 9663586
1370.7908 908.4256 3036.9729 9728609
1390.9154 909.81689 3041.624 9860452
1411.4105 911.4118 3046.9558 9926244
1430.0782 911.80127 3048.2578 9992038
1447.5035 911.39862 3046.9119 9597280
1470.0881 914.21448 3056.3257 9663329
1483.8622 911.54938 3047.416 9728865
1498.9673 909.75623 3041.4211 9925988
1521.1523 912.25153 3049.7634 10123367
1538.5768 911.86688 3048.4773 9926245
1554.0939 910.37378 3043.4856 9794661
1575.1052 912.09656 3049.2451 9399903
1599.2322 915.56384 3060.8367 9597282
1613.0219 913.10175 3052.6057 9728868
1623.8033 909.01019 3038.927 9268061
1639.8494 907.92316 3035.293 9728612
1661.9603 910.18127 3042.842 9202525
1682.1356 911.34204 3046.7229 9334368
1706.6498 914.80408 3058.2966 9334366
1721.2344 912.92676 3052.0205 9071197
1746.1288 916.49982 3063.9658 9005404
1754.1615 911.24011 3046.3821 8742489
1788.485 919.6059 3074.3499 9926503
1782.6792 907.37726 3033.468 9070938
1821.502 917.88171 3068.5857 8741973
1836.5127 916.29791 3063.291 8939611
1851.4866 914.72705 3058.0391 9268576
1870.5975 915.21051 3059.6555 9071197
1889.5145 915.59088 3060.927 9136990
1905.8837 914.74103 3058.0859 9202783
1920.9832 913.30353 3053.2803 9597541
1939.2946 913.40576 3053.6221 9597541
1967.5717 918.15662 3069.5046 9202783
1980.4708 915.70996 3061.3252 9334369
2003.0139 917.72644 3068.0667 9334369
2023.7094 918.86768 3071.8818 9136734
2034.7397 915.63922 3061.0886 9005148
2066.5012 921.71448 3081.3992 9070681
2077.7017 918.59277 3070.9629 9399903
2086.3748 914.41766 3057.0049 9333853
2096.1763 910.80481 3044.9268 9004888
2107.8032 908.03992 3035.6833 8807767
2132.6875 910.9848 3045.5286 9268574
2144.7317 908.44153 3037.0261 9202781
2157.1702 906.10632 3029.2192 9531746
2181.5913 908.80139 3038.229 9465696
2204.4041 910.78766 3044.8694 9663076
2223.6775 911.2912 3046.553 9531490
2250.6877 914.93188 3058.7239 8808023
2270.9502 915.79321 3061.6035 9729125
2282.437 913.12994 3052.7 9531489
2289.9255 908.92163 3038.6311 9202781
2314.094 911.34796 3046.7427 9202524
2336.3374 912.98444 3052.2134 9005145
2342.4431 908.33801 3036.6799 8676180
2361.3669 908.69501 3037.8733 8478801
2375.5779 907.24677 3033.0317 8939352
2376.6501 900.84027 3011.614 8939095
2412.7092 907.69159 3034.519 8939610
2403.8525 897.66888 3001.012 8807767
2427.7883 899.94897 3008.6345 9005403
2444.2568 899.44812 3006.96 9005404
2458.1694 898.02069 3002.188 9071197
2472.2305 896.66754 2997.6643 8676439
2488.8596 896.25873 2996.2974 8939612
2498.2107 893.25311 2986.2495 9268834
2503.0312 888.68152 2970.9658 9597798
2537.3101 894.55939 2990.6165 8742234
2554.6758 894.43427 2990.1982 9466214
2562.6016 891.02856 2978.8125 8742748
2577.709 890.14954 2975.8738 9203299
2598.8865 891.36432 2979.9348 9400678
2654.4163 904.26532 3023.0645 8939870
2655.1899 898.46484 3003.6729 8611162
2676.7642 899.73346 3007.9138 8545369
2690.8828 898.49567 3003.7759 8479575
2712.1936 899.65979 3007.6677 9334885
2735.2263 901.37628 3013.4062 8676956
2780.877 910.47583 3043.8269 8347989
2750.1414 894.60974 2990.7849 8282196
2786.8948 900.76031 3011.3469 8611417
2792.1211 896.70752 2997.7979 8874332
2815.8679 898.61627 3004.179 8677209
2801.7354 888.48865 2970.3213 8676953
2834.9424 893.40625 2986.7615 9598311
2868.6724 898.42664 3003.5449 9401187
0 0 0 0
0 0 0 0
0 0 0 0
0 0 0 0
0 0 0 0
-3714.6909 1251.0941 4101.2983 12
-3772.8818 1279.0614 4192.98 12
-3746.9282 1278.6842 4191.7437 12
-3783.2815 1299.707 4260.6597 12
-3597.2202 1244.0907 4078.3401 12
-3794.7573 1321.2858 4331.3989 12
-3764.6106 1319.7161 4326.2529 12
-3750.9585 1323.9468 4340.1221 12
-3691.1016 1311.8147 4300.3511 12
-3701.415 1324.6259 4342.3481 12
-3661.3611 1319.4652 4325.4307 12
-3665.3628 1330.2202 4360.6875 12
-3586.3638 1310.7919 4296.998 14
-3564.8105 1312.2318 4301.7183 14
-3561.4548 1320.4393 4328.624 14
-3554.9932 1327.6061 4352.1177 14
-3529.8025 1327.8322 4352.8589 14
-3523.0938 1335.0652 4376.5698 14
-3481.7944 1329.2003 4357.3438 15
-3464.2771 1332.3945 4367.8149 15
-3439.6968 1332.8999 4369.4717 16
-3418.6206 1334.7811 4375.6387 16
-3408.4189 1340.9695 4395.9253 16
-3386.8022 1342.7277 4401.689 18
-3095.5806 1236.796 4054.4272 17
-3202.7805 1289.6364 4227.6465 16
-3193.4851 1296.0319 4248.6118 16
-3255.3467 1331.6364 4365.3296 16
-3229.1665 1331.5083 4364.9102 16
-3016.051 1253.6753 4109.7603 16
-2871.0632 1203.124 3944.0447 16
-2881.6655 1217.4785 3991.1008 16
-2865.8896 1220.8336 4002.0996 16
-3081.9688 1323.8363 4339.7598 16
-3045.2056 1319.0522 4324.0767 16
-3115.3599 1360.8918 4461.2344 16
-2798.8081 1233.076 4042.2324 16
-2767.6016 1229.8536 4031.6689 17
-2918.9285 1308.395 4289.1406 18
-2873.7026 1299.4384 4259.7793 18
-2819.2566 1286.1168 4216.1089 18
-2667.7776 1227.8959 4025.2507 18
-2775.47 1288.989 4225.5244 18
-2824.7095 1323.8009 4339.6436 18
-2932.8455 1387.1077 4547.1743 18
-2717.3704 1297.1156 4252.1646 18
-2752.0261 1325.9542 4346.7026 18
-2703.1545 1314.7135 4309.8535 18
-2691.5103 1321.5369 4332.2217 18
-2641.344 1309.395 4292.4189 18
-2601.5237 1302.1959 4268.8188 18
-2592.4653 1310.4044 4295.728 18
-2444.3481 1247.7892 4090.4644 18
-2563.5652 1321.755 4332.937 18
-2563.5876 1335.1401 4376.8154 18
-2486.7598 1308.3652 4289.043 18
-2297.4807 1221.2622 4003.5046 18
-2449.6387 1315.7313 4313.1904 18
-2422.6936 1314.9801 4310.7275 18
-2404.4368 1318.9788 4323.8359 18
-2229.3157 1236.0873 4052.1035 18
-2365.5979 1325.9341 4346.6367 18
-2319.9739 1314.6771 4309.7344 18
-2159.2417 1237.2142 4055.7981 18
-2115.5364 1225.8168 4018.4351 18
-2104.9404 1233.563 4043.8289 18
-2204.4043 1306.7291 4283.6797 18
-2174.0557 1303.7532 4273.9238 18
-2148.7683 1303.7778 4274.0049 18
-2058.6484 1263.9967 4143.5952 18
-2035.2729 1264.73 4145.9995 18
-1960.2059 1232.9674 4041.8765 18
-1934.2002 1231.6604 4037.5916 18
-1882.8689 1213.9916 3979.6704 18
-1854.9865 1211.1853 3970.4707 18
-1860.934 1230.6794 4034.3757 18
-1841.6433 1233.7731 4044.5173 18
-1809.103 1227.9551 4025.4448 18
-1821.0527 1252.5831 4106.1797 18
-1732.2051 1207.6075 3958.7422 18
-1709.9894 1208.4871 3961.6255 18
-1686.5894 1208.5427 3961.8076 18
-1663.5918 1208.8921 3962.9531 18
-1640.4114 1209.1168 3963.6897 18
-1632.7355 1220.9421 4002.4553 18
-1776.0787 1347.7113 4418.0264 18
-1584.1688 1220.0736 3999.6079 18
-1640.2048 1282.4183 4203.9849 18
-1685.5393 1338.1899 4386.8135 19
-1672.7751 1348.8607 4421.7939 19
-1612.2107 1320.7131 4329.5215 18
-1593.6515 1326.6223 4348.8926 18
-1589.6697 1345.0598 4409.334 19
-1549.0236 1332.5726 4368.3989 19
-1504.6736 1316.4205 4315.4497 19
-1442.766 1284.0834 4209.4429 19
-1416.0748 1282.5028 4204.2617 19
-1443.1683 1330.4497 4361.4395 19
-1415.0146 1328.2841 4354.3403 19
-1346.1708 1287.1324 4219.4385 19
-1356.0951 1321.1624 4330.9941 19
-1331.2964 1322.024 4333.8188 19
-1303.1165 1319.4957 4325.5308 19
-1244.3524 1285.2762 4213.3535 19
-1232.8413 1299.4615 4259.8555 19
-1190.9506 1281.5493 4201.1357 18
-1160.6929 1275.6573 4181.8213 18
-1125.9799 1264.5052 4145.2622 18
-1098.3641 1261.0035 4133.7832 18
-1056.6213 1240.7532 4067.3989 18
-1029.5739 1237.2164 4055.8052 18
-1013.2051 1246.6497 4086.7288 18
-985.20166 1241.879 4071.0898 18
-947.13 1223.859 4012.0171 18
-914.33148 1211.9001 3972.814 18
-886.34216 1205.8519 3952.9871 18
-868.76581 1214.0269 3979.7856 19
-841.82111 1209.2008 3963.9653 19
-816.65253 1206.7225 3955.8408 19
-791.70947 1204.4407 3948.3606 19
-765.21661 1199.5903 3932.4604 19
-741.47723 1198.8873 3930.156 18
-717.04242 1196.9778 3923.896 18
-690.349 1191.0436 3904.4426 18
-668.35474 1193.0863 3911.1392 18
-643.90161 1190.7289 3903.4109 18
-619.08453 1187.4973 3892.8174 18
-597.22388 1189.9062 3900.7144 18
-569.42639 1180.2042 3868.9097 18
-544.51239 1175.9153 3854.8499 18
-518.49298 1168.759 3831.3899 18
-494.20508 1165.0289 3819.1621 18
-470.5054 1162.394 3810.5247 20
-440.742 1143.7578 3749.4319 18
-411.21039 1123.776 3683.9285 18
-386.96371 1116.8064 3661.0806 18
-364.5636 1114.6545 3654.0266 18
-352.76718 1146.6993 3759.0747 18
-323.18448 1121.351 3675.9785 18
-300.06519 1116.3854 3659.7004 18
-277.65613 1113.4944 3650.2231 18
-254.80052 1108.1727 3632.7778 18
-233.85428 1110.9393 3641.8474 18
-217.6555 1139.1146 3734.2109 18
-195.30838 1137.8483 3730.0593 18
-169.61023 1114.2441 3652.6809 18
-147.92632 1113.9628 3651.7588 18
-127.89611 1128.1725 3698.3406 18
-105.71584 1125.3716 3689.1589 18
-84.063301 1128.1925 3698.4065 18
-62.056355 1126.5696 3693.0862 18
-39.872791 1118.225 3665.731 18
-18.20713 1121.8136 3677.4951 19
3.6105194 1129.3297 3702.1343 19
25.205582 1114.0994 3652.2065 19
47.074924 1119.4639 3669.7925 19
69.308563 1127.3636 3695.6892 19
91.240891 1127.7454 3696.9407 19
112.49648 1121.2345 3675.5964 19
133.07855 1111.2118 3642.7407 19
155.03635 1113.8711 3651.4585 19
176.84975 1114.9686 3655.0564 19
197.55249 1109.5884 3637.4189 19
219.86925 1113.4403 3650.0464 18
242.04254 1115.9409 3658.2434 18
262.00049 1108.656 3634.3623 18
287.22839 1123.0837 3681.6589 18
306.67117 1114.451 3653.3594 18
327.03934 1110.098 3639.0896 18
349.42938 1112.722 3647.6914 18
370.9501 1112.4332 3646.7449 18
390.2962 1106.0139 3625.7012 18
411.63666 1105.6212 3624.4138 18
435.20947 1110.9661 3641.9351 17
454.14673 1104.5317 3620.842 17
474.50607 1101.9803 3612.4785 17
496.30392 1102.8461 3615.3162 18
517.64575 1102.6686 3614.7344 18
541.51447 1107.674 3631.1431 17
570.76343 1122.8813 3680.9956 17
580.995 1100.9331 3609.0452 16
602.03259 1100.2927 3606.946 16
620.99158 1096.0277 3592.9644 16
644.35071 1099.5541 3604.5244 17
673.95117 1113.1627 3649.136 18
683.12994 1093.2437 3583.8379 18
699.65942 1085.9347 3559.8779 18
720.04248 1084.8596 3556.3538 18
740.40485 1083.8154 3552.9307 18
748.94019 1065.9951 3494.5127 18
779.29102 1079.349 3538.2891 18
807.54626 1089.177 3570.5066 18
826.68256 1086.5177 3561.7891 18
842.07703 1079.1954 3537.7854 18
861.55939 1077.3406 3531.7048 18
879.56958 1073.7765 3520.0215 18
886.34637 1056.9816 3464.9648 18
909.65002 1060.2095 3475.5464 18
925.2381 1054.501 3456.833 18
957.25873 1067.3624 3498.9949 18
976.27881 1065.49 3492.8567 17
979.724 1047.0499 3432.4072 16
992.21393 1038.83 3405.4604 16
1005.393 1031.6447 3381.906 65550
1002.395 1008.4652 3305.9199 262151
944.76434 932.26453 3056.1213 918278
0 0 0 0
0 0 0 0
986.44409 920.45721 3017.4148 8809303
1001.4124 917.78699 3008.6614 9598817
1013.5074 912.62274 2991.7322 9795940
1029.9667 911.49866 2988.0469 9927526
1047.9316 911.72235 2988.7803 9927525
1063.8154 910.15802 2983.6523 9927526
1081.0182 909.75494 2982.3308 9860708
1102.1199 912.5932 2991.6353 9663585
1119.9204 912.65149 2991.8262 9992551
1133.4454 909.27795 2980.7673 9794659
1153.5411 911.19836 2987.0625 9597280
1177.9403 916.40857 3004.1426 9597280
1192.7852 914.14136 2996.7102 9531230
1208.9854 912.96405 2992.8511 9860965
1230.2947 915.62317 3001.5681 9597793
1244.5359 913.0213 2993.0386 10124136
1255.4298 908.07123 2976.8115 9663585
1277.9642 911.56152 2988.2532 9794915
1290.1771 907.69482 2975.5776 10058344
1300.2139 902.422 2958.2922 9466206
1328.8623 910.03503 2983.2493 10321259
1348.998 911.69519 2988.6914 9597279
1365.9189 911.16779 2986.9624 9663073
1385.7632 912.57898 2991.5884 9794657
1406.8221 914.74426 2998.6868 9728607
1417.2614 910.0365 2983.2539 9531231
1440.5529 913.5957 2994.9214 9663330
1451.6333 909.41827 2981.2273 9663330
1470.2533 910.00793 2983.1602 9794660
1495.3955 914.57239 2998.1233 9991783
1510.8269 913.1604 2993.4946 9860197
1531.6244 914.98694 2999.4824 9794661
1548.1753 914.26367 2997.1113 9663075
1563.803 913.01794 2993.0276 9728868
1586.2076 915.71234 3001.8604 10255212
1597.0386 911.73956 2988.8369 9334367
1604.0541 905.69977 2969.0374 9202781
1620.8093 905.23071 2967.4998 9729125
1651.8096 912.64209 2991.7957 9465952
1667.0009 911.25433 2987.2463 9202524
1687.4507 912.74011 2992.1167 9860454
1700.3947 910.17725 2983.7153 9400160
1719.8217 911.10168 2986.7456 9005402
1755.1649 920.35315 3017.0735 8939609
1751.2821 909.05664 2980.0417 9531746
1789.6879 919.71765 3014.9902 9663332
1797.1166 914.40619 2997.5784 9070938
1805.4961 909.6778 2982.0779 9268575
1832.6083 914.38776 2997.5181 9071197
1867.2791 922.74249 3024.9065 8741976
1897.5703 928.79486 3044.7468 9268576
1881.5105 912.2594 2990.541 9268575
1916.5083 920.55725 3017.7427 9663333
1942.1761 924.26166 3029.8862 9794663
1951.5402 920.21033 3016.6055 9465954
1970.0234 920.49359 3017.5342 9729125
2000.9388 926.52844 3037.3174 9268575
2017.265 925.76044 3034.7996 9268576
2020.5312 919.06549 3012.8523 8742232
2044.2656 921.71637 3021.5425 9334368
2050.8616 916.66101 3004.9702 9334112
2055.0916 910.64441 2985.2468 8873816
2067.1409 908.16571 2977.1211 9992040
2089.7102 910.31171 2984.156 9992040
2110.8203 911.79126 2989.0063 9399903
2122.2314 909.09155 2980.1562 9334367
2141.9231 909.95428 2982.9844 9400160
2157.5461 909.0885 2980.1462 9268574
2174.7209 908.88538 2979.4802 8676437
2197.4221 910.97638 2986.335 8807766
2208.9614 908.44385 2978.033 9268573
2235.5737 912.10095 2990.0217 9202524
2260.7795 915.13129 2999.9556 8676437
2284 917.31696 3007.1206 9334110
2285.8228 910.94147 2986.2207 8873559
2301.22 910.0321 2983.2393 8413008
2314.0867 908.14337 2977.0479 8741973
2334.0747 909.05682 2980.0425 8675923
2345.0032 906.45471 2971.512 8807511
2359.2871 905.17871 2967.3291 8347474
2382.1267 907.17975 2973.8889 8808024
2387.6367 902.60022 2958.8767 8742233
2415.5061 906.47845 2971.5901 8939610
2426.9209 904.17029 2964.0237 8939608
2442.6367 903.48621 2961.781 8018250
2458.4509 902.84802 2959.6887 7689286
2457.7913 896.21167 2937.9338 7162942
2471.5122 894.87567 2933.5542 7294786
2488.7009 894.80524 2933.3232 8150095
2505.4651 894.58405 2932.5981 8018253
2533.9067 898.50671 2945.4573 8676953
2561.8782 902.21014 2957.5977 8611415
2581.3101 902.87616 2959.7812 8808539
2605.8438 905.30585 2967.7461 8874334
2613.5581 901.8988 2956.5771 9005920
2626.0471 900.17383 2950.9224 8742748
2649.1663 902.09143 2957.2085 9005920
2651.7244 897.02832 2940.6108 8545112
2661.8833 894.58588 2932.604 8742748
2701.6309 902.05444 2957.0874 8413783
2722.083 903.0257 2960.2715 8413783
2720.2429 896.6366 2939.3269 8019025
2746.8542 899.64734 2949.1965 7624267
2758.3364 897.69611 2942.8 8347733
2797.6697 904.77661 2966.0112 8282197
2790.4431 896.80505 2939.8789 8019024
2783.1292 888.9046 2913.9797 7624010
0 0 0 0
0 0 0 0
0 0 0 0
0 0 0 0
0 0 0 0
-3845.3313 1320.2532 4245.5352 12
-3807.1431 1315.7505 4231.0562 12
-3801.8887 1322.6458 4253.229 12
-3771.9492 1320.9878 4247.8975 12
-3744.7871 1320.2869 4245.6436 12
-3733.791 1325.3146 4261.811 12
-3651.9729 1305.1012 4196.811 12
-3625.7117 1304.6011 4195.2026 12
-3538.8879 1282.152 4123.0132 12
-3574.9934 1304.238 4194.0352 12
-3580.5291 1315.4028 4229.938 12
-3548.6931 1312.8987 4221.8853 11
-3524.0361 1313.0338 4222.3198 13
-3491.3164 1310.1453 4213.0312 13
-3452.1321 1304.7719 4195.752 13
-3490.9192 1329.0045 4273.6768 13
-3413.0952 1308.8724 4208.938 14
-3415.2615 1319.345 4242.6147 15
-3386.7075 1318.0175 4238.3457 16
-3340.2148 1309.6366 4211.3955 16
-3372.3508 1332.1906 4283.9219 16
-3317.0859 1320.2985 4245.6807 16
-3326.7986 1334.2852 4290.6577 16
-3298.6633 1333.1907 4287.1382 16
-3275.4385 1334.0792 4289.9956 16
-3212.1179 1318.5231 4239.9717 16
-3176.4294 1314.1536 4225.9209 16
-3205.5439 1336.738 4298.5454 16
-3168.0037 1331.666 4282.2354 16
-3084.2097 1306.9125 4202.6353 16
-3123.5093 1334.3405 4290.8354 16
-3100.6941 1335.4658 4294.4546 16
-3081.8481 1338.3337 4303.6768 16
-2788.6785 1221.1266 3926.7742 16
-3009.7375 1329.0159 4273.7134 16
-2964.967 1320.3573 4245.8701 16
-2918.3809 1310.735 4214.9277 18
-2898.0066 1312.8208 4221.6348 18
-2856.0146 1305.0647 4196.6934 18
-2811.2312 1295.8854 4167.1758 18
-2569.0007 1194.7203 3841.8594 18
-2794.49 1311.2052 4216.4395 18
-2762.7583 1308.0122 4206.1719 18
-2743.4404 1310.6918 4214.7886 18
-2565.4692 1236.9268 3977.5828 18
-2714.7371 1321.0334 4248.0439 18
-2726.7515 1339.2997 4306.7827 18
-2653.3428 1315.5573 4230.4346 18
-2654.6536 1328.7622 4272.8975 18
-2609.3237 1318.651 4240.3833 18
-2580.0781 1316.5507 4233.6289 18
-2536.7888 1307.1725 4203.4717 18
-2429.8669 1264.4943 4066.2312 18
-2443.9219 1284.5472 4130.7158 18
-2501.9673 1328.3621 4271.6108 18
-2476.6694 1328.371 4271.6396 18
-2251.52 1220.082 3923.415 18
-2292.5808 1255.2958 4036.6516 18
-2313.2847 1279.9883 4116.0552 18
-2257.1899 1262.2599 4059.0461 18
-2169.0115 1226.0144 3942.4919 18
-2128.1013 1215.9886 3910.252 18
-2286.4805 1320.8689 4247.5151 18
-2172.7864 1269.1614 4081.2395 18
-2152.3906 1271.4005 4088.4397 18
-2222.4834 1327.75 4269.6426 18
-2214.8223 1338.4108 4303.9243 18
-2235.0981 1366.3989 4393.9258 18
-2126.0056 1315.0269 4228.729 18
-2037.1642 1275.105 4100.3521 18
-2098.2952 1329.2231 4274.3799 18
-2118.304 1358.2959 4367.8691 18
-2044.9508 1327.4818 4268.7803 18
-2019.6844 1327.5026 4268.8467 18
-2012.4972 1339.5575 4307.6118 18
-2008.0883 1353.7952 4353.396 17
-1905.5276 1301.3712 4184.8164 15
-1920.5903 1328.9545 4273.5156 16
-1896.455 1329.7891 4276.1997 15
-1872.2657 1330.6082 4278.8335 18
-1848.0018 1331.3959 4281.3667 18
-1822.9689 1331.6437 4282.1636 18
-1796.4088 1330.7673 4279.3452 18
-1769.9301 1329.927 4276.6431 18
-1744.9703 1330.2201 4277.5859 18
-1717.5525 1328.6205 4272.4419 18
-1635.3641 1283.9709 4128.8623 18
-1608.9623 1282.4301 4123.9072 18
-1634.5717 1322.9368 4254.1646 18
-1641.205 1349.1135 4338.3413 18
-1614.7648 1348.5037 4336.3804 18
-1589.0596 1348.4979 4336.3618 18
-1489.8407 1285.0817 4132.4341 19
-1510.745 1324.8912 4260.4497 19
-1439.2513 1283.6459 4127.8169 19
-1396.2145 1266.793 4073.6233 19
-1367.6122 1262.6742 4060.3784 19
-1342.5608 1261.745 4057.3904 19
-1314.4972 1257.8994 4045.0242 19
-1291.4363 1258.7871 4047.8789 19
-1265.4823 1256.8351 4041.6018 19
-1251.3699 1266.7954 4073.6311 19
-1210.062 1249.0753 4016.6484 19
-1184.2135 1246.9219 4009.7241 19
-1157.5267 1243.7798 3999.6199 19
-1129.7001 1239.2557 3985.0718 18
-1102.9546 1235.75 3973.7983 18
-1078.5046 1234.7191 3970.4834 18
-1052.1635 1231.4288 3959.9028 18
-1024.365 1226.244 3943.2302 18
-998.44037 1223.1127 3933.1606 18
-971.45294 1218.4985 3918.3228 18
-945.23663 1214.6493 3905.9448 18
-917.3006 1208.3413 3885.6604 18
-890.01581 1202.5886 3867.1614 18
-865.45648 1200.3118 3859.8396 18
-838.29187 1194.1997 3840.1851 19
-817.49286 1197.068 3849.4087 19
-789.45612 1189.1984 3824.1025 19
-765.2406 1186.7897 3816.3567 19
-741.00018 1184.1946 3808.0117 19
-717.46539 1182.5996 3802.8826 18
-692.70624 1178.8174 3790.7205 18
-675.55865 1188.1689 3820.7922 18
-640.79614 1166.1138 3749.8694 18
-625.61908 1179.3955 3792.5796 18
-604.56519 1182.1758 3801.5198 18
-566.93372 1151.5002 3702.8767 18
-544.84546 1151.1956 3701.897 18
-527.12024 1160.4706 3731.7227 18
-504.6557 1159.6674 3729.1396 18
-485.82181 1167.5156 3754.3772 18
-465.45929 1172.2673 3769.6572 20
-441.55151 1168.1191 3756.3181 18
-415.28012 1156.9458 3720.3879 18
-391.89322 1153.0061 3707.719 18
-370.14108 1153.6936 3709.9299 18
-347.09476 1150.1794 3698.6294 18
-319.36194 1129.6149 3632.5 18
-295.32303 1120.0878 3601.8635 18
-269.87839 1103.3291 3547.9727 18
-252.51732 1119.5782 3600.2253 18
-231.89217 1123.0195 3611.2913 18
-208.12381 1110.3906 3570.6804 18
-192.62643 1144.025 3678.8386 18
-170.50746 1141.8993 3672.0032 18
-149.32889 1146.3711 3686.3831 18
-126.71376 1139.4575 3664.1509 18
-105.13813 1140.9651 3668.9985 18
-83.156158 1137.6991 3658.4963 18
-61.474468 1137.6868 3658.457 18
-39.708672 1135.2568 3650.6428 18
-18.169212 1141.2256 3669.8364 19
3.5802617 1141.6213 3671.1091 19
25.35288 1142.3802 3673.5498 19
46.79388 1134.3987 3647.8833 19
68.480011 1135.5262 3651.509 18
90.12677 1135.6162 3651.7983 18
111.01249 1127.9387 3627.1099 18
133.27783 1134.4958 3648.1958 18
152.89117 1119.799 3600.9348 18
174.215 1119.6954 3600.6023 18
189.48447 1084.9487 3488.8672 18
216.78603 1119.1542 3598.8616 18
235.97121 1109.0846 3566.481 18
258.69693 1115.9434 3588.5366 18
279.75647 1115.1187 3585.8845 18
304.16138 1126.8037 3623.4602 18
322.43231 1115.7223 3587.8254 18
343.43869 1114.8916 3585.1545 18
368.23798 1125.7534 3620.0828 18
386.99319 1117.9589 3595.0176 18
406.48758 1113.0016 3579.0769 18
427.31067 1111.9938 3575.8359 18
449.68512 1114.9276 3585.27 18
472.43823 1118.4932 3596.7358 17
495.14386 1121.6433 3606.8657 15
515.9823 1120.4778 3603.1182 15
530.36926 1105.9523 3556.4084 16
552.68677 1108.4421 3564.4148 16
576.96893 1114.5439 3584.0364 16
624.55682 1163.6339 3741.895 16
645.10889 1160.7134 3732.5034 16
635.70551 1105.876 3556.1626 16
656.26703 1105.0121 3553.3848 16
676.04602 1102.9252 3546.6741 16
694.25586 1098.4814 3532.3845 16
716.25165 1100.1128 3537.6301 17
715.54767 1067.7777 3433.6501 18
733.89362 1064.8718 3424.3059 18
754.87872 1065.8489 3427.4478 18
774.51233 1064.9164 3424.4492 18
791.69812 1060.7518 3411.0571 18
820.81433 1072.3816 3448.4551 18
840.95862 1072.0095 3447.2583 18
852.23297 1060.6161 3410.6206 18
876.53601 1065.5895 3426.6135 18
896.24817 1064.8828 3424.3413 18
916.49353 1064.827 3424.1616 18
923.90839 1050.1896 3377.092 18
948.43274 1055.2083 3393.231 18
970.00427 1056.8016 3398.3547 16
982.79181 1048.955 3373.1221 15
995.07483 1040.8932 3347.198 65549
989.38409 1014.7128 3263.0095 196619
940.64691 946.23401 3042.8025 458756
0 0 0 0
0 0 0 0
976.92755 929.28656 2988.3047 9006427
978.07373 913.81165 2938.542 9598305
1003.1044 920.80304 2961.0242 9138010
1014.6695 915.4057 2943.668 9664354
1029.0464 912.68469 2934.9182 9795428
1046.5461 912.77777 2935.2175 9861221
1063.8258 912.67914 2934.9004 9663586
1084.7634 915.67133 2944.5222 9860965
1108.6082 920.98389 2961.6057 9992550
1123.7706 919.03046 2955.3242 9663585
1133.7972 913.00128 2935.9363 9992294
1152.5421 914.06866 2939.3687 9926245
1168.8204 913.17731 2936.5022 9465694
1190.6283 916.56866 2947.408 9531999
1207.7061 916.2735 2946.4585 9860708
1224.6688 915.90051 2945.2593 9926758
1238.6069 913.30786 2936.9221 9466207
1257.7852 914.59741 2941.0688 9794916
1268.1094 909.50153 2924.6819 9334107
1294.7924 916.11749 2945.9568 9202522
1296.6869 905.25201 2911.0168 10189673
1314.7897 905.83856 2912.9031 9465694
1341.8628 912.51007 2934.3567 9663073
1360.6147 913.42474 2937.2979 9860451
1376.809 912.62079 2934.7126 10057830
1396.6515 914.22504 2939.8713 9728610
1414.2959 914.36859 2940.333 10058345
1424.3788 909.67957 2925.2544 10189674
1449.2413 914.42877 2940.5266 9860452
1470.1472 916.59821 2947.5029 9992040
1482.2732 913.30713 2936.9197 9728868
1501.8253 914.61481 2941.1248 9926247
1518.2217 913.99274 2939.1243 9663075
1535.5316 913.92847 2938.9177 9728868
1561.5035 918.96326 2955.1082 9597282
1569.1416 913.21661 2936.6284 9531489
1587.2667 913.63208 2937.9646 9399903
1609.9863 916.6546 2947.6841 9070938
1622.3909 913.80225 2938.512 8873816
1641.6075 914.80664 2941.7417 8873816
1662.9766 916.97675 2948.7202 9794917
1684.0569 918.94427 2955.0469 9860711
1699.927 918.0575 2952.1953 9400160
1711.168 914.71417 2941.4443 9399905
1727.2635 914.0072 2939.1709 8873818
1755.9994 919.93628 2958.2371 8544853
1770.9357 918.59039 2953.9089 9070940
1801.8275 925.466 2976.0188 10255470
1812.3888 921.86713 2964.446 9334369
1846.2571 930.07867 2990.8518 9268319
1847.0868 921.64868 2963.7434 9400161
1868.1654 923.38586 2969.3298 9202783
1884.2177 922.62952 2966.8977 9465698
1892.1174 917.93219 2951.7925 9465953
1911.0031 918.60156 2953.9451 9334367
1925.1842 917.01807 2948.8528 9597282
1954.5679 922.63916 2966.9287 8939609
1969.5916 921.44202 2963.0789 9202780
1986.1566 920.98077 2961.5957 9268575
2018.4412 927.75275 2983.3726 8610644
2021.6154 921.14325 2962.1182 8610643
2035.4202 919.44958 2956.6719 8676179
2061.4036 923.23932 2968.8584 10123882
2068.5435 918.59674 2953.9294 9597539
2082.7959 917.16418 2949.3228 9531745
2100.9094 917.44159 2950.2148 9531746
2114.5083 915.75922 2944.8047 9531489
2133.4146 916.38397 2946.814 9729125
2141.6194 912.43933 2934.1292 9071195
2154.9841 910.73895 2928.6611 8676437
2163.4299 907.00342 2916.6489 8807766
2187.6506 909.88831 2925.9258 8807766
2212.6648 913.05518 2936.1094 8610387
2239.1643 916.78076 2948.0898 8939352
2249.7888 913.99933 2939.1455 9202524
2268.7073 914.60413 2941.0906 8807766
2270.6797 908.42035 2921.2053 8873302
2291.6406 909.8692 2925.8643 8873559
2299.134 905.9895 2913.3882 8807766
2323.3196 908.69598 2922.0916 8742231
2350.6567 912.58612 2934.6011 9202780
2342.3264 902.67377 2902.7258 8610644
2361.5278 903.4386 2905.1855 8215886
2383.1892 905.12665 2910.6138 8018506
2401.7012 905.60291 2912.1453 7886666
2414.887 904.07837 2907.2427 7492165
2446.4746 909.41583 2924.4065 7755336
2444.832 902.41266 2901.8862 7163198
2470.7566 905.61151 2912.1729 7886923
2455.2507 893.68573 2873.8232 8610646
2493.8674 901.48859 2898.9148 8216659
2511.3364 901.59253 2899.249 8084562
2526.8635 901.00256 2897.3521 7953488
2547.0178 902.05939 2900.7502 7953232
2580.8503 907.91394 2919.5767 7755853
2581.0454 901.93604 2900.3535 7952976
2613.5156 907.24084 2917.4124 8282454
2626.8191 905.86639 2912.9924 8216404
2632.6421 901.94696 2900.3889 8085075
2666.1018 907.48547 2918.199 8413782
2668.8286 902.55914 2902.3572 8413526
2680.3455 900.64941 2896.2163 8150867
2675.4807 893.29449 2872.5652 7953232
2699.9792 895.77454 2880.5403 8019794
2713.4746 894.59589 2876.75 8151381
2739.4753 897.52899 2886.1819 7427402
2730.0615 888.89478 2858.417 7492941
0 0 0 0
0 0 0 0
0 0 0 0
0 0 0 0
0 0 0 0
-3796.9966 1328.5016 4192.1699 12
-3853.0334 1356.9866 4282.0562 12
-3825.7976 1356.3275 4279.9761 12
-3797.6345 1355.3285 4276.8237 12
-3780.4685 1358.2672 4286.0972 12
-3748.6777 1355.9557 4278.8027 12
-3682.0073 1340.9103 4231.3262 12
-3677.0828 1348.2992 4254.6426 12
-3521.6577 1300.2244 4102.939 12
-3543.7185 1317.4656 4157.3447 12
-3522.5408 1318.7607 4161.4321 12
-3584.3518 1351.3624 4264.3086 12
-3581.3069 1359.8016 4290.939 11
-3435.3174 1313.6981 4145.4565 11
-3435.9314 1323.397 4176.0615 14
-3497.4399 1356.8608 4281.6592 13
-3470.5872 1356.2831 4279.8359 13
-3500.9617 1378.2253 4349.0762 16
-3389.7302 1344.3335 4242.1284 16
-3376.3955 1349.0504 4257.0127 16
-3347.6274 1347.6252 4252.5156 16
-3252.26 1319.1647 4162.7065 16
-3297.6477 1347.7981 4253.061 16
-3260.5232 1342.8887 4237.5693 16
-3235.8206 1343.0588 4238.106 16
-3212.9094 1343.9812 4241.0166 16
-3189.9187 1344.8844 4243.8667 16
-3166.0083 1345.4113 4245.5293 16
-3144.1323 1346.818 4249.9683 16
-3105.7837 1341.1342 4232.0327 16
-3101.2134 1350.0626 4260.207 16
-3075.4985 1349.8573 4259.5591 16
-2847.5347 1260.1454 3976.4675 16
-2864.366 1278.1718 4033.3508 16
-3001.9736 1350.8492 4262.689 15
-2962.3601 1344.3362 4242.1367 16
-2765.8674 1265.9097 3994.6572 17
-2782.5344 1284.5323 4053.4221 17
-2902.6453 1351.6492 4265.2134 18
-2749.0972 1291.3934 4075.0725 18
-2852.2048 1351.7025 4265.3818 18
-2809.9771 1343.5979 4239.8071 18
-2767.7852 1335.3641 4213.8247 18
-2544.1238 1238.6304 3908.5754 18
-2612.5112 1283.6121 4050.5181 18
-2606.5115 1292.5403 4078.6914 18
-2644.9229 1323.8649 4177.5381 18
-2609.2734 1318.3613 4160.1714 18
-2479.9028 1264.9475 3991.6208 18
-2563.8831 1320.3789 4166.5381 18
-2548.925 1325.4404 4182.5103 18
-2570.5835 1349.8291 4259.4697 18
-2544.0044 1349.1201 4257.2329 18
-2530.5332 1355.4181 4277.1064 18
-2477.1023 1340.2234 4229.1587 18
-2450.6182 1339.4467 4226.7075 18
-2426.0044 1339.6866 4227.4648 18
-2396.7009 1337.3148 4219.9805 18
-2374.127 1338.6876 4224.3125 18
-2346.2729 1337.0807 4219.2417 18
-2293.5999 1321.1431 4168.9492 18
-2290.1174 1333.5012 4207.9463 18
-2261.2222 1331.1711 4200.5938 18
-2216.9407 1319.6305 4164.1763 18
-2186.5806 1316.21 4153.3828 18
-2174.7744 1324.0076 4177.9883 18
-2146.1001 1321.5967 4170.3809 17
-2119.9688 1320.714 4167.5957 18
-2092.999 1319.2821 4163.0771 17
-2064.7949 1317.0287 4155.9663 17
-2033.6718 1312.8367 4142.7378 16
-1999.8538 1306.781 4123.6289 16
-1991.7344 1317.5757 4157.6924 16
-1954.1194 1308.8845 4130.2671 16
-1936.2268 1313.3508 4144.3604 16
-1901.4302 1306.3181 4122.1685 16
-1980.8988 1378.6267 4350.3428 17
-1851.3768 1305.4751 4119.5083 18
-1822.1713 1302.0507 4108.7021 18
-1796.2069 1300.8806 4105.0103 18
-1783.6418 1309.5162 4132.2603 18
-1752.3779 1304.4728 4116.3452 18
-1728.1667 1304.611 4116.7812 18
-1705.2183 1305.7201 4120.2812 18
-1682.4537 1307.0044 4124.334 18
-1658.1698 1307.1287 4124.7261 18
-1679.6949 1343.9082 4240.7861 18
-1647.4298 1338.1143 4222.5029 18
-1583.1116 1305.7048 4120.2334 18
-1557.1392 1304.4023 4116.123 18
-1507.0388 1282.5248 4047.0869 18
-1484.4115 1283.698 4050.7891 18
-1462.8669 1285.8615 4057.616 19
-1435.7316 1283.1007 4048.9045 19
-1410.8147 1282.2626 4046.2595 19
-1373.9749 1270.3715 4008.7366 19
-1357.2847 1277.02 4029.7166 19
-1348.0448 1291.042 4073.9636 19
-1347.7377 1314.2865 4147.313 19
-1301.2672 1292.5406 4078.6926 19
-1253.304 1268.4608 4002.7075 19
-1310.3458 1351.7773 4265.6177 18
-1193.9968 1255.9797 3963.3223 18
-1167.9139 1253.1947 3954.5342 18
-1132.7976 1240.4042 3914.1729 18
-1138.692 1272.9241 4016.7915 18
-1085.3239 1239.1696 3910.2769 18
-1062.2787 1239.319 3910.7483 18
-1045.1525 1246.5343 3933.5168 18
-1020.6339 1245.0612 3928.8679 18
-996.01837 1243.3979 3923.6199 18
-962.7666 1230.6163 3883.2866 18
-934.56873 1223.827 3861.8625 18
-914.41516 1227.4952 3873.438 18
-884.41211 1217.7903 3842.8132 18
-869.3316 1228.6628 3877.1221 18
-841.71588 1221.9281 3855.8706 18
-819.33813 1222.634 3858.0979 18
-785.62262 1205.9762 3805.533 19
-764.84973 1208.7885 3814.4075 19
-744.57336 1212.5808 3826.3745 19
-720.22626 1209.7737 3817.5164 18
-696.22308 1207.3809 3809.9656 18
-670.85516 1202.3816 3794.1904 18
-632.59686 1173.131 3701.8879 18
-606.31848 1164.793 3675.5769 18
-588.02191 1171.7388 3697.4949 18
-563.01672 1165.3369 3677.2932 18
-552.03693 1188.618 3750.7583 18
-526.32751 1180.8071 3726.1106 18
-499.01013 1168.5466 3687.4219 18
-483.76175 1184.7197 3738.4573 18
-460.92242 1182.9631 3732.9143 18
-438.68234 1182.6449 3731.9099 18
-413.13818 1172.9125 3701.1987 18
-391.7402 1174.5199 3706.271 18
-360.11691 1143.8397 3609.4575 18
-339.87595 1147.7213 3621.7061 18
-317.44434 1144.2299 3610.689 18
-301.95935 1167.0826 3682.8022 18
-273.29968 1138.6088 3592.9512 18
-252.01353 1138.6379 3593.043 18
-230.85753 1139.3147 3595.1785 18
-208.54065 1133.8174 3577.8315 18
-197.1434 1193.1644 3765.1047 18
-171.39609 1169.7251 3691.1404 18
-148.6156 1162.6373 3668.7749 18
-128.03062 1173.2395 3702.2305 18
-104.87189 1159.7639 3659.7075 18
-80.358864 1120.3798 3535.4282 18
-59.26767 1117.7489 3527.1265 18
-38.361958 1117.6555 3526.8315 18
-17.433277 1115.868 3521.1914 19
3.5134566 1141.6693 3602.6089 19
24.962431 1146.2219 3616.9749 19
46.446648 1147.4386 3620.8142 19
67.210304 1135.7106 3583.8057 19
89.122192 1144.3584 3611.0942 19
110.46999 1143.8168 3609.3853 19
127.73276 1108.0153 3496.4111 19
148.45636 1108.0386 3496.4849 18
174.09511 1140.2483 3598.1245 18
195.38919 1140.078 3597.5874 18
214.05885 1126.1346 3553.5879 18
228.04684 1092.2654 3446.7114 18
248.72682 1093.3822 3450.2356 18
280.48267 1139.3193 3595.1931 18
301.18915 1137.0563 3588.0522 18
322.95547 1138.8292 3593.6467 18
343.88757 1137.623 3589.8406 16
364.1622 1134.5092 3580.0144 16
385.59103 1135.1359 3581.9922 16
392.41806 1094.9541 3455.196 17
426.42517 1130.8367 3568.4258 16
448.87454 1134.1267 3578.8074 16
468.69458 1130.7762 3568.2349 16
488.95325 1128.7275 3561.7703 16
520.48273 1151.79 3634.5452 16
547.03247 1162.4374 3668.1438 16
551.32477 1126.782 3555.6311 16
566.90991 1115.9822 3521.5513 15
592.36377 1124.6862 3549.0176 15
607.25922 1113.4342 3513.511 15
628.03363 1113.3501 3513.2458 16
654.60571 1123.2196 3544.3894 16
669.1969 1112.5568 3510.7422 16
687.46558 1108.4666 3497.8352 16
715.85986 1120.4644 3535.6953 17
726.63867 1104.9921 3486.8716 18
743.84094 1099.8737 3470.72 18
775.52789 1115.8718 3521.2031 18
784.51599 1099.2271 3468.6797 18
804.78802 1098.8391 3467.4553 18
829.16095 1103.9304 3483.5212 18
854.50031 1110.0298 3502.7683 18
865.1264 1097.1799 3462.2197 18
881.19855 1091.6725 3444.8406 18
901.83838 1091.9448 3445.7 18
920.83954 1090.265 3440.3992 18
938.86823 1087.5314 3431.7734 18
959.99756 1088.4293 3434.6067 15
979.25146 1087.2078 3430.7517 16
985.76013 1072.1732 3383.3096 16
0 0 0 0
998.06049 1043.1183 3291.6248 11
944.2356 967.94507 3054.4111 196615
919.97736 925.33887 2919.9646 458755
0 0 0 0
0 0 0 0
969.18866 922.7666 2911.8477 9533031
988.19659 924.40527 2917.0186 9664357
1002.9076 922.03699 2909.5454 9598306
1018.7848 920.80286 2905.6511 9860963
1036.5385 921.27765 2907.1492 9860965
1051.5828 919.36816 2901.1238 9400415
1070.4556 920.81342 2905.6843 9860708
1088.0378 921.12048 2906.6531 9926758
1114.5341 928.84668 2931.0337 9729379
1126.0717 924.06061 2915.9309 9926501
1138.7828 920.3678 2904.2778 9992294
1159.8834 923.46423 2914.0491 9399901
1172.4917 919.80774 2902.5107 9663586
1192.8535 922.25165 2910.2227 10058087
1206.1212 919.21918 2900.6536 9597793
1227.8456 922.6264 2911.4053 9860709
1231.699 912.69684 2880.0718 9005401
1250.907 914.26093 2885.0073 9860965
1269.2275 915.14307 2887.791 9860965
1277.5551 908.89233 2868.0664 9465950
1311.9395 921.09991 2906.5884 9465437
1321.8479 916.0296 2890.5886 9794659
1342.8584 918.68414 2898.9653 9662816
1361.5963 919.73663 2902.2864 9991781
1382.2109 922.01471 2909.4749 10057576
1390.7677 916.29236 2891.4177 9926247
1403.6327 913.51324 2882.6482 9597282
1413.1561 908.6524 2867.3093 9202523
1441.1749 915.65808 2889.4163 9465439
1448.9543 909.79114 2870.9028 9926247
1479.2969 918.06323 2897.0059 9860454
1505.4084 923.54974 2914.3191 9926504
1521.4937 922.83069 2912.0498 9728868
1535.2235 920.71509 2905.374 10123626
1556.2155 922.95337 2912.437 9992040
1559.1926 914.57574 2886.0007 10321005
1588.6989 921.77197 2908.7092 9465953
1599.2598 917.93976 2896.6162 9334367
1608.7208 913.56427 2882.8091 9136732
1640.9474 922.07306 2909.6589 9729126
1661.9374 924.15656 2916.2336 9728870
1679.6807 924.41028 2917.0344 9268576
1700.4974 926.33307 2923.1018 9926506
1712.3466 923.38135 2913.7874 9071197
1732.9574 925.16614 2919.4194 9071197
1751.16 925.64276 2920.9233 9136991
1776.8217 930.01398 2934.7173 8215890
1792.2391 928.99066 2931.488 9992301
1805.4321 926.84503 2924.7173 8150096
1817.5177 924.177 2916.2983 9071198
1830.8286 922.17645 2909.9854 9400162
1833.2874 914.79822 2886.7029 8676439
1859.2408 919.17157 2900.5034 9268576
1880.9014 921.362 2907.4153 9268576
1903.39 923.91461 2915.4702 9202783
1920.6714 923.91638 2915.4758 9663334
1941.5123 925.61505 2920.8362 9531491
1972.988 932.3092 2941.9597 9531748
1983.0706 928.86542 2931.0928 9663333
1992.9714 925.39716 2920.1484 8939609
2007.3601 924.05444 2915.9114 8873818
2037.2145 929.79333 2934.0208 8084301
2045.3243 925.59467 2920.772 8939610
2060.9895 924.85706 2918.4441 8873818
2067.7043 920.1485 2903.5862 9136733
2092.2324 923.37958 2913.782 9268319
2106.4734 922.05469 2909.6011 9136990
2119.915 920.40424 2904.3931 9136733
2142.5852 922.75494 2911.8108 9071194
2132.9695 911.27448 2875.5835 8939609
2151.2661 911.80652 2877.2625 8676180
2187.6343 919.92963 2902.8953 8939608
2206.9263 920.80103 2905.6453 9136731
2205.5613 913.10712 2881.3665 9465695
2228.9976 915.72015 2889.6121 9465696
2251.0903 917.74567 2896.0039 9399646
2258.627 913.85107 2883.7141 9070937
2275.5229 913.77325 2883.4688 9005144
2291.7112 913.41473 2882.3374 8873816
2313.4468 915.25604 2888.1477 8676437
2329.6577 914.90076 2887.0264 8479057
2342.4045 913.20001 2881.6597 8676183
2351.3511 910.0531 2871.7295 8479060
2382.5547 915.50372 2888.9292 8939611
2391.825 912.50885 2879.4788 9268319
2411.6414 913.55133 2882.7683 8149838
2427.4241 913.06195 2881.2241 8413267
2422.5334 904.85748 2855.3342 8215888
2452.1416 909.56335 2870.1841 8412754
2466.4905 908.58337 2867.0916 8216658
2480.9395 907.65338 2864.1567 8414037
2490.0657 904.80194 2855.1589 8019279
2502.0173 903.00867 2849.5002 7032384
2527.4473 906.07135 2859.1648 8216401
2533.8179 902.30603 2847.2832 8151124
2559.8643 905.55096 2857.5225 8282710
2607.1165 916.20532 2891.1433 7427401
2597.1814 906.75488 2861.3218 8085331
2602.1768 902.6059 2848.2292 8282710
2624.2698 904.40271 2853.8994 8085331
2635.96 902.61438 2848.2561 8282710
2651.6541 902.21112 2846.9836 8480088
2668.7915 902.3009 2847.2668 8545882
2678.1724 899.78351 2839.3232 8743261
2683.4946 895.94269 2827.2031 8677468
2694.5884 894.06445 2821.2761 9532777
0 0 0 0
0 0 0 0
0 0 0 0
0 0 0 0
0 0 0 0
-3835.8833 1367.2057 4235.104 12
-3756.1436 1347.6017 4174.3779 12
-3787.6626 1367.9191 4237.314 12
-3618.2075 1315.4413 4074.7568 12
-3721.2063 1361.9773 4218.9087 12
-3727.7463 1373.6 4254.9116 12
-3698.9861 1372.2849 4250.8379 12
-3558.1362 1329.0828 4117.0132 12
-3557.0977 1337.8685 4144.2285 12
-3472.0708 1314.9679 4073.2908 12
-3478.0442 1326.4521 4108.8647 12
-3507.8633 1347.2568 4173.3101 14
-3467.9419 1341.3817 4155.1108 14
-3443.6973 1341.5295 4155.5688 14
-3518.8801 1380.6915 4276.8784 14
