# .PCD v0.7 - Point Cloud Data file format
VERSION 0.7
FIELDS x y z rgb
SIZE 4 4 4 4
TYPE F F F U
COUNT 1 1 1 1
WIDTH 1417
HEIGHT 1
VIEWPOINT 0 0 0 1 0 0 0
POINTS 1417
DATA ascii
-1503.8933 1297.6317 3063.5405 18
-1486.1064 1297.9532 3064.2998 18
-1471.2034 1300.8328 3071.0979 18
-1443.7057 1292.5089 3051.4463 18
-1353.3888 1227.0201 2896.8357 18
-1329.9816 1221.2899 2883.3076 18
-1312.6732 1221.0844 2882.822 18
-1281.0789 1207.4084 2850.5352 18
-1339.1598 1279.015 3019.5891 18
-1245.6107 1205.7799 2846.6904 18
-1231.4158 1208.405 2852.8879 18
-1214.1796 1208.0774 2852.1143 18
-1183.4257 1194.1007 2819.1174 18
-1168.6554 1196.0825 2823.7961 18
-1149.9617 1194.0482 2818.9932 18
-1147.3168 1208.8635 2853.9705 18
-1189.7069 1272.2831 3003.6958 18
-1114.9733 1210.4736 2857.7715 18
-1091.5599 1203.3326 2840.9128 18
-1070.7159 1198.845 2830.3179 18
-1054.5767 1199.5658 2832.0198 18
-1028.8582 1189.2375 2807.636 18
-1011.5391 1188.4381 2805.7488 18
-998.65442 1192.9091 2816.304 18
-975.25146 1184.754 2797.051 18
-959.68835 1186.0057 2800.0061 18
-936.4751 1177.6808 2780.3521 18
-925.82526 1185.14 2797.9622 18
-909.71838 1185.7584 2799.4221 18
-884.42084 1174.198 2772.1294 18
-868.61603 1175.0411 2774.1201 17
-852.7077 1175.7744 2775.8513 16
-836.42932 1176.0161 2776.4219 17
-820.27655 1176.4475 2777.4404 17
-798.69153 1168.9463 2759.731 15
-782.22766 1168.7833 2759.3462 16
-815.91614 1245.1495 2939.637 17
-810.24097 1263.4655 2982.8787 18
-791.95605 1262.4967 2980.5916 18
-711.26935 1159.7365 2737.9878 18
-693.8432 1157.7338 2733.2598 18
-676.83246 1156.3451 2729.981 18
-656.79071 1149.583 2714.0168 18
-642.44843 1152.7079 2721.394 18
-623.34705 1147.2347 2708.4727 18
-608.7735 1150.0258 2715.062 18
-627.26349 1217.1238 2873.4719 18
-575.203 1147.2526 2708.5149 18
-557.85785 1144.5977 2702.2471 18
-574.11255 1212.7627 2863.1758 16
-524.51337 1141.7324 2695.4824 16
-543.28339 1219.7369 2879.6411 18
-518.38556 1201.5819 2836.7793 18
-500.60678 1199.2644 2831.3079 18
-486.57568 1206.0754 2847.3879 16
-467.3959 1200.1553 2833.4114 16
-444.1044 1182.8428 2792.5386 16
-405.12848 1120.7985 2646.0603 16
-413.21701 1189.2057 2807.5608 16
-389.54633 1168.1178 2757.7749 16
-356.05225 1114.4357 2631.0386 16
-339.30008 1110.6384 2622.0735 16
-322.28598 1105.578 2610.1267 16
-309.61624 1115.6617 2633.9331 16
-306.03241 1161.2943 2741.6658 16
-278.02759 1114.1785 2630.4312 16
-273.42868 1160.8345 2740.5798 16
-260.24417 1174.6313 2773.1526 16
-239.59122 1154.3066 2725.1685 16
-223.04504 1152.2596 2720.3359 16
-210.05602 1169.7017 2761.5142 16
-193.438 1168.1757 2757.9116 16
-178.24606 1175.7749 2775.8523 16
-151.95103 1104.2329 2606.9509 16
-136.44528 1103.7766 2605.8738 14
-119.92028 1093.9062 2582.5713 14
-105.02608 1098.2003 2592.709 14
-89.503349 1096.2678 2588.1465 14
-73.778938 1090.5549 2574.6589 14
-58.321831 1086.844 2565.8979 14
-43.273502 1090.8199 2575.2847 14
-27.753073 1080.744 2551.4968 14
-12.762923 1091.9143 2577.8684 16
2.5041294 1087.5947 2567.6704 16
17.685583 1085.4401 2562.5835 16
32.951611 1088.0688 2568.7898 16
48.264885 1090.1033 2573.5928 16
62.959835 1080.5488 2551.0359 16
78.652695 1088.5048 2569.8188 16
92.743324 1075.3025 2538.6501 15
106.50105 1062.4648 2508.342 18
121.14531 1060.5326 2503.7803 18
135.75549 1058.7565 2499.5869 18
151.1815 1063.0663 2509.762 18
164.77199 1054.8533 2490.3721 18
180.04845 1057.8967 2497.5574 18
195.88803 1063.5353 2510.8691 18
209.96599 1059.4885 2501.3152 18
224.62047 1058.6926 2499.4363 18
238.82083 1055.9874 2493.0496 18
253.64253 1056.1844 2493.5149 18
266.7785 1049.7271 2478.2695 18
280.88162 1047.5502 2473.1306 18
296.78088 1051.9561 2483.532 17
309.65817 1045.74 2468.8567 15
336.19131 1084.1212 2559.4697 16
340.02728 1049.1562 2476.9221 16
352.65286 1043.0831 2462.5845 16
368.74048 1047.326 2472.6013 16
380.69604 1039.957 2455.2039 16
397.09866 1044.8313 2466.7114 16
411.62061 1044.5869 2466.1345 16
432.4917 1059.9193 2502.3323 16
452.46555 1072.1091 2531.1108 16
468.07718 1073.5121 2534.4231 16
482.43472 1072.041 2530.9502 16
497.49829 1072.1802 2531.2788 16
504.09546 1054.5992 2489.7722 16
520.31647 1057.5791 2496.8074 18
547.07654 1081.2234 2552.6284 18
568.3869 1093.1143 2580.7012 18
570.7724 1068.9396 2523.6282 18
584.12164 1066.0082 2516.7073 18
578.87982 1030.1392 2432.0251 18
593.04303 1029.7059 2431.0024 17
637.35272 1080.3954 2550.6738 18
633.04523 1048.2333 2474.7429 15
637.77936 1032.1599 2436.7961 15
647.40979 1024.5472 2418.8235 15
659.02448 1020.3362 2408.8818 16
672.1911 1018.6558 2404.9146 18
686.59174 1018.8762 2405.4351 18
700.16827 1017.8897 2403.106 18
713.2984 1016.3066 2399.3684 18
727.62445 1016.4559 2399.7207 18
742.44958 1017.2833 2401.6743 17
761.99194 1024.4214 2418.5264 17
771.00415 1017.4006 2401.9512 17
784.46173 1016.394 2399.5747 17
798.54639 1016.2213 2399.167 15
812.35339 1015.7073 2397.9536 16
822.716 1010.9786 2386.7898 16
837.35974 1011.5816 2388.2134 16
847.37756 1006.6691 2376.6155 16
864.69135 1010.4429 2385.5249 16
882.2171 1014.339 2394.7231 16
889.70905 1006.7579 2376.8252 16
905.78723 1008.9775 2382.0654 16
914.08014 1002.5898 2366.9849 14
922.43933 996.46692 2352.5295 131085
938.013 998.20374 2356.6299 196617
908.50293 952.61676 2249.0049 393221
862.89081 891.70813 2105.2075 852228
877.58301 893.96582 2110.5376 3285022
881.43042 885.26801 2090.0032 6113344
895.21741 886.65576 2093.2795 8677728
914.12329 893.00623 2108.2722 9138017
924.79675 891.25183 2104.1301 8743258
932.80115 887.0058 2094.106 9861483
947.73633 889.37537 2099.7002 9335398
960.68915 889.84729 2100.8145 9071713
981.85547 897.81781 2119.6316 9400677
988.11688 892.12976 2106.2029 8677210
992.17358 884.61798 2088.4685 8677209
1008.5082 888.10333 2096.697 8216657
1006.7479 875.76331 2067.5637 9598311
1025.1116 881.01514 2079.9626 9532262
1034.173 878.24237 2073.4167 9269091
1054.1637 884.7074 2088.6797 10190194
1065.0559 883.47498 2085.77 8479576
1074.3087 880.92651 2079.7534 8742747
1097.8896 890.05145 2101.2964 8479576
1105.39 886.08173 2091.9243 9532265
1119.9218 887.77386 2095.9192 8479577
1128.3398 884.6355 2088.51 8611164
1126.8361 873.87091 2063.0962 9137507
1142.0956 876.19788 2068.5898 9203814
1162.9321 882.70862 2083.9609 8348250
1175.7083 883.02875 2084.7166 9861232
1185.1169 880.83929 2079.5476 9795696
1209.6576 889.82593 2100.7639 9400681
1209.7135 880.80206 2079.4597 8742751
1223.6078 881.93433 2082.1328 8940130
1242.0709 886.30426 2092.4497 8085078
1239.1163 875.45569 2066.8376 9993076
1249.3474 874.04431 2063.5056 8743008
1262.7723 874.87305 2065.4622 8940386
1271.578 872.5163 2059.8979 9071714
1285.0063 873.34613 2061.8572 9335399
1293.7144 870.9823 2056.2766 9137763
1308.2825 872.57117 2060.0276 9335399
1320.589 872.63617 2060.1812 9006434
1331.2449 871.61926 2057.7803 8809054
1345.001 872.63214 2060.1716 8874338
1350.7699 868.49133 2050.3958 8545629
1371.3073 873.83533 2063.0122 9071972
1382.8976 873.43402 2062.0647 8545629
1407.5261 881.20233 2080.4048 9466731
1415.7214 878.63696 2074.3481 11506060
1423.0477 875.58105 2067.1335 8940389
1432.552 873.90588 2063.1787 9400940
1441.7521 872.07507 2058.8564 9466731
1457.9417 874.46722 2064.5039 9204071
1468.674 873.57367 2062.3943 9139305
1474.8478 870.00568 2053.9709 8678499
1496.7788 875.71521 2067.4504 8414301
1510.6514 876.65558 2069.6704 8151386
1515.1971 872.21191 2059.1794 8611937
1513.8633 864.48175 2040.9294 9072488
1534.5951 869.37463 2052.481 8480351
1533.5104 861.92834 2034.9012 7822165
1555.4226 867.42316 2047.8738 6177596
1564.8855 865.94373 2044.3812 8545632
1586.5231 871.17249 2056.7256 8479839
1599.0905 871.37891 2057.2129 8216665
1609.646 870.49426 2055.1243 8611422
1618.6555 868.79297 2051.1077 8743008
1628.558 867.59277 2048.2744 9598317
1624.5439 859.05145 2028.1093 9795696
1626.0253 853.52008 2015.0504 8611933
1653.1959 861.45563 2033.7854 8875109
1667.4038 862.57062 2036.4176 8677729
1679.8951 862.78796 2036.9307 7690580
1694.5624 864.11163 2040.0558 8150875
1714.0162 867.84021 2048.8584 5585205
1731.5917 870.57202 2055.3079 7427153
1737.582 867.48169 2048.012 7624532
1744.8868 865.08594 2042.356 8283487
1754.0291 863.62805 2038.9141 8020314
1767.259 864.18872 2040.2379 8546401
1767.3899 858.38013 2026.5244 8480608
1768.0226 852.89191 2013.5675 7954007
1795.4596 860.32098 2031.1066 8217435
1811.6761 862.31042 2035.8033 7691092
1827.2562 863.97266 2039.7275 8217179
1831.9094 860.48041 2031.4829 8217695
1825.788 852.00586 2011.4755 8020316
1821.6716 844.57074 1993.9224 7428179
1843.8582 849.34766 2005.1998 7757144
1848.4865 846.02722 1997.3607 6309698
1862.8153 847.1604 2000.0363 7691351
1862.3551 841.59637 1986.9001 7559508
1881.2659 844.80084 1994.4655 7230800
1889.4697 843.18726 1990.656 7165007
1891.7797 838.97986 1980.7229 7033421
0 0 0 0
0 0 0 0
0 0 0 0
0 0 0 0
0 0 0 0
0 0 0 0
0 0 0 0
-3022.6104 1452.3236 3381.4385 18
-2968.4133 1435.8019 3342.9707 18
-2916.9355 1420.382 3307.0686 18
-2921.0725 1432.0178 3334.1606 18
-2874.9434 1419.0021 3303.8562 18
-2895.0942 1438.7465 3349.8269 18
-2859.3972 1430.8177 3331.3662 18
-2837.542 1429.7532 3328.8877 18
-2767.3372 1404.1411 3269.2554 18
-2783.2158 1422.1545 3311.1958 18
-2759.0366 1419.8098 3305.7366 18
-2740.0093 1420.1017 3306.4163 18
-2699.3247 1409.0924 3280.7832 18
-2677.4409 1407.8088 3277.7947 18
-2798.8828 1482.4183 3451.5078 18
-2639.479 1408.2825 3278.8975 18
-2624.5173 1410.6849 3284.4912 18
-2557.7517 1385.0706 3224.8535 18
-2575.6936 1405.2866 3271.9224 18
-2528.8716 1390.2064 3236.8113 18
-2487.9346 1378.1554 3208.7529 18
-2502.6838 1397.0032 3252.636 18
-2470.0715 1389.5009 3235.1685 18
0 0 0 0
-2432.0137 1389.6648 3235.55 18
-2423.1052 1395.5775 3249.3169 18
0 0 0 0
-2366.8445 1385.1902 3225.1321 18
0 0 0 0
-2325.1604 1383.1329 3220.342 18
-2284.2214 1370.0251 3189.8232 18
-2301.376 1391.8325 3240.5972 18
-2279.6543 1390.2974 3237.0227 18
-2305.9719 1418.2826 3302.1807 18
-2209.78 1370.7527 3191.5171 18
-2267.3503 1418.6061 3302.9341 18
-2227.915 1406.0714 3273.7495 18
-2202.8721 1402.4792 3265.386 18
-2199.1721 1412.5322 3288.7925 18
-2166.6497 1404.0865 3269.1284 18
-2137.5476 1397.7252 3254.3174 18
-2108.4158 1391.2284 3239.1907 18
-2077.3284 1383.3101 3220.7544 18
-1907.843 1282.2296 2985.4094 18
-2013.8143 1366.1198 3180.7302 18
-1974.2493 1351.9341 3147.7019 18
-1929.5167 1333.9055 3105.7261 18
-1898.4626 1325.077 3085.1707 18
-1871.5018 1318.9614 3070.9319 18
-1776.0876 1264.0088 2942.9858 18
-1819.8053 1307.9658 3045.3308 18
-1860.5569 1350.6501 3144.7126 18
-1786.9924 1310.3722 3050.9336 18
-1765.6285 1307.9399 3045.2705 18
-1655.0446 1238.6825 2884.0188 18
-1647.6071 1245.9832 2901.0168 18
-1631.6521 1246.9286 2903.218 18
-1603.8331 1238.7308 2884.1313 18
-1652.5072 1290.0729 3003.6707 18
-1626.4647 1283.5685 2988.5266 18
-1586.9357 1266.1603 2947.9951 18
-1546.5409 1247.6661 2904.9353 18
-1513.5518 1234.7975 2874.9731 18
-1477.5583 1219.1567 2838.5571 18
-1459.5845 1218.1953 2836.3184 18
-1443.0276 1218.4077 2836.8132 18
-1428.1178 1220.0326 2840.5962 18
-1408.4135 1217.551 2834.8186 18
-1382.5691 1209.6378 2816.394 18
-1363.0721 1207.1525 2810.6074 18
-1352.6154 1212.7107 2823.5486 18
-1345.8409 1221.751 2844.5972 18
-1382.0792 1270.5627 2958.2454 18
-1303.6653 1213.8734 2826.2559 18
-1292.2761 1218.929 2838.0269 18
-1268.1899 1211.9836 2821.856 18
-1304.8783 1263.71 2942.29 18
-1280.9421 1257.3302 2927.436 18
-1268.7589 1262.4698 2939.4028 18
-1258.8752 1270.0728 2957.1045 18
-1238.5759 1267.2339 2950.4946 18
-1215.7931 1261.736 2937.6941 18
-1194.849 1258.0145 2929.0293 18
-1139.4426 1217.3641 2834.3833 18
-1100.2961 1193.1292 2777.957 18
-1083.2136 1192.4469 2776.3687 18
-1065.478 1191.0135 2773.0315 18
-1043.7592 1185.0131 2759.0605 18
-1024.1783 1181.2875 2750.3862 18
-1010.2462 1184.062 2756.8462 18
-993.26465 1183.2949 2755.0601 18
-981.26648 1188.5382 2767.2681 18
-962.83435 1186.0343 2761.4382 18
-946.70673 1186.3317 2762.1306 18
-929.95129 1185.8389 2760.9832 18
-913.36621 1185.5496 2760.3096 18
-889.09155 1175.0865 2735.9485 18
-867.73395 1168.1619 2719.8257 18
-862.28918 1182.8029 2753.9143 18
-846.38916 1183.3904 2755.2822 18
-816.07556 1163.452 2708.8601 18
-802.68622 1167.3262 2717.8801 18
-787.39453 1168.5358 2720.6963 18
-761.24426 1153.3442 2685.3262 18
-749.99017 1160.5549 2702.1145 18
-735.49713 1162.9587 2707.7114 18
-718.63306 1161.6371 2704.6343 18
-701.75293 1160.2286 2701.355 18
-684.85004 1158.7159 2697.833 18
-668.00763 1157.2356 2694.3862 18
-683.57867 1213.21 2824.7112 18
-666.36993 1212.3569 2822.7251 18
-647.98462 1209.2642 2815.5242 18
-630.97626 1208.6456 2814.084 18
-621.4035 1222.6229 2846.6274 18
-608.8042 1231.2595 2866.7358 18
-584.87555 1216.8215 2833.1199 18
-571.35236 1223.8182 2849.4104 18
-557.11279 1229.6599 2863.0115 18
-538.82928 1226.6625 2856.0325 18
-513.43079 1206.7477 2809.665 18
-501.16882 1217.4086 2834.4868 18
-482.61636 1212.9983 2824.2183 16
-436.90073 1137.5472 2648.5459 16
-420.72302 1136.246 2645.5161 16
-402.62363 1129.453 2629.7002 16
-383.25781 1118.4174 2604.0061 16
-368.16769 1119.4565 2606.4255 16
-350.93524 1113.7876 2593.2266 16
-336.92035 1118.2787 2603.6831 16
-339.28192 1180.1653 2747.7734 16
-322.336 1177.7463 2742.1414 16
-304.9469 1173.3652 2731.9409 16
-289.04727 1174.5455 2734.689 16
-271.96191 1170.7614 2725.8784 16
-256.4025 1173.4834 2732.2158 16
-227.92033 1113.4417 2592.4211 16
-228.04747 1194.5852 2781.3472 16
-196.24396 1108.0781 2579.9333 16
-192.45656 1178.5098 2743.9189 16
-176.05722 1177.5847 2741.7651 16
-149.99118 1105.2406 2573.3267 16
-134.367 1102.1721 2566.1824 14
-119.08964 1101.5281 2564.6829 14
-105.01451 1113.4427 2592.4236 14
-88.725044 1101.9396 2565.6406 14
-72.759796 1090.5376 2539.0938 14
-60.540905 1143.9816 2663.5271 14
-42.096218 1075.99 2505.2224 14
-27.687859 1093.2897 2545.5012 14
-12.479965 1082.6447 2520.7166 16
2.4724228 1088.8479 2535.1594 16
17.410603 1083.5135 2522.7395 16
32.339161 1082.7858 2521.0452 16
47.332626 1084.0045 2523.8826 16
62.260841 1083.5024 2522.7136 16
77.830704 1092.1989 2542.9617 16
92.319031 1085.3589 2527.0361 15
111.13956 1124.2516 2617.5896 18
121.6757 1080.0786 2514.7422 18
136.70412 1081.0713 2517.0532 18
153.22841 1092.5343 2543.7427 18
166.12123 1078.3704 2510.7646 18
180.98843 1078.2981 2510.5964 18
194.79984 1072.4244 2496.9209 18
210.38103 1076.4353 2506.2595 18
227.64983 1087.9827 2533.145 18
240.54134 1078.4756 2511.0098 18
251.25671 1060.8881 2470.0605 18
265.49023 1059.2737 2466.302 18
279.02731 1055.194 2456.8035 17
293.6767 1055.517 2457.5554 17
307.16226 1051.8241 2448.9573 17
321.27814 1050.5255 2445.9336 17
336.2164 1051.9119 2449.1616 16
349.59244 1048.4982 2441.2134 16
365.27017 1051.9847 2449.3311 16
377.58524 1045.8903 2435.1414 16
392.36697 1046.8257 2437.3193 16
405.9855 1044.7012 2432.373 16
420.45862 1044.8462 2432.7107 16
460.08032 1105.4044 2573.708 16
466.28815 1084.3712 2524.7363 16
482.34775 1086.844 2530.4939 16
479.53787 1047.9323 2439.896 16
513.39417 1089.0796 2535.6992 16
506.68018 1044.2712 2431.3718 18
550.68036 1103.5728 2569.4434 18
563.79449 1099.4524 2559.8499 18
578.73657 1099.0192 2558.8411 18
583.12494 1079.0782 2512.4128 18
586.72327 1058.7048 2464.9775 18
602.97064 1061.5911 2471.6978 18
600.66418 1032.4495 2403.8472 17
614.58905 1031.9106 2402.5928 15
664.8681 1091.0538 2540.2957 16
656.47632 1053.4304 2452.6973 16
654.85657 1028.0686 2393.6472 16
668.05994 1026.5598 2390.1343 18
679.64764 1022.6824 2381.1069 18
692.37366 1020.6409 2376.3535 18
712.25507 1029.0184 2395.8589 18
718.95551 1018.3976 2371.1304 18
731.32495 1016.0602 2365.6882 15
744.8606 1015.4005 2364.1523 15
758.20685 1014.5118 2362.083 16
781.56689 1026.8112 2390.7197 16
792.31934 1022.4039 2380.4583 16
805.45471 1021.1719 2377.5898 16
814.50531 1014.8926 2362.9697 16
827.7251 1013.9326 2360.7346 16
839.89508 1011.7399 2355.6294 16
844.05823 1000.1317 2328.6018 16
865.7243 1009.3026 2349.9543 16
873.83441 1002.629 2334.4165 16
898.42474 1014.7781 2362.7031 16
903.15094 1004.4619 2338.6841 15
915.75745 1003.0895 2335.4885 65550
929.85895 1003.371 2336.144 131084
897.85004 954.61841 2222.6335 196617
903.39166 946.62305 2204.0181 393221
874.0332 902.80664 2102.0005 2298390
871.06879 887.1015 2065.4343 5586748
880.24304 884.02228 2058.2651 6901830
891.57703 883.16681 2056.2732 8875102
913.77448 892.95013 2079.0518 9138019
925.57758 892.45087 2077.8892 9795692
942.80127 897.12268 2088.7666 9401189
954.94965 896.90656 2088.2634 10255987
968.98969 898.44983 2091.8567 9729900
981.66815 898.70782 2092.4573 9664107
984.41467 889.9801 2072.1365 10387830
992.612 886.33453 2063.6487 9926766
998.89923 881.09302 2051.4448 8940381
1017.1248 886.38123 2063.7573 9269090
1022.3866 880.38074 2049.7864 9861227
1036.2554 881.84552 2053.1968 9269347
1065.0868 895.86169 2085.8306 11441031
1063.168 883.9884 2058.186 9335398
1074.6013 883.36053 2056.7241 9203812
1088.0194 884.3598 2059.0508 9927279
1107.4565 890.17511 2072.5906 8940128
1113.7986 885.45239 2061.5947 8676956
1129.9479 888.54425 2068.7935 8084821
1134.4537 882.51202 2054.7488 9335402
1147.0851 882.86188 2055.5632 9795439
1160.6007 883.87775 2057.9285 8940386
1168.8457 880.90027 2050.9961 8874850
1181.5002 881.27319 2051.8643 8809055
1196.9662 883.71405 2057.5474 9335142
1205.7319 881.20892 2051.7146 8940384
1223.4115 885.20349 2061.0151 8282198
1239.2061 887.76862 2066.9875 7624525
1248.7466 885.84686 2062.5132 8479577
1263.1932 887.40906 2066.1504 8808544
1264.0955 879.51752 2047.7766 8019026
1273.4437 877.59674 2043.3043 9203814
1286.4486 878.20825 2044.7281 9071973
1300.2662 879.35797 2047.4052 8479836
1305.202 874.53546 2036.1768 8677214
1321.9712 877.65729 2043.4453 8611675
1329.4269 874.59534 2036.3164 9861742
1337.7823 872.17523 2030.6815 9071971
1355.3632 875.75909 2039.0259 9137509
1372.6647 879.10077 2046.8063 8743010
1381.824 877.21503 2042.4156 8545374
1399.1715 880.51489 2050.0989 8282458
1406.1301 877.27643 2042.5587 8151129
1417.2119 876.64368 2041.0856 9401196
1433.097 878.9679 2046.4968 8611937
1438.5555 874.9115 2037.0524 9269867
1453.1877 876.45563 2040.6477 9138280
1459.0898 872.75238 2032.0254 10717311
1477.7449 876.67548 2041.1594 8414558
1480.1509 870.97333 2027.8832 9269867
1501.1801 876.23334 2040.1299 8611937
1493.3585 864.70367 2013.2856 8414557
1509.0309 866.85284 2018.2896 8743523
1515.0823 863.48492 2010.4479 8874852
1527.009 863.49194 2010.4642 8480351
1559.233 874.88757 2036.9968 8085592
1559.7542 868.45636 2022.0229 7427151
1571.6904 868.43073 2021.9631 8019029
1591.4872 872.71564 2031.9397 7690321
1599.2756 870.40082 2026.5502 8874594
1610.2347 869.83325 2025.2288 9137510
1613.4508 865.12231 2014.2604 9137766
1617.5378 860.94421 2004.5325 8940899
1632.4719 862.55829 2008.2904 8546143
1648.248 864.5907 2013.0225 6374464
1653.7379 861.23694 2005.214 6901578
1666.5571 861.72083 2006.3407 8217694
1695.0009 870.2196 2026.1283 8546658
1703.2766 868.31738 2021.6993 7296591
1717.4275 869.41577 2024.2567 7559763
1721.8555 865.61115 2015.3983 8283486
1723.6434 860.54077 2003.5931 8875623
1728.069 856.84766 1994.9944 8415072
1738.684 856.25281 1993.6095 7362384
1743.6624 852.90906 1985.8241 8743780
1767.5582 858.80133 1999.5433 8282715
1791.918 864.83917 2013.601 8743523
1791.0906 858.72125 1999.3567 6835783
1796.4437 855.6275 1992.1536 8480610
1810.0587 856.48346 1994.1465 9138797
1802.3755 847.31592 1972.8018 7822937
1826.4963 853.12146 1986.3188 8283231
1825.9469 847.40356 1973.0059 8020828
1843.0424 849.89508 1978.8068 7625814
1850.6099 847.98926 1974.3695 7296849
1861.8525 847.7807 1973.8839 6836556
1865.6768 844.21796 1965.5889 7362644
1874.8214 843.0921 1962.9673 7099215
0 0 0 0
0 0 0 0
0 0 0 0
0 0 0 0
0 0 0 0
0 0 0 0
0 0 0 0
-3362.3586 1637.8597 3761.52 18
-2996.2231 1469.2499 3374.2896 18
-2941.1453 1451.9316 3334.5164 18
-2946.3379 1464.3337 3362.999 18
-2903.9299 1453.0861 3337.1675 18
-2909.3906 1465.8011 3366.3689 18
-2841.3047 1441.3818 3310.2874 18
-2826.457 1443.8185 3315.8833 18
-2795.7974 1438.1554 3302.8774 18
-2784.1982 1442.2864 3312.3647 18
-2761.0183 1440.4342 3308.1111 18
-2731.7134 1435.3373 3296.4055 18
-2969.9568 1571.7588 3609.7119 18
-2696.4771 1437.381 3301.0991 18
-2650.9634 1423.4467 3269.0974 18
-2633.2449 1424.3418 3271.1533 18
-2792.0793 1521.4574 3494.1895 18
-2572.8835 1412.4889 3243.9319 18
-2557.1841 1414.4386 3248.4094 18
-2591.6804 1444.3929 3317.2029 18
-2515.3628 1412.5745 3244.1282 18
-2544.1458 1439.7424 3306.5225 18
-2534.1877 1445.2385 3319.1445 18
-2509.2747 1442.225 3312.2239 18
-2483.9324 1438.9152 3304.6226 18
-2460.8003 1436.8435 3299.8647 18
-2436.7097 1434.1746 3293.7351 18
-2350.7307 1394.7424 3203.175 18
-2333.1753 1395.5962 3205.1357 18
-2313.9739 1395.4713 3204.8489 18
-2295.1204 1395.5559 3205.0432 18
-2427.0459 1488.0886 3417.5544 18
-2565.7234 1586.3534 3643.2302 18
-2531.8953 1578.7228 3625.7058 18
-2488.9602 1565.2346 3594.7285 18
-2393.8218 1518.4009 3487.1699 18
-2344.908 1500.327 3445.6614 18
-2295.8608 1481.8496 3403.2261 18
-2244.4702 1461.5188 3356.5342 18
-2191.541 1439.8135 3306.6855 18
-2128.6699 1411.1259 3240.8013 18
-2079.8943 1391.3451 3195.3726 18
-2059.2334 1390.1809 3192.699 18
-2032.149 1384.6187 3179.9246 18
-2017.8925 1387.774 3187.1714 18
-1991.2419 1382.3849 3174.7947 18
-1931.1478 1353.4541 3108.3518 18
-1787.0894 1264.5524 2904.1794 18
-1808.0875 1291.8518 2966.8757 18
-1750.7488 1263.1675 2900.9993 18
-1851.8342 1349.3512 3098.9292 18
-1831.9001 1348.1963 3096.2769 18
-1829.5381 1360.0813 3123.572 18
-1784.1602 1339.9042 3077.2332 18
-1653.201 1254.3751 2880.8066 18
-1637.1943 1255.1921 2882.6829 18
-1718.0376 1331.0613 3056.9246 18
-1590.9158 1245.7085 2860.9026 18
-1586.5464 1255.6687 2883.7773 18
-1613.8622 1291.1962 2965.3699 18
-1526.4807 1234.7302 2835.6899 18
-1519.7148 1242.9409 2854.5466 18
-1498.6702 1239.5267 2846.7056 18
-1475.5763 1234.3207 2834.7493 18
-1460.3059 1235.6143 2837.7202 18
-1433.5449 1227.1023 2818.1714 18
-1423.9858 1233.288 2832.3774 18
-1403.4447 1229.9962 2824.8176 18
-1379.3857 1223.5048 2809.9094 18
-1355.3877 1216.9094 2794.7625 18
-1335.2012 1213.6151 2787.1968 18
-1283.5673 1181.2968 2712.9744 18
-1298.9481 1210.616 2780.3091 18
-1273.7001 1202.3362 2761.2935 18
-1341.2819 1282.6099 2945.6506 18
-1329.3973 1288.0084 2958.0488 18
-1213.9252 1191.8475 2737.2051 18
-1206.535 1200.6355 2757.3877 18
-1189.8149 1200.2529 2756.509 18
-1161.038 1187.5277 2727.2844 18
-1144.7736 1187.422 2727.0415 18
-1127.1675 1185.9016 2723.5498 18
-1108.7002 1183.418 2717.8457 18
-1093.6603 1184.5731 2720.4988 18
-1078.0934 1185.1837 2721.9011 18
-1062.7996 1186.1176 2724.0457 18
-1045.7677 1185.1105 2721.7329 18
-1031.9047 1187.7194 2727.7244 18
-1007.7206 1178.3425 2706.1897 18
-987.78931 1173.7158 2695.5637 18
-971.34711 1173.151 2694.2666 18
-951.57983 1168.4843 2683.5488 17
-934.33679 1166.8112 2679.7063 17
-918.00238 1166.2345 2678.3821 17
-901.11591 1164.9238 2675.3721 18
-929.88232 1223.6414 2810.2231 17
-911.99054 1221.9828 2806.4141 18
-904.42877 1234.3611 2834.842 18
-828.65881 1152.3556 2646.5078 18
-853.93762 1210.4182 2779.8547 18
-846.98633 1224.1819 2811.4644 18
-818.60394 1206.901 2771.7771 18
-769.53638 1157.7909 2658.9907 18
-788.53943 1211.183 2781.6111 18
-735.68964 1154.1338 2650.5916 18
-709.73114 1137.7021 2612.8547 18
-702.17767 1150.6989 2642.7029 18
-684.59045 1147.4707 2635.2891 18
-667.16394 1144.3673 2628.1619 18
-650.85175 1143.0728 2625.1887 18
-633.3819 1139.6317 2617.2861 18
-613.7467 1132.0242 2599.8145 18
-597.71936 1130.8506 2597.1191 18
-587.24048 1140.3898 2619.0271 18
-572.05554 1141.0599 2620.5662 18
-561.742 1151.7556 2645.1296 18
-562.10803 1185.5902 2722.8347 18
-528.91461 1148.55 2637.7678 18
-511.09854 1143.6627 2626.5435 18
-495.88159 1144.467 2628.3909 18
-479.51492 1142.584 2624.0662 18
-459.15869 1130.7499 2596.8877 18
-439.81543 1120.6759 2573.752 16
-453.89288 1198.0956 2751.5544 16
-410.24106 1123.2245 2579.605 16
-393.77695 1119.8777 2571.9189 16
-380.65689 1126.1545 2586.3342 16
-365.39874 1126.3674 2586.823 16
-360.15717 1158.8276 2661.3716 16
-354.81946 1193.9376 2742.0054 16
-335.26416 1182.2808 2715.2341 16
-320.92929 1188.786 2730.1743 16
-295.41647 1152.3784 2646.5603 16
-272.82297 1123.9146 2581.1899 16
-270.50107 1180.54 2711.2363 16
-255.29474 1184.5352 2720.4116 16
-224.85208 1113.609 2557.522 16
-205.98705 1093.9141 2512.2905 16
-190.65228 1091.3588 2506.4219 16
-177.30724 1100.7238 2527.9297 16
-170.23805 1154.3735 2651.1423 16
-155.43408 1161.1512 2666.708 16
-131.40392 1092.7391 2509.5923 15
-117.82953 1104.9106 2537.5454 14
-104.72852 1125.7319 2585.3635 14
-89.347542 1124.9818 2583.6411 14
-72.659584 1104.0621 2535.5967 14
-57.59972 1103.4227 2534.1282 14
-42.16333 1092.5754 2509.2163 14
-27.273388 1091.7832 2507.3967 15
-12.436578 1093.767 2511.9529 16
2.4535625 1095.4512 2515.8206 16
17.367962 1095.7736 2516.561 15
34.002659 1154.1921 2650.7256 16
46.357769 1076.3275 2471.9011 18
64.307022 1134.5529 2605.6218 18
80.326515 1142.7761 2624.5076 17
91.591301 1091.661 2507.1162 17
106.64261 1093.6465 2511.676 18
120.89684 1087.9725 2498.6453 18
135.88875 1089.4509 2502.0403 18
150.36453 1086.9076 2496.1995 18
162.07747 1066.6377 2449.6472 18
178.74973 1079.6547 2479.5422 18
195.67532 1092.1079 2508.1426 18
209.00404 1084.1453 2489.8555 18
232.96957 1128.7697 2592.3401 18
235.9071 1072.292 2462.6331 18
250.49562 1072.2679 2462.5781 18
262.0896 1060.1342 2434.7114 18
276.41406 1059.7347 2433.7942 18
290.6813 1059.1667 2432.4895 18
303.85474 1054.8549 2422.5869 18
319.24741 1058.2888 2430.4734 18
334.57071 1061.2063 2437.1736 18
346.73923 1054.29 2421.2896 17
360.44742 1052.4187 2416.9919 16
376.38342 1056.9465 2427.3906 16
387.64926 1048.5092 2408.0134 16
400.20801 1044.0439 2397.7585 16
413.84808 1042.609 2394.4631 16
428.72952 1044.2931 2398.3306 16
442.79437 1043.9437 2397.5283 16
457.26822 1044.5504 2398.9216 16
471.37244 1044.3015 2398.3501 16
498.14682 1071.3158 2460.3914 15
501.1217 1047.0658 2404.6987 18
546.19873 1109.6946 2548.5322 18
558.33234 1103.8239 2535.0496 18
565.94434 1089.5558 2502.2812 18
579.61755 1087.3873 2497.3013 18
592.80511 1084.4386 2490.5291 18
606.32928 1082.2338 2485.4656 18
623.08704 1085.7682 2493.5828 18
610.17188 1038.6301 2385.325 17
648.23969 1078.4442 2476.7625 16
639.19348 1039.8497 2388.126 16
647.60461 1030.7117 2367.1396 16
660.70044 1029.2593 2363.804 17
673.84692 1027.9446 2360.7844 18
721.13275 1077.703 2475.0601 18
700.89838 1026.5829 2357.6575 18
744.61993 1069.3046 2455.7722 18
726.28204 1022.9768 2349.3755 16
776.70435 1073.4197 2465.2229 16
764.03424 1036.4149 2380.2375 16
774.51917 1031.5922 2369.1616 16
786.0567 1028.3182 2361.6428 16
793.64874 1020.0876 2342.7402 16
807.77631 1020.3958 2343.448 16
822.77838 1021.7797 2346.6262 16
838.42169 1023.9006 2351.4971 16
850.25208 1021.3718 2345.6895 16
862.23163 1019.1007 2340.4736 16
873.16199 1015.6811 2332.6201 16
882.47113 1010.5116 2320.7478 15
898.20551 1012.7454 2325.8779 16
909.5603 1010.0482 2319.6836 65550
927.9162 1015.0901 2331.2629 65550
943.76031 1017.2767 2336.2847 131084
897.02222 952.91815 2188.4783 262152
872.04803 913.18475 2097.2263 721157
869.52972 897.75269 2061.7849 2759195
871.66431 887.4856 2038.2056 6113603
885.46375 889.2135 2042.1738 6901574
898.354 889.99408 2043.9664 9664365
913.59198 893.04877 2050.9819 9203556
926.81537 894.0799 2053.3501 9006434
939.5274 894.59735 2054.5383 8610906
952.03052 894.90515 2055.2454 9269093
962.6839 893.4884 2051.9917 9005921
974.26361 892.95605 2050.769 8479576
985.44489 892.07623 2048.7483 9400422
994.9762 889.74219 2043.3881 7690060
1008.5623 891.04669 2046.3839 10387573
1014.9034 885.99536 2034.7831 9598056
1032.2197 890.53149 2045.2007 9729643
1044.6066 890.75873 2045.7227 9465700
1054.9246 889.23688 2042.2277 9728873
1059.6112 883.05658 2028.0338 9334630
1082.5245 892.03418 2048.6519 9268836
1088.452 886.97107 2037.0238 10190195
1094.5593 882.16394 2025.9839 9006433
1112.1858 886.64429 2036.2733 8084820
1125.4307 887.57294 2038.4061 8743006
1135.924 886.33484 2035.5626 8216406
1135.2656 876.51288 2013.0055 8479579
1147.613 876.83215 2013.7388 9269352
1167.2852 882.68384 2027.1776 8677216
1182.2991 884.9295 2032.3351 8479836
1195.1769 885.5473 2033.754 8743007
1193.5927 875.54419 2010.7809 9400938
1221.2765 886.99597 2037.0811 9598317
1232.4708 886.36462 2035.6311 8743008
1245.057 886.73688 2036.486 6637632
1262.5801 890.58417 2045.3218 8348250
1270.0261 887.31799 2037.8206 7756114
1267.2963 877.07074 2014.2867 8545630
1278.3691 876.47821 2012.9259 7295563
1296.8729 880.9444 2023.1829 8480092
1307.1814 879.81274 2020.584 8217177
1327.7389 885.53717 2033.7308 8019541
1326.2036 876.5564 2013.1055 9335402
1346.3398 881.93195 2025.4509 8348507
1348.9298 875.82025 2011.4148 9466987
1363.0959 877.26569 2014.7344 8414299
1386.295 884.44916 2031.2321 9401195
1393.627 881.47284 2024.3965 9467244
1395.5573 875.16003 2009.8984 8875108
1406.5552 874.5921 2008.5942 9664368
1421.0337 876.17999 2012.2408 9269610
1432.4154 875.84772 2011.4779 9006438
1447.0206 877.47589 2015.217 8217179
1457.6371 876.67816 2013.3851 8940644
1470.0518 876.96631 2014.0469 8940644
1478.689 875.01447 2009.5642 9401453
1485.4572 871.99664 2002.6334 8019800
1495.9934 871.22101 2000.8523 8414301
1498.4973 865.81659 1988.4404 8546144
1511.9393 866.76721 1990.6234 7625299
1509.6892 858.77661 1972.2723 8282973
1540.5717 869.61133 1997.1554 8151901
1552.2244 869.50891 1996.9202 8217180
1563.0303 868.93732 1995.6073 8545887
1589.0885 876.78973 2013.6414 8875108
1591.7461 871.70996 2001.9751 9072230
1596.6666 867.93561 1993.3068 7164488
1601.795 864.32867 1985.0231 10914433
1621.5615 868.61554 1994.8684 8480348
1631.2159 867.46277 1992.2209 8348507
1642.6283 867.25482 1991.7434 7164234
1645.4966 862.57086 1980.9863 6506818
1665.9398 867.10101 1991.3901 8677988
1659.2395 857.53882 1969.4294 9073001
1676.9259 860.62592 1976.5194 7493714
1698.6422 865.724 1988.2277 8480867
1698.5585 859.7179 1974.434 7691351
1705.4084 857.27942 1968.8337 7757144
1715.1379 856.31171 1966.6113 8151902
1723.4282 854.64331 1962.7797 7230543
1732.8588 853.55908 1960.2896 7691350
1751.8125 857.1488 1968.5338 8349279
1766.9316 858.82727 1972.3885 8349022
1775.4363 857.28973 1968.8574 7954264
1779.0421 853.4223 1959.9756 8151129
1792.2998 854.20514 1961.7733 7624784
1813.6892 858.82837 1972.3912 7756887
1812.5875 852.81049 1958.5706 7691351
1822.7035 852.11353 1956.9697 8744039
1831.6281 850.87189 1954.1182 8414817
1838.6665 848.77515 1949.3027 7954523
1848.5746 848.021 1947.5709 8218207
1852.1559 844.39185 1939.2361 7231313
0 0 0 0
0 0 0 0
0 0 0 0
0 0 0 0
0 0 0 0
0 0 0 0
0 0 0 0
-2954.8965 1458.9685 3305.686 18
-2889.1748 1436.0393 3253.7336 18
-2858.8359 1430.5067 3241.1982 18
0 0 0 0
-2783.3875 1411.7241 3198.6411 18
-2760.4365 1409.6838 3194.0186 18
-2755.4231 1416.839 3210.2302 18
-2748.9106 1423.3174 3224.9089 18
-2740.6697 1428.9854 3237.7512 18
-2714.3022 1425.2153 3229.2092 18
-2696.0161 1425.6653 3230.2288 18
-2605.4844 1387.6445 3144.0825 18
0 0 0 0
-2585.3938 1396.9243 3165.1082 18
-2567.7629 1397.5372 3166.4968 18
-2548.0994 1397.0448 3165.3811 18
-2578.8982 1424.4171 3227.4006 18
-2567.0725 1428.4797 3236.6055 18
0 0 0 0
-2498.5076 1411.4177 3197.947 18
-2381.74 1355.7386 3071.791 18
-2500.1035 1434.0748 3249.2827 18
-2496.0657 1442.8716 3269.2144 18
-2417.5598 1408.4226 3191.1609 18
-2489.9958 1462.0596 3312.6897 18
-2465.033 1458.9043 3305.5408 18
-2441.1191 1456.3243 3299.6951 18
-2419.1187 1454.8534 3296.3623 18
-2348.8911 1424.1189 3226.7249 18
-2315.1543 1415.1854 3206.4839 18
-2290.8499 1411.9176 3199.0796 18
-2268.5208 1409.8228 3194.3333 18
-2167.6331 1358.46 3077.9568 18
-2238.0659 1414.5034 3204.9385 18
-2209.8438 1408.6206 3191.6094 18
-2177.9778 1400.2935 3172.7419 18
0 0 0 0
-2120.9155 1387.5637 3143.8994 18
-2226.1631 1469.3271 3329.1565 18
-2144.4348 1428.0402 3235.6096 18
-2164.5193 1454.4202 3295.3806 18
-2063.4304 1399.1182 3170.0791 18
-1896.2412 1297.5686 2939.991 18
-1870.5371 1291.8494 2927.0327 18
-1850.4852 1289.9633 2922.7593 18
-1957.5435 1377.4865 3121.0667 18
-1905.1606 1353.4137 3066.5232 18
-1864.3671 1337.1893 3029.7625 18
-1778.5829 1288.0668 2918.4622 18
-1794.7375 1312.5294 2973.8889 18
-1771.666 1308.506 2964.7727 18
-1911.9794 1426.2823 3231.627 18
-1811.9393 1365.3312 3093.5256 18
-1658.3337 1262.3588 2860.2139 18
-1702.5851 1309.428 2966.8616 18
-1613.8684 1254.1488 2841.6118 18
-1613.6807 1267.2257 2871.2412 18
-1623.6224 1288.621 2919.718 18
-1557.3422 1249.3304 2830.6946 18
-1543.1532 1251.4277 2835.4465 18
-1550.5638 1271.2805 2880.4285 18
-1567.588 1299.5449 2944.469 18
-1475.5392 1237.0052 2802.7686 18
-1479.7418 1254.6519 2842.7517 18
-1431.2848 1227.5413 2781.3254 18
-1428.1204 1239.0968 2807.5076 18
-1488.5935 1306.7902 2960.8853 18
-1366.0049 1213.4773 2749.4597 18
-1359.7235 1222.4792 2769.856 18
-1431.4749 1302.7148 2951.6514 18
-1406.6897 1295.9957 2936.4272 18
-1385.0125 1292.0074 2927.3909 18
-1364.9432 1289.437 2921.5669 18
-1346.5179 1288.3737 2919.1575 18
-1330.7794 1289.8867 2922.5857 18
-1315.5831 1291.972 2927.3108 18
-1297.9362 1291.6744 2926.6365 18
-1280.6139 1291.6963 2926.6858 18
-1264.2335 1292.6818 2928.9187 18
-1230.1002 1275.2896 2889.512 18
-1200.9271 1262.6213 2860.8086 18
-1124.1554 1198.8298 2716.272 18
-1116.4915 1207.954 2736.9451 18
-1097.3687 1204.7667 2729.7236 18
-1078.0547 1201.2711 2721.8032 18
-1062.8936 1202.3672 2724.2866 18
-1045.4141 1200.834 2720.8127 17
-1023.7791 1194.4047 2706.2454 16
-1004.7949 1190.9125 2698.333 16
-1030.6665 1241.3314 2812.5708 16
-952.77039 1166.3762 2642.7395 16
-955.20575 1188.9006 2693.7744 16
-916.94226 1160.6735 2629.8184 16
-921.88861 1187.1113 2689.7205 15
-901.56183 1181.363 2676.696 15
-870.0921 1160.546 2629.5295 15
-858.88562 1166.4901 2642.9976 17
-836.8255 1157.6405 2622.9463 18
-835.63428 1177.8717 2668.7856 18
-822.58209 1181.8424 2677.7822 18
-807.38513 1182.8271 2680.0134 18
-787.3595 1176.6351 2665.9839 18
-809.76141 1234.8921 2797.9807 18
-792.75537 1234.2312 2796.4832 18
-774.28046 1231.2062 2789.6292 18
-755.54694 1227.6289 2781.5239 18
-729.62988 1211.96 2746.0217 18
-722.10144 1226.8174 2779.6853 18
-670.93506 1166.4989 2643.0176 18
-649.54077 1156.2964 2619.9009 18
-633.79144 1155.8892 2618.9783 18
-616.42102 1152.4309 2611.1428 18
-602.7771 1155.9408 2619.0952 18
-583.27032 1148.0959 2601.3206 18
-566.7243 1145.8113 2596.144 18
-552.51306 1148.2512 2601.6724 18
-536.27234 1146.4926 2597.6875 18
-551.87341 1214.7161 2752.2664 18
-533.46362 1209.9546 2741.478 18
-490.07529 1146.4604 2597.6147 18
-495.97845 1197.8978 2714.1602 18
-484.18649 1208.6133 2738.4387 18
-468.50583 1210.0283 2741.645 16
-450.6138 1205.6285 2731.6763 16
-432.52545 1200.3561 2719.73 16
-409.32785 1179.9471 2673.4883 16
-374.52475 1123.0933 2544.6702 16
-361.69495 1130.1248 2560.6021 16
-362.78275 1183.1625 2680.7732 16
-340.95261 1162.8916 2634.844 16
-324.18747 1158.7793 2625.5266 16
-296.18933 1112.0767 2519.7092 16
-296.92572 1174.03 2660.0813 16
-264.70154 1105.2991 2504.3528 16
-251.90337 1114.3374 2524.8315 16
-248.36533 1168.0677 2646.572 16
-219.22063 1100.4952 2493.4685 16
-219.91151 1183.7561 2682.1182 16
-202.21912 1173.3258 2658.4858 16
-176.06816 1107.908 2510.2639 16
-170.2196 1169.9581 2650.8552 16
-154.61386 1170.744 2652.6357 16
-129.45599 1091.1924 2472.3901 16
-115.95025 1102.0864 2497.0737 14
-100.98543 1100.2709 2492.9602 14
-85.54792 1091.8007 2473.7683 14
-70.34314 1083.4111 2454.7598 14
-56.445438 1096.0273 2483.345 14
-41.824986 1098.5588 2489.0808 14
-27.084097 1098.9619 2489.9941 13
-12.628022 1125.7197 2550.6211 16
2.3998959 1086.0735 2460.792 15
16.889505 1080.0897 2447.2341 17
31.392164 1080.0837 2447.2207 18
46.497215 1094.2582 2479.3367 18
64.141701 1147.038 2598.9233 18
74.897133 1080.0364 2447.1133 17
89.728798 1084.0177 2456.134 15
103.8821 1079.8362 2446.6597 18
119.85565 1093.2826 2477.1262 18
134.52209 1093.1726 2476.877 18
151.44229 1109.5972 2514.0913 18
166.44403 1110.2822 2515.6436 18
177.42668 1086.2489 2461.1895 18
190.47655 1077.5613 2441.5054 18
204.40361 1074.7125 2435.0508 18
215.77422 1059.6846 2401.0007 18
230.77301 1063.2319 2409.0383 18
244.3611 1060.2452 2402.271 18
258.91406 1061.5431 2405.2119 18
271.71585 1055.9006 2392.4272 18
285.83685 1055.6899 2391.9497 18
298.84247 1051.5745 2382.625 18
312.5791 1050.2863 2379.7065 18
333.93021 1073.5902 2432.5078 17
340.00378 1047.8805 2374.2556 16
355.28479 1051.4635 2382.3738 16
368.55328 1049.0442 2376.8921 16
381.45978 1045.8105 2369.5654 16
395.98123 1047.0769 2372.4346 16
409.39731 1045.4337 2368.7117 16
423.12518 1044.6693 2366.9797 16
439.0498 1049.2035 2377.2532 16
452.86954 1048.5822 2375.8452 16
459.08252 1030.9165 2335.8188 16
472.72339 1030.4768 2334.8228 18
491.49564 1040.9298 2358.5068 18
531.97766 1095.5121 2482.1777 18
515.35999 1032.7344 2339.938 18
558.98285 1090.8 2471.5015 18
555.00616 1055.3865 2391.2622 18
572.32745 1061.2277 2404.4971 18
588.73853 1065.1381 2413.3572 18
597.28033 1054.9639 2390.3049 18
642.22986 1108.0775 2510.6479 17
654.79199 1104.1713 2501.7974 16
647.44342 1067.606 2418.949 16
644.27905 1039.375 2354.9841 16
652.39154 1030.1477 2334.0771 18
664.35687 1027.2611 2327.5366 18
678.50647 1027.8004 2328.7588 18
691.01251 1025.8784 2324.4038 18
728.7959 1060.8247 2403.5842 18
751.59045 1073.0321 2431.2432 16
764.83466 1071.4016 2427.5491 16
777.59814 1069.1705 2422.4939 16
769.11011 1038.3298 2352.616 16
776.6568 1029.8495 2333.4014 16
787.94086 1026.535 2325.8916 16
800.40582 1024.8464 2322.0657 16
811.0647 1020.9415 2313.2178 16
821.94104 1017.4356 2305.2744 16
840.12372 1022.9404 2317.7471 17
850.84467 1019.329 2309.5645 17
863.41998 1018.0183 2306.5947 18
876.1861 1016.97 2304.2192 18
890.4024 1017.6112 2305.6721 16
904.18262 1017.742 2305.9688 14
912.84039 1012.1891 2293.387 15
923.57166 1009.0645 2286.3074 65549
945.04565 1017.5978 2305.6418 196619
881.44971 935.59247 2119.8367 393223
857.97241 897.8764 2034.3809 786436
867.3053 895.06592 2028.0129 3547682
873.66846 889.30951 2014.9701 6375747
884.29761 887.99194 2011.9849 7954262
892.67145 884.47491 2004.0161 9137509
914.77722 894.47754 2026.6797 8414040
936.69922 904.04333 2048.3538 9203813
934.06158 889.96436 2016.454 7756110
955.23944 898.64563 2036.1237 9927536
970.50787 901.6203 2042.8635 10322550
979.82465 899.06055 2037.0637 8414041
989.90161 897.25214 2032.9663 8742749
997.57574 893.33551 2024.0922 9992815
1009.7653 893.50751 2024.4818 9203042
1020.7315 892.60565 2022.4385 9005663
1037.3813 896.63715 2031.573 9598057
1038.963 887.7019 2011.3279 9203300
1051.9292 888.58606 2013.3309 9400425
1067.8837 891.94629 2020.9446 9532267
1078.0293 890.4339 2017.5178 8940130
1096.1573 895.47583 2028.9417 8282199
1097.595 886.92145 2009.5594 8348250
1109.1383 886.62909 2008.897 9269352
1119.3546 885.2934 2005.8706 8348250
0 0 0 0
1146.6986 888.0578 2012.134 8348249
1162.361 890.92291 2018.6259 8874849
1172.022 889.17651 2014.6689 9598314
1172.4996 880.56873 1995.1655 8677212
1192.9203 886.96057 2009.6481 9071974
1200.1423 883.50989 2001.8295 9006180
1213.0338 884.25934 2003.5277 8742751
1233.1505 890.21021 2017.011 8611678
1254.1141 896.65234 2031.6074 10125174
1258.1742 891.00134 2018.8035 8545628
1267.5618 889.19415 2014.7087 8611935
1265.9233 879.758 1993.3287 10256248
1275.7489 878.38971 1990.2284 6769733
1289.1123 879.46002 1992.6536 7559248
1301.5598 879.89172 1993.6317 8414301
1320.3738 884.58087 2004.2562 7361613
1324.9645 879.74255 1993.2937 8677729
1336.066 879.2746 1992.2333 8875107
1353.6923 883.07104 2000.8353 9598573
1370.2533 886.11279 2007.7272 9006695
1388.3096 890.06085 2016.6725 9204073
1381.7849 878.31677 1990.0632 9138281
1389.9811 876.0495 1984.9261 7954263
1402.4729 876.50488 1985.958 7756627
1412.5 875.42529 1983.5117 8546143
1434.7362 881.86774 1998.1089 9533039
1448.5917 883.09558 2000.891 8217693
1459.4113 882.46796 1999.4688 9006438
1464.6421 878.49817 1990.4742 11506829
1473.4801 876.73816 1986.4865 7690835
1480.6649 874.03015 1980.3507 8414557
1478.5865 865.93976 1962.0197 8677729
1496.2793 869.46417 1970.0054 9006695
1505.0886 867.81213 1966.2621 7296592
1521.6619 870.62756 1972.6412 7691351
1529.7417 868.57758 1967.9965 8677989
1559.592 878.82623 1991.2175 7099214
1582.7653 885.18671 2005.6289 8941161
1584.6484 879.63434 1993.0485 8151903
1595.3866 879.04297 1991.7086 7822425
1584.7156 866.75073 1963.8573 7954524
1609.6858 873.9895 1980.2587 8480098
1615.2083 870.64062 1972.6708 8677476
1630.5861 872.61389 1977.1417 8874854
1638.7913 870.74792 1972.9139 9072232
1641.7969 866.16522 1962.5305 7558739
1656.1605 867.59705 1965.7748 7822163
1662.6162 864.89514 1959.653 8612451
1670.2087 862.81812 1954.9469 7165004
1669.3907 856.45477 1940.5289 8020314
1700.16 866.27295 1962.7747 8744037
1709.1373 864.9295 1959.7308 6638660
1713.261 861.16461 1951.2004 6967112
1719.2368 858.37506 1944.8798 8677730
1721.0048 853.53552 1933.9147 8349021
1739.8468 857.17212 1942.1542 8414815
1749.447 856.23761 1940.037 7625556
1770.9249 861.09064 1951.0328 8086107
1784.9369 862.27405 1953.7141 8020314
1792.1238 860.16644 1948.9387 8151900
1801.1351 858.95581 1946.1957 7757142
1801.4486 853.6391 1934.1492 9533296
1807.4269 851.05688 1928.2986 8547171
1827.8866 855.28314 1937.8743 9205102
1835.6881 853.57062 1933.9941 7033677
1838.9576 849.78528 1925.4174 7625814
0 0 0 0
0 0 0 0
0 0 0 0
0 0 0 0
0 0 0 0
0 0 0 0
0 0 0 0
0 0 0 0
0 0 0 0
-2843.3994 1441.8871 3223.6975 18
-2819.8188 1439.6017 3218.5881 18
-2803.1038 1440.8143 3221.2991 18
0 0 0 0
0 0 0 0
-2748.9263 1442.437 3224.9272 18
-2731.2925 1443.218 3226.6731 18
-3526.7214 1876.6622 4195.7456 18
0 0 0 0
0 0 0 0
-2670.627 1451.8195 3245.9038 18
-3402.8269 1863.2823 4165.8315 18
0 0 0 0
-2592.4756 1440.4604 3220.5078 18
-2531.0974 1416.7869 3167.5796 18
-2557.7964 1442.4293 3224.9099 18
-2499.2729 1420.0364 3174.8447 18
-2522.2847 1443.9814 3228.3801 18
-2501.9661 1443.297 3226.8499 18
-2482.0635 1442.8439 3225.8367 18
-2453.2375 1437.1561 3213.1204 18
-2431.2229 1435.4009 3209.196 18
-2408.7083 1433.3204 3204.5447 18
-2388.2852 1432.4614 3202.624 18
-2365.2031 1429.981 3197.0786 18
-2343.7366 1428.4452 3193.6448 18
-2323.3708 1427.5607 3191.6672 18
-2301.1548 1425.5155 3187.0947 18
-2278.8435 1423.3768 3182.3132 18
-2256.6863 1421.2996 3177.6689 18
-2234.5483 1419.1996 3172.9741 18
-2211.6877 1416.6012 3167.1646 18
-2184.8618 1411.3967 3155.5288 18
-2162.1904 1408.8091 3149.7437 18
-2130.4988 1400.2483 3130.6038 18
-2091.2754 1386.5433 3099.9629 18
-2058.3806 1376.8286 3078.2432 18
-2027.9865 1368.6277 3059.908 18
-2118.2793 1442.4615 3224.9819 18
-2083.5513 1431.731 3200.991 18
-2048.9082 1420.8619 3176.6907 18
-2026.8715 1418.6144 3171.6658 18
-1983.2615 1401.0846 3132.4734 18
-1939.8145 1383.3395 3092.7998 18
-1899.6254 1367.6014 3057.6135 18
-1864.3671 1355.1443 3029.7625 18
-1838.4121 1349.2728 3016.6353 18
-1813.2756 1343.8927 3004.6067 18
-1795.2913 1343.7592 3004.3081 18
-1811.9558 1369.817 3062.5671 18
-1790.1395 1367.017 3056.3069 18
-1755.2513 1354.0753 3027.3726 18
-1727.8198 1346.6782 3010.8345 18
-1692.4255 1332.8557 2979.9309 18
-1649.3666 1312.6418 2934.7378 18
-1625.0155 1307.0444 2922.2231 18
-1603.5168 1303.6453 2914.6235 18
-1579.8185 1298.3644 2902.8169 18
-1548.5215 1286.6534 2876.6343 18
-1561.8551 1312.1781 2933.7009 18
-1496.9142 1271.7751 2843.3701 18
-1533.2356 1317.4642 2945.5193 18
-1512.3445 1314.4784 2938.8438 18
-1496.1373 1315.5415 2941.2205 18
-1479.4358 1316.1897 2942.6699 18
-1371.3768 1234.6074 2760.2722 18
-1445.9784 1317.4839 2945.5632 18
-1422.1338 1311.592 2932.3904 18
-1334.5588 1246.0505 2785.8562 18
-1390.4928 1314.5367 2938.9741 18
-1307.2305 1251.4985 2798.0366 18
-1345.4785 1304.6653 2916.9041 18
-1235.333 1213.4508 2712.9714 18
-1229.6201 1223.7662 2736.0342 18
-1207.7994 1218.1121 2723.3928 18
-1182.9343 1209.1926 2703.4512 18
-1158.9027 1200.892 2684.8931 18
-1139.7646 1197.5017 2677.3132 18
-1116.5161 1189.6362 2659.7278 18
-1107.0498 1196.4402 2674.9399 18
-1095.4537 1201.1069 2685.3735 18
-1074.9573 1196.0085 2673.9749 17
-1057.1699 1193.8169 2669.075 18
-1042.1743 1194.7592 2671.1814 16
-1027.0221 1195.5481 2672.9456 16
-1011.5652 1196.0017 2673.9595 16
-996.65527 1197.1266 2676.4744 16
-981.75073 1198.2944 2679.0854 16
-966.54437 1199.1262 2680.9451 16
-947.05774 1194.5868 2670.7961 16
-929.01599 1191.7465 2664.446 16
-900.72015 1175.4268 2627.9592 18
-885.07159 1175.3275 2627.7373 17
-869.24609 1174.9857 2626.9729 18
-860.37506 1184.2031 2647.5811 18
-853.89716 1197.1182 2676.4558 18
-821.45319 1173.4302 2623.4951 18
-805.51898 1172.8668 2622.2358 18
-786.14191 1167.1699 2609.499 18
-770.52826 1166.944 2608.9939 18
-756.68018 1169.4374 2614.5686 18
-734.49628 1158.8828 2590.9712 18
-716.4693 1154.5765 2581.3433 18
-706.90503 1164.0172 2602.4502 18
-716.31067 1205.8124 2695.8938 18
-707.96301 1218.9474 2725.2603 18
-691.10193 1217.6952 2722.4609 18
-673.14081 1214.3988 2715.0908 18
-654.04999 1208.8529 2702.6917 18
-638.76685 1210.2428 2705.7991 18
-628.56915 1221.5875 2731.1631 17
-604.94434 1206.7474 2697.9844 17
-586.64954 1202.0226 2687.4209 17
-548.58972 1155.4061 2583.198 18
-552.89227 1197.8956 2678.1938 18
-530.75482 1183.9187 2646.9451 18
-516.42297 1187.0322 2653.906 18
-506.24075 1200.179 2683.2988 16
-483.90509 1184.4312 2648.0906 16
-466.30569 1179.6089 2637.3096 15
-449.7157 1177.0942 2631.6873 16
-436.97113 1184.8256 2648.9727 16
-420.0051 1181.2604 2641.0015 16
-403.30591 1178.1986 2634.1562 16
-392.71634 1193.4575 2668.2712 16
-354.55035 1122.6764 2510.0225 16
-339.27884 1121.3655 2507.0918 16
-326.57858 1128.8223 2523.7632 15
-319.022 1155.6273 2583.6926 16
-295.86227 1125.7645 2516.9268 16
-277.314 1111.2092 2484.385 16
-264.25864 1118.2662 2500.1626 16
-246.19046 1103.6887 2467.5708 16
-231.79971 1104.7972 2470.0493 16
-216.44456 1101.149 2461.8928 16
-202.01111 1102.0015 2463.7986 16
-186.89252 1098.9579 2456.9939 16
-170.49121 1087.2201 2430.7512 16
-157.36234 1096.1101 2450.627 16
-143.64371 1102.2822 2464.4263 16
-128.86096 1100.7615 2461.0261 16
-114.30991 1101.0844 2461.748 16
-99.392181 1097.4526 2453.6287 14
-84.33567 1090.7816 2438.7139 14
-69.805496 1089.5668 2435.9978 14
-58.264675 1146.5435 2563.3833 13
-41.27256 1098.605 2456.2048 15
-26.714869 1098.5352 2456.0488 16
-12.112163 1094.2317 2446.4272 16
2.3835447 1093.1576 2444.0259 17
16.892157 1094.7644 2447.6184 18
31.403128 1094.9689 2448.0754 18
46.016743 1097.4921 2453.7168 18
60.77076 1101.3481 2462.3379 18
74.830528 1093.5652 2444.9373 18
94.185715 1153.1404 2578.1326 18
103.8891 1094.4093 2446.8245 18
119.0423 1100.4438 2460.3162 18
133.45656 1099.0759 2457.2581 18
147.49728 1095.2036 2448.6003 18
160.83958 1087.3036 2430.9377 18
175.72957 1090.3047 2437.6477 18
190.33664 1091.228 2439.7122 18
202.16907 1077.2367 2408.4307 18
217.61082 1083.0542 2421.4373 18
232.84422 1087.1792 2430.6597 18
251.27802 1104.8959 2470.2698 18
254.52803 1057.5728 2364.4673 18
267.06888 1051.7777 2351.511 18
278.27158 1041.549 2328.6418 18
296.65094 1057.879 2365.1521 18
309.55615 1054.0953 2356.6926 18
322.67126 1051.3221 2350.4924 16
336.2019 1050.0763 2347.707 16
349.86649 1049.3313 2346.0413 16
363.09158 1047.3754 2341.6682 16
379.28421 1053.8085 2356.0513 16
393.25021 1053.818 2356.0725 16
406.63425 1052.3207 2352.7251 16
420.14606 1051.2424 2350.3142 16
445.26813 1078.3511 2410.9224 16
458.70181 1076.3474 2406.4426 16
491.72626 1119.0481 2501.9106 15
506.56827 1119.0817 2501.9856 17
514.6546 1104.6133 2469.6379 18
522.11713 1089.6433 2436.1689 18
548.87103 1114.6562 2492.0916 18
555.3407 1098.2441 2455.3982 18
564.2077 1087.2898 2430.9072 18
576.34692 1083.0303 2421.3838 18
567.1759 1039.9056 2324.968 18
603.92572 1081.0247 2416.8997 18
634.92902 1110.1904 2482.1072 18
650.14941 1111.0636 2484.0593 18
653.55048 1092.1467 2441.7659 18
652.94623 1067.5011 2386.6646 18
648.45819 1037.6857 2320.0046 18
677.16711 1061.1283 2372.4165 18
688.43756 1056.8467 2362.844 18
692.19385 1041.4305 2328.3774 18
716.53882 1056.9882 2363.1602 18
720.28284 1042.1426 2329.9692 15
731.95013 1039.1038 2323.175 16
