# .PCD v0.7 - Point Cloud Data file format
VERSION 0.7
FIELDS x y z rgb
SIZE 4 4 4 4
TYPE F F F U
COUNT 1 1 1 1
WIDTH 1412
HEIGHT 1
VIEWPOINT 0 0 0 1 0 0 0
POINTS 1412
DATA ascii
698.23712 1133.923 2794.3323 14
711.81476 1129.1923 2782.6741 14
730.53766 1132.6531 2791.2026 14
747.28198 1132.9608 2791.9612 13
765.30634 1135.1541 2797.366 14
786.23431 1141.4697 2812.9297 14
791.41797 1125.1399 2772.688 14
806.82104 1123.7074 2769.158 15
826.94641 1128.7781 2781.6536 11
804.52252 1076.7061 2653.3323 12
863.15613 1133.0315 2792.1353 12
885.29663 1140.2361 2809.8896 12
891.45782 1126.9738 2777.207 12
904.91357 1123.2467 2768.0225 13
927.6369 1130.9512 2787.0088 14
941.39386 1127.6458 2778.8633 14
953.91901 1123.004 2767.4243 14
984.0849 1138.9355 2806.6846 14
998.78784 1136.7389 2801.2715 14
1008.6647 1129.2112 2782.7209 14
1025.3889 1129.4681 2783.354 14
997.38824 1081.2322 2664.4861 13
1031.8845 1101.1947 2713.6797 16
1039.58 1092.3822 2691.9631 16
1045.5079 1082.0071 2666.3955 16
1059.3773 1080.0372 2661.541 16
1070.9752 1075.8431 2651.2058 16
1093.1716 1082.2634 2667.0271 14
1093.4344 1067.0952 2629.6482 14
1113.7321 1071.6307 2640.8252 14
1116.6857 1059.5835 2611.137 14
1138.8265 1065.823 2626.5129 65548
1145.6255 1057.729 2606.5671 65548
1161.4752 1058.0959 2607.4712 65545
1056.3131 949.65967 2340.251 262146
1048.6726 930.57263 2293.2148 2233876
1076.6667 943.19098 2324.3103 5127733
1095.3967 947.47742 2334.8733 7955028
1106.1654 944.85657 2328.4148 8942177
1123.9308 948.20312 2336.6616 9138527
1137.9084 948.31152 2336.929 9664358
1142.6364 940.80145 2318.4219 9466979
1164.6628 947.54352 2335.0364 10717559
1182.687 950.90936 2343.3308 9335650
1189.2683 945.10352 2329.0234 8940380
1205.5653 947.06329 2333.853 8809051
1221.3435 948.57568 2337.5798 9927532
1236.2787 949.40674 2339.6279 8545365
1248.0869 947.84473 2335.7786 9466466
1266.7421 951.45966 2344.6868 9663334
1279.2781 950.44989 2342.1985 9334112
1293.0693 950.3844 2342.0371 9268317
1306.0311 949.71716 2340.3928 9466210
1308.2144 941.30835 2319.6709 10189933
1332.7439 948.98608 2338.5913 8611414
1346.234 948.7262 2337.9507 10058603
1354.3995 944.75739 2328.1704 9269087
1373.0216 948.08899 2336.3806 9334624
1382.7578 945.2796 2329.4573 9335137
1388.655 939.92725 2316.2673 9269089
1405.401 941.95087 2321.2542 9532004
1430.3579 949.38507 2339.5745 9203553
1446.1821 950.67322 2342.7488 8414036
1459.0404 950.00562 2341.1035 9927275
1495.1903 964.37323 2376.5098 9663847
1488.6296 951.18225 2344.0032 9598311
1511.0996 956.61304 2357.3865 9532518
1529.7714 959.56219 2364.6538 9400932
1553.6077 965.66766 2379.6997 9466725
1549.9674 954.73853 2352.7668 9006430
1567.4636 956.90759 2358.1123 9005404
1586.4688 959.95154 2365.6135 8544854
1588.4352 952.72247 2347.7988 9071453
1612.2739 958.62378 2362.3416 9269345
1631.5989 961.76294 2370.0771 9927019
1631.3209 953.39166 2349.448 9400932
1652.0027 957.30817 2359.0994 9466468
1654.246 950.5636 2342.4788 9597801
1678.6101 956.53687 2357.1985 9729643
1685.618 952.60266 2347.5037 9334628
1698.7942 952.19031 2346.4875 9466471
1713.4542 952.60962 2347.5208 9334886
1730.0718 954.10181 2351.198 9334885
1743.807 953.99316 2350.9302 9664363
1753.3976 951.6369 2345.1235 9138020
1772.8617 954.63422 2352.51 9401191
1788.2706 955.41815 2354.4419 9532777
1799.8317 954.15033 2351.3174 9138019
1810.392 952.37524 2346.9431 8677469
1826.8949 953.72968 2350.2808 8414297
1836.6298 951.55713 2344.927 9269092
1857.2274 955.00287 2353.4185 8611676
1886.2885 962.71674 2372.4277 8611676
1891.1589 958.06165 2360.9561 9006434
1908.0428 959.51617 2364.5405 9006434
1921.9048 959.44086 2364.355 9138020
1927.8016 955.41907 2354.4441 8676955
1943.3156 956.18719 2356.3369 8085075
1945.1207 950.24719 2341.699 8150612
1952.082 946.8924 2333.4316 7492938
1943.9463 936.31317 2307.3613 8413784
1975.3467 944.79163 2328.2549 8347734
1975.7269 938.41864 2312.5498 7821647
2020.3092 952.9837 2348.4426 8874335
2019.0117 945.85596 2330.8777 9005664
2041.4218 949.85596 2340.7349 8348760
2062.625 953.2442 2349.0845 9269606
2069.3652 949.94769 2340.9609 9598571
2093.7375 954.73535 2352.7593 8742749
2101.2019 951.80066 2345.5273 8808285
2108.2996 948.73962 2337.9839 8479833
2123.4619 949.32391 2339.4236 8743262
2122.7109 942.83258 2323.427 8677212
2138.3672 943.66528 2325.4792 8216918
2161.2307 947.64771 2335.293 7953746
2161.8691 941.89624 2321.1196 8348504
2173.6821 941.05524 2319.0471 8348503
2187.7495 941.1947 2319.3909 8019281
2204.3464 942.41382 2322.3953 8151123
2223.8398 944.84851 2328.395 8414297
0 0 0 0
0 0 0 0
0 0 0 0
0 0 0 0
0 0 0 0
0 0 0 0
0 0 0 0
0 0 0 0
-2334.6294 1082.5009 2629.2153 16
-2448.3152 1142.8409 2775.7715 16
-2436.1826 1144.87 2780.6995 16
-2431.8545 1150.619 2794.6631 16
-2419.0693 1152.4181 2799.0327 16
-2406.863 1154.5198 2804.1372 16
-2394.7493 1156.6953 2809.4214 16
-2384.6909 1159.9011 2817.2078 15
-2373.2336 1162.4669 2823.4397 15
-2362.1648 1165.2607 2830.2253 16
-2350.0215 1167.5605 2835.8113 16
-2344.9143 1173.4147 2850.0298 16
-2338.4016 1178.6451 2862.7336 18
-2335.0728 1185.5686 2879.5498 16
-2330.3618 1191.8871 2894.8962 16
-2321.1636 1195.9872 2904.855 16
-2306.6477 1197.3882 2908.2578 16
-2291.2847 1198.3673 2910.6357 16
-2275.8445 1199.3206 2912.9509 16
-2246.0945 1192.6897 2896.8457 16
-2233.3391 1195.0505 2902.5798 16
-2219.7131 1196.9786 2907.2627 16
-2208.3547 1200.1691 2915.0117 16
-2195.6968 1202.698 2921.1543 16
-2181.4736 1204.4031 2925.2954 16
-2164.9138 1204.835 2926.3447 16
-2152.9512 1207.853 2933.6748 16
-2058.6853 1164.3704 2828.0627 16
-2077.9885 1184.9346 2878.0098 16
-2041.3782 1173.6917 2850.7026 16
-2025.9326 1174.5312 2852.7419 16
-2010.1561 1175.1917 2854.3457 18
-1994.9172 1176.1801 2856.7466 18
-2130.656 1266.962 3077.2407 18
-2116.1116 1269.1764 3082.6191 18
-2099.8391 1270.3837 3085.5515 18
-2095.4031 1278.8363 3106.0815 18
-2080.7156 1281.1266 3111.6445 18
-2066.832 1283.9574 3118.5198 18
-2049.656 1284.7753 3120.5063 18
-2033.2717 1286.109 3123.7458 18
-2016.4617 1287.1954 3126.3845 18
-2000.0342 1288.5483 3129.6707 18
-1982.8761 1289.4518 3131.8647 18
-1965.5403 1290.2554 3133.8167 18
-1948.2396 1291.0977 3135.8625 18
-1931.0245 1292.0134 3138.0867 18
-1913.6337 1292.8284 3140.0659 18
-1896.542 1293.8632 3142.5793 18
-1878.4926 1294.2588 3143.5403 18
-1860.7604 1294.8832 3145.0566 18
-1842.5045 1295.1519 3145.7095 18
-1797.4117 1276.369 3100.0889 18
-1805.8868 1295.6301 3146.8711 18
-1787.3044 1295.6785 3146.9883 18
-1768.7365 1295.7384 3147.1338 18
-1750.3287 1295.9182 3147.5706 18
-1650.1339 1234.8956 2999.3569 18
-1616.7402 1223.0797 2970.6582 18
-1615.3872 1235.5098 3000.8484 18
-1594.4591 1233.078 2994.9424 18
-1595.1609 1247.5072 3029.9885 18
-1558.3287 1232.5773 2993.7261 18
-1558.3704 1246.8049 3028.2827 18
-1541.8119 1247.9282 3031.011 18
-1505.437 1232.8497 2994.3877 18
-1485.2947 1230.8634 2989.5632 18
-1466.4709 1229.9349 2987.3083 18
-1454.2429 1234.5833 2998.5984 18
-1438.5066 1236.3314 3002.8442 18
-1419.209 1235.0243 2999.6694 18
-1415.1375 1247.1019 3029.0042 18
-1459.9076 1303.0853 3164.9783 18
-1441.8198 1303.6898 3166.4465 18
-1424.1112 1304.6577 3168.7974 18
-1401.5564 1301.1522 3160.2832 18
-1329.7246 1251.1854 3038.9224 18
-1360.1042 1297.3416 3151.0276 18
-1350.3066 1305.9259 3171.8777 18
-1337.274 1311.5796 3185.6096 18
-1312.2832 1305.499 3170.8408 18
-1293.136 1305.1395 3169.9678 18
-1203.2701 1232.3423 2993.1555 18
-1184.7987 1231.5801 2991.304 18
-1171.2177 1235.9552 3001.9304 18
-1171.5129 1255.3346 3048.9998 18
-1193.1681 1298.5679 3154.0063 18
-1129.5507 1248.895 3033.3591 18
-1171.8929 1316.6652 3197.9617 15
-1077.6051 1230.6311 2988.999 15
-1043.2092 1211.2611 2941.9526 15
-1096.121 1294.328 3143.7085 15
-1037.9564 1246.8379 3028.3625 16
-1019.2863 1245.9535 3026.2146 16
-1053.6477 1311.0233 3184.2583 16
-1022.4047 1295.3477 3146.1851 16
-1004.5175 1296.3257 3148.5603 16
-995.23383 1308.6534 3178.5024 16
-986.2746 1321.8918 3210.6565 15
-967.48285 1322.2134 3211.4373 16
-942.39734 1313.7739 3190.9392 17
-873.93884 1243.2854 3019.7344 18
-848.79816 1232.7628 2994.1768 18
-833.71942 1236.7167 3003.7798 18
-819.68195 1242.4213 3017.6355 18
-845.74506 1310.5178 3183.0308 18
-831.65625 1318.0848 3201.4097 18
-815.67242 1322.9316 3213.1819 18
-792.14801 1315.488 3195.1025 18
-765.44653 1302.2745 3163.009 16
-749.58844 1307.3087 3175.2363 16
-727.39801 1301.274 3160.5791 16
-708.31812 1300.6321 3159.0198 16
-697.41974 1315.3862 3194.8552 16
-676.74945 1312.0188 3186.6763 16
-656.1507 1308.6008 3178.3748 16
-634.76453 1303.364 3165.6553 16
-615.73895 1302.8027 3164.2922 16
-595.94556 1300.5309 3158.7739 16
-576.58923 1299.0961 3155.2893 16
-557.04541 1297.1287 3150.5105 16
-537.48706 1294.9899 3145.3159 16
-517.83569 1292.4651 3139.1836 16
-498.17993 1289.7408 3132.5669 16
-478.21463 1285.9731 3123.4158 16
-459.14859 1284.4178 3119.6382 17
-439.04156 1279.6976 3108.1738 17
-417.8848 1271.3705 3087.9482 15
-398.28955 1267.2489 3077.9375 15
-379.53561 1265.5369 3073.7793 15
-359.47946 1259.0912 3058.124 16
-344.45618 1270.5249 3085.8945 16
-331.02249 1289.4325 3131.8181 16
-308.85721 1274.554 3095.6804 16
-287.82208 1262.7545 3067.0217 16
-268.87546 1259.145 3058.2546 16
-249.92007 1254.9696 3048.1133 16
-230.46184 1247.4216 3029.7808 16
-215.71622 1266.2617 3075.5398 16
-193.18022 1238.6288 3008.4243 16
-175.65636 1240.781 3013.6516 16
-158.10832 1243.2306 3019.6011 18
-132.14868 1171.722 2845.9189 18
-115.18389 1170.7131 2843.4683 18
-102.74287 1223.2167 2970.9907 18
-85.016678 1221.5001 2966.8215 18
-67.816109 1228.4095 2983.6033 18
-50.096169 1227.4668 2981.3137 18
-32.374077 1225.4158 2976.332 18
-14.721033 1224.1962 2973.3696 18
2.8950129 1222.1798 2968.4724 18
19.130646 1141.275 2771.968 18
35.392704 1135.9722 2759.0884 18
51.197655 1123.9856 2729.9749 18
67.037071 1118.3302 2716.239 18
83.091515 1117.7576 2714.8481 18
98.726768 1112.6465 2702.4341 18
115.21041 1117.189 2713.467 18
130.64224 1111.6686 2700.0588 18
146.71242 1112.192 2701.3303 18
162.33783 1109.5726 2694.968 18
177.19937 1102.6689 2678.2002 18
193.51674 1105.215 2684.384 18
209.44205 1105.3051 2684.603 18
224.57242 1101.4834 2675.3208 18
239.89615 1099.0518 2669.4146 18
255.22639 1096.9489 2664.3071 18
268.92865 1088.5017 2643.7903 18
283.81042 1085.4957 2636.4895 18
298.82788 1083.2955 2631.1455 18
314.86566 1084.8289 2634.8696 18
330.42426 1084.6444 2634.4216 18
345.14975 1081.8652 2627.6714 18
360.6084 1081.5248 2626.8447 17
376.04059 1081.1366 2625.9016 16
391.53601 1080.9537 2625.4575 16
407.40585 1081.7791 2627.4622 16
422.58652 1080.7809 2625.0378 14
437.80951 1079.9581 2623.0396 14
452.89862 1078.8729 2620.4038 14
468.41196 1078.8368 2620.3157 13
483.95007 1078.858 2620.3674 16
499.48584 1078.8729 2620.4038 16
516.27649 1081.5156 2626.8225 16
532.20148 1082.2435 2628.5901 16
548.72491 1084.1123 2633.1292 16
562.58331 1080.7578 2624.9819 16
580.90674 1085.9308 2637.5461 16
594.33099 1081.9144 2627.7908 16
610.21002 1082.4575 2629.1099 16
662.12286 1145.3027 2781.7507 16
673.83228 1137.2426 2762.1738 16
692.71454 1141.3832 2772.2307 16
704.92749 1134.5978 2755.75 15
723.15533 1137.5813 2762.9966 14
738.61633 1136.1766 2759.585 14
753.24872 1133.5859 2753.2925 13
768.13226 1131.4751 2748.1655 11
786.19653 1134.0398 2754.3948 11
794.89301 1123.2626 2728.2188 12
813.9574 1127.2739 2737.9617 12
828.61047 1125.1383 2732.7747 12
860.28955 1145.7606 2782.8628 12
868.03949 1134.3368 2755.1162 12
876.9024 1124.7625 2731.8618 12
896.86743 1129.5172 2743.4104 13
909.07141 1124.5024 2731.2302 14
920.85059 1119.1469 2718.2224 14
953.84918 1139.3209 2767.2217 14
979.11517 1149.7328 2792.5105 14
980.16382 1131.834 2749.0371 14
988.62183 1122.9363 2727.4263 14
1017.6642 1137.3297 2762.3857 14
1021.6797 1123.7406 2729.3799 14
1037.9183 1123.8097 2729.5476 16
1036.1179 1104.6444 2682.9983 16
1043.5051 1095.7058 2661.2878 16
1041.0063 1076.8074 2615.3867 16
1047.6958 1067.8281 2593.5776 16
1059.1663 1063.911 2584.0637 14
1062.9341 1052.4788 2556.2966 14
1095.589 1069.5687 2597.8052 14
1110.2976 1068.9077 2596.2 14
1121.3688 1064.8109 2586.2493 13
1136.1351 1064.286 2584.9746 14
1148.736 1061.7736 2578.8721 65547
1051.5404 959.17493 2329.677 131078
1057.8549 952.42987 2313.2944 590083
1071.0031 951.93134 2312.0835 3220771
1087.134 954.06311 2317.2612 5653821
1090.8877 945.41479 2296.2561 8349787
1111.5302 951.43591 2310.8804 9270373
1122.645 949.25464 2305.5823 9466981
1137.0635 949.88538 2307.1143 9269857
1142.541 943.12079 2290.6843 9533029
1160.9358 947.05255 2300.2339 9532772
1174.6189 947.09399 2300.3345 9532516
1186.0048 945.30353 2295.9856 8676438
1204.8577 949.43781 2306.0271 9005917
1208.3971 941.54742 2286.8628 9005917
1221.2933 941.04181 2285.6348 8545622
1254.5588 956.07025 2322.1362 8743002
1267.9735 955.80872 2321.5012 9532518
1267.095 944.89423 2294.9917 9269090
1291.2566 952.68616 2313.917 8808538
1298.3065 947.82208 2302.1028 8216401
1320.6278 954.0918 2317.3311 8742232
1330.3651 951.2348 2310.3918 10387313
1340.5442 948.74866 2304.3535 9400673
1354.8954 949.23572 2305.5364 10255212
1369.4442 949.8501 2307.0286 10519153
1374.4736 943.91486 2292.6128 9466722
1382.8929 940.40106 2284.0784 9071966
1401.9271 944.10376 2293.0715 9006174
1416.7189 944.9057 2295.0195 9729897
1430.6368 945.11536 2295.5286 9269605
1456.4264 953.08972 2314.897 9335398
1470.2113 953.13269 2315.0015 9335397
1489.6152 956.784 2323.8699 9006433
1501.9886 955.8941 2321.7085 9203812
1524.3781 961.33685 2334.928 9466727
1516.4001 947.70306 2301.8137 9467241
1542.479 955.40686 2320.5251 9532263
1565.6809 961.20856 2334.6165 8940126
1574.5361 958.17786 2327.2554 9268577
1600.6934 965.63739 2345.3733 9137760
1613.262 964.84161 2343.4404 8940380
1616.4609 958.50366 2328.0466 9400932
1622.6566 954.03479 2317.1924 9663848
1644.6061 958.82556 2328.8284 9466470
1657.3279 958.20154 2327.3127 8808284
1669.7596 957.42151 2325.4182 8940127
1676.8184 953.59845 2316.1328 9269092
1693.2473 955.12323 2319.8362 9268835
1709.6759 956.62323 2323.4795 9268835
1721.304 955.43463 2320.5925 9335398
1728.7616 951.96838 2312.1736 9269091
1741.0836 951.21423 2310.3418 9072226
1748.7231 947.93353 2302.3735 7953745
1784.0432 959.59235 2330.6909 8809055
1796.5089 958.87378 2328.9456 9072227
1817.7509 962.81458 2338.5171 9072227
1826.5287 960.1438 2332.0303 8611676
1830.3324 954.91803 2319.3379 9137763
1845.2087 955.50403 2320.761 9006177
1864.0892 958.1394 2327.1619 8874848
1874.8159 956.57574 2323.364 9006177
1893.1287 958.87732 2328.9541 8809055
1917.7272 964.30621 2342.1401 9335399
1929.1385 963.07379 2339.1467 9006433
1921.2324 952.28406 2312.9402 8874847
1924.9498 947.36761 2300.999 8282198
1961.4208 958.52673 2328.1028 7887440
1978.0105 959.88208 2331.3945 6242358
1969.7092 949.22333 2305.5063 8150355
1987.5875 951.24072 2310.4062 8084819
1991.5325 946.60791 2299.1538 7755597
1995.6324 942.11115 2288.2319 9269606
2028.1072 950.97998 2309.7729 8677212
2047.5717 953.67041 2316.3074 8480089
2042.1456 944.80914 2294.7849 8611675
2075.0273 953.67114 2316.3093 8282201
2090.8494 954.62769 2318.6326 8479836
2096.8904 951.13519 2310.1499 8743008
2109.1514 950.49097 2308.5852 8743006
2107.0991 943.44641 2291.4751 8480090
2122.842 944.40875 2293.8125 8151125
2135.5857 944.03308 2292.8999 8677469
2142.656 941.16998 2285.946 8085332
2158.6362 942.23206 2288.5256 8677469
2172.4829 942.35553 2288.8254 8150869
2190.9771 944.48077 2293.9873 8216918
0 0 0 0
0 0 0 0
0 0 0 0
0 0 0 0
0 0 0 0
0 0 0 0
0 0 0 0
0 0 0 0
-2440.375 1147.8191 2748.304 16
-2430.6731 1150.9373 2755.77 16
-2424.0342 1155.5576 2766.8328 16
-2415.1838 1159.1796 2775.5051 16
-2402.7488 1161.119 2780.1489 16
-2387.8574 1161.8899 2781.9946 16
-2376.1248 1164.2191 2787.5718 16
-2364.9805 1166.8713 2793.9221 16
-2353.0161 1169.1536 2799.3867 16
-2342.3547 1172.1201 2806.4897 16
-2332.1262 1175.3473 2814.2168 16
-2324.823 1180.106 2825.6106 15
-2319.021 1185.701 2839.0073 17
-2316.9138 1193.281 2857.1565 16
-2311.4167 1199.2137 2871.3616 16
-2294.9856 1199.5195 2872.094 16
-2286.1611 1203.8354 2882.428 16
-2271.478 1205.1082 2885.4751 16
-2256.6335 1206.3138 2888.3621 16
-2227.4604 1199.8198 2872.813 16
-2211.9231 1200.6272 2874.7461 16
-2119.4451 1159.3597 2775.9365 16
-2118.4019 1167.8539 2796.2747 16
-2117.7874 1176.72 2817.5034 16
-2105.4814 1179.1793 2823.3918 16
-2093.4177 1181.8149 2829.7024 16
-2080.6553 1184.0952 2835.1624 16
-2206.561 1265.9708 3031.2029 18
-2191.9304 1267.8986 3035.8188 16
-2182.0823 1272.6477 3047.1899 18
-2168.2271 1275.1196 3053.1084 18
-2152.6428 1276.6077 3056.6714 18
-2137.196 1278.2031 3060.4915 18
-2121.9094 1279.9226 3064.6086 18
-2106.6318 1281.677 3068.8093 18
-2089.9919 1282.6262 3071.0823 18
-2074.8059 1284.4919 3075.5496 18
-2061.3235 1287.455 3082.644 18
-2046.1331 1289.3947 3087.2883 18
-2030.6327 1291.1722 3091.5444 18
-2014.5314 1292.5964 3094.9546 18
-1998.2285 1293.9165 3098.1152 18
-1981.5042 1294.9855 3100.6748 18
-1964.3845 1295.8137 3102.658 18
-1947.1444 1296.5775 3104.4866 18
-1929.7976 1297.2841 3106.1785 18
-1912.6595 1298.1459 3108.2419 18
-1895.3524 1298.9086 3110.0681 18
-1878.2194 1299.8068 3112.2188 18
-1860.6539 1300.4207 3113.6885 18
-1739.7625 1228.1083 2940.5459 18
-1700.55 1212.5737 2903.3503 18
-1697.6788 1222.8994 2928.0742 18
-1687.922 1228.4274 2941.3101 18
-1667.5424 1226.2588 2936.1177 18
-1647.7162 1224.4559 2931.801 18
-1627.2762 1222.1537 2926.2886 18
-1612.653 1224.2174 2931.2297 18
-1598.0289 1226.3254 2936.2773 18
-1592.3926 1235.453 2958.1321 18
-1571.1024 1232.5038 2951.0703 18
-1557.6147 1235.6777 2958.6702 18
-1536.2538 1232.6069 2951.3174 18
-1519.7325 1233.3933 2953.2004 18
-1504.8555 1235.5479 2958.3591 18
-1485.5787 1234.0984 2954.8887 18
-1467.1169 1233.2994 2952.9756 18
-1450.9124 1234.4015 2955.6143 18
-1443.234 1242.873 2975.8982 18
-1420.5787 1238.4969 2965.4202 18
-1400.2303 1236.0476 2959.5557 18
-1387.6899 1240.5161 2970.2549 18
-1365.166 1236.0599 2959.5852 18
-1335.965 1225.3635 2933.9739 18
-1331.6283 1237.4917 2963.0132 18
-1325.3894 1248.1523 2988.5391 18
-1352.2745 1290.7183 3090.4575 18
-1282.9874 1241.3981 2972.3667 18
-1267.6571 1243.6394 2977.7334 18
-1298.0048 1291.3892 3092.064 18
-1236.3936 1247.7062 2987.4705 18
-1261.1432 1291.171 3091.5415 18
-1239.6189 1287.8431 3083.5735 18
-1228.5708 1295.4624 3101.8169 18
-1212.7758 1298.2317 3108.4475 18
-1192.6979 1296.431 3104.136 18
-1126.9119 1244.1122 2978.8652 18
-1108.2327 1242.9615 2976.1104 18
-1141.7202 1301.2288 3115.6235 16
-1130.9299 1310.1183 3136.9082 16
-1056.5088 1244.3601 2979.459 16
-1080.824 1294.6353 3099.8362 16
-1064.9094 1297.6277 3107.001 16
-1006.1904 1247.6489 2987.3335 16
-1030.6581 1300.8766 3114.7803 16
-964.14709 1239.1201 2966.9126 16
-989.43475 1295.2402 3101.2849 16
-935.69238 1248.0709 2988.3438 16
-919.64429 1250.3298 2993.7524 16
-899.45093 1246.9308 2985.614 16
-881.21844 1246.1683 2983.7886 17
-855.953 1235.2256 2957.5874 18
-886.09479 1305.455 3125.7427 18
-821.57227 1236.2395 2960.0151 18
-800.07446 1230.1567 2945.4509 18
-828.91614 1302.9286 3119.6934 18
-771.3623 1240.1223 2969.312 18
-747.94336 1230.5435 2946.3767 18
-776.69751 1308.3955 3132.7834 17
-755.59473 1304.0166 3122.2988 15
-744.76709 1317.5962 3154.8132 16
-717.82556 1302.6333 3118.9866 16
-700.66278 1305.0939 3124.8779 16
-683.1499 1307.0182 3129.4856 16
-658.68561 1295.3793 3101.6177 16
-640.3233 1295.4167 3101.7073 16
-627.94098 1307.9119 3131.6252 16
-607.16699 1303.1571 3120.2407 16
-586.91223 1299.2532 3110.8933 16
-571.08252 1305.2094 3125.1545 16
-545.09521 1287.5717 3082.9233 16
-526.26257 1286.1967 3079.6311 16
-507.41373 1284.6819 3076.0042 16
-492.58838 1293.6206 3097.4067 16
-472.37485 1288.5533 3085.2739 16
-453.09332 1285.7227 3078.4961 16
-433.92798 1282.998 3071.9724 15
-413.95001 1277.527 3058.8726 15
-394.91785 1274.6072 3051.8816 16
-375.61362 1270.4868 3042.0159 17
-360.38547 1280.4333 3065.8315 18
-340.28049 1273.1888 3048.4856 18
-321.38116 1269.8959 3040.6011 17
-302.37628 1265.77 3030.7222 16
-283.1077 1259.9495 3016.7856 16
-263.2446 1250.5199 2994.2078 16
-234.92612 1196.6576 2865.2415 16
-227.94949 1251.5825 2996.752 16
-212.41249 1264.8158 3028.4375 16
-193.13863 1256.1868 3007.7764 16
-162.78534 1166.4153 2792.8301 16
-147.61052 1177.3914 2819.1108 16
-129.77983 1167.2815 2794.9041 16
-112.78977 1162.8804 2784.3662 18
-96.192123 1161.7101 2781.5642 18
-84.423309 1230.434 2946.1145 18
-66.203773 1216.4651 2912.668 18
-48.893967 1215.2542 2909.7686 18
-29.923805 1148.972 2751.0647 18
-13.691259 1154.9487 2765.3748 18
2.6586823 1138.5645 2726.145 18
18.709572 1132.2208 2710.9558 18
34.627415 1127.4067 2699.4292 18
50.475636 1124.0847 2691.4751 18
66.15921 1119.5718 2680.6694 18
82.039032 1119.4845 2680.4604 18
97.723427 1117.1914 2674.97 18
113.48402 1116.288 2672.8066 18
129.32953 1116.3387 2672.9285 18
144.93228 1114.5117 2668.5537 18
160.39305 1112.0597 2662.6829 18
175.69423 1109.0397 2655.4517 18
191.18324 1107.6042 2652.0146 18
206.37383 1104.7893 2645.2747 18
221.51459 1102.124 2638.8931 18
238.10522 1106.5482 2649.4863 18
257.11444 1120.9696 2684.0164 18
271.42053 1114.4003 2668.2871 18
291.63211 1131.4666 2709.1499 18
305.74814 1124.3363 2692.0774 18
315.08206 1101.2001 2636.6807 18
335.74173 1117.9628 2676.8169 18
367.59973 1168.8192 2798.5862 18
359.15219 1092.6619 2616.2371 16
372.44461 1086.2107 2600.7908 15
392.37598 1098.865 2631.0898 16
403.74368 1087.486 2603.844 16
417.99615 1084.4285 2596.5234 16
433.13617 1083.8092 2595.0405 16
448.35785 1083.4296 2594.1316 16
462.1311 1079.6912 2585.1804 16
477.7464 1080.3582 2586.7773 16
493.22205 1080.6777 2587.5427 16
509.97244 1083.6868 2594.7476 16
525.42993 1083.8528 2595.145 16
540.95758 1084.15 2595.8564 16
556.58392 1084.6229 2596.989 16
609.84827 1156.4427 2768.9521 16
587.52472 1084.9188 2597.6973 16
632.78491 1138.6605 2726.3748 16
650.46527 1141.3333 2732.7744 16
673.66968 1153.3334 2761.5071 16
686.85297 1148.015 2748.7729 15
694.9989 1134.7186 2716.9365 14
712.18811 1136.4548 2721.0938 14
729.99713 1139.0813 2727.3823 14
749.67902 1144.4531 2740.2446 14
759.19067 1134.4005 2716.175 14
776.40674 1136.0385 2720.0969 14
791.39984 1134.4235 2716.2297 13
808.88605 1136.3751 2720.9028 14
829.53491 1142.6068 2735.8237 14
848.6731 1146.5586 2745.2859 13
857.18506 1136.2759 2720.665 11
869.8631 1131.7931 2709.9319 11
886.05298 1131.9595 2710.3301 12
896.7572 1125.2366 2694.2332 14
917.20538 1130.7617 2707.4622 14
936.57715 1134.7925 2717.1135 14
948.45831 1129.7646 2705.075 14
964.5061 1129.7844 2705.1223 14
983.22534 1132.8817 2712.5383 14
997.7644 1131.1404 2708.3689 14
1017.2576 1134.9817 2717.5664 14
1008.139 1107.2777 2651.2329 15
982.38605 1062.4343 2543.8611 16
993.40063 1058.109 2533.5046 16
1021.6621 1072.0092 2566.7869 16
1033.0527 1068.059 2557.3286 16
1045.3807 1065.1781 2550.4309 14
1060.7274 1065.4115 2550.9895 14
1066.6138 1056.2697 2529.1006 14
1077.595 1052.3566 2519.7314 15
1091.9762 1051.8257 2518.4602 13
1110.1118 1054.8766 2525.7651 14
1130.1079 1059.5908 2537.0527 65550
1149.0767 1063.2305 2545.7676 65546
1045.7029 955.04047 2286.7205 196614
1058.6315 954.47876 2285.3757 984328
1086.517 967.2464 2315.946 3877670
1094.2794 962.0047 2303.3955 6968651
1094.8756 950.6698 2276.2556 9007460
1110.2894 952.32031 2280.2075 9138530
1121.8485 950.66449 2276.2429 9072224
1128.4342 944.88379 2262.4016 9072223
1142.7805 945.66064 2264.2617 9138017
1160.9153 949.51807 2273.4978 9532775
1174.5131 949.61884 2273.739 9401189
1185.53 947.65411 2269.0349 8940381
1201.3894 949.56104 2273.6008 8216915
1216.2961 950.68109 2276.2825 8874589
1226.1425 947.86456 2269.5388 9730155
1244.7408 951.80151 2278.9653 9203809
1257.2162 951.02209 2277.0991 8414038
1263.9618 945.97107 2265.0049 8545623
1265.4106 937.1037 2243.7732 8413782
1292.5653 947.25928 2268.0894 8677209
1299.832 942.7807 2257.3662 9203553
1319.9882 947.64722 2269.0183 8150865
1344.1274 955.24622 2287.2131 9334880
1350.7269 950.35284 2275.4966 9927017
1348.7603 939.58862 2249.7231 10124653
1372.108 946.49738 2266.2651 8479829
1393.0895 951.65576 2278.6162 8940381
1395.7992 944.35291 2261.1306 9269347
1406.5244 942.56049 2256.8389 9334628
1430.7903 949.79047 2274.1501 8874589
1446.3187 951.13947 2277.3801 8611162
1451.5776 945.77252 2264.5295 8874077
1480.6528 955.87909 2288.7285 9005920
1504.7188 962.5976 2304.8152 9861229
1501.251 951.74005 2278.8181 8874334
1518.6451 954.18384 2284.6694 8742748
1542.6289 960.68817 2300.2432 9663849
1551.8767 957.98193 2293.7634 9400164
1580.7498 967.33228 2316.1516 8742492
1581.9839 959.75372 2298.0059 8808284
1595.5925 959.7478 2297.9917 9400677
1600.8016 954.73242 2285.9829 9795436
1610.7931 952.62952 2280.9478 8808541
1631.9103 957.08667 2291.6199 8479320
1638.7717 953.17841 2282.2622 8808542
1652.5961 953.35114 2282.6755 9400679
1668.8026 954.88391 2286.3457 8940128
1686.2377 957.08948 2291.6265 9137250
1699.7966 957.07721 2291.5974 9072227
1712.8151 956.76324 2290.8455 8940641
1726.8041 956.99213 2291.3936 9334629
1738.653 956.04059 2289.1152 9532008
1748.1617 953.82709 2283.8152 9138019
1765.6725 955.97998 2288.97 9006177
1791.4177 962.52441 2304.6399 9335399
1788.7765 953.83325 2283.8301 8809055
1794.6039 949.75439 2274.0637 9795693
1817.0183 954.44934 2285.3052 9269606
1827.6979 952.9563 2281.7302 8545628
1857.5326 961.39923 2301.9458 8216663
1852.5026 951.80566 2278.9753 8611676
1863.0807 950.31244 2275.3999 8743261
1884.5145 954.33801 2285.0386 9006434
1893.2882 951.94067 2279.2986 8414296
1912.5693 954.82306 2286.2 9137762
1925.1533 954.34497 2285.0552 8480088
1938.4601 954.22931 2284.7783 8479833
1956.9895 956.66833 2290.6182 8282710
1963.9169 953.4411 2282.8911 6374460
1971.6678 950.65527 2276.2207 7953493
1981.4066 948.85913 2271.9202 8479836
2005.4011 953.86798 2283.9133 9203302
2002.3845 946.0481 2265.1895 8019283
2015.1681 945.7475 2264.4697 8282457
2039.2018 950.69592 2276.3181 8414043
2053.7524 951.18713 2277.4941 8611422
2063.9692 949.6778 2273.8804 9071972
2076.0078 949.02112 2272.3079 8085077
2079.8098 944.63165 2261.7979 9401194
2089.9216 943.146 2258.2407 8940386
2091.387 937.80206 2245.4453 9203813
2102.3796 936.77087 2242.9763 8282711
2113.2126 935.68182 2240.3689 8150871
2149.9155 945.98956 2265.0493 7755856
2159.6025 944.3559 2261.1377 7953492
0 0 0 0
0 0 0 0
0 0 0 0
0 0 0 0
0 0 0 0
0 0 0 0
0 0 0 0
0 0 0 0
0 0 0 0
-2567.3447 1232.9016 2910.7212 18
-2552.396 1234.0139 2913.3472 18
-2538.3228 1235.5676 2917.0151 18
-2525.2141 1237.6152 2921.8496 16
-2512.0735 1239.6755 2926.7136 15
-2499.0322 1241.814 2931.762 16
-2474.9517 1238.458 2923.8391 16
-2460.0569 1239.6838 2926.7332 16
-2446.7952 1241.7557 2931.6248 16
-2318.6382 1185.1307 2797.9404 16
-2306.6252 1187.4825 2803.4927 15
-2298.5923 1191.9324 2813.998 16
-2301.3318 1202.074 2837.9412 16
-2293.166 1206.6267 2848.6897 16
-2281.9832 1209.6477 2855.8218 16
-2268.1514 1211.2992 2859.7207 16
-2252.9534 1212.2405 2861.9431 16
-2237.7168 1213.1752 2864.1497 16
-2217.9314 1211.6392 2860.5232 16
-2195.7974 1208.7864 2853.7883 16
-2111.8882 1171.6182 2766.0391 16
-2124.7026 1187.948 2804.5916 16
-2112.4131 1190.3887 2810.3538 16
-2098.8748 1192.1588 2814.5327 16
-2087.9373 1195.4464 2822.2942 16
-2120.647 1223.979 2889.6562 16
-2109.2451 1227.3091 2897.5181 18
-2183.0042 1280.653 3023.4561 18
-2167.9919 1282.3716 3027.5134 18
-2152.8643 1284.0499 3031.4758 18
-2137.5134 1285.6224 3035.1882 18
-2122.7869 1287.6003 3039.8577 18
-2107.9763 1289.5603 3044.4851 18
-2093.1584 1291.5499 3049.1824 18
-2076.7048 1292.5562 3051.5579 18
-2061.6543 1294.4608 3056.0544 18
-2047.4668 1296.9462 3061.9219 18
-2030.5181 1297.7109 3063.7278 18
-2014.7706 1299.2644 3067.395 18
-1997.7744 1300.0334 3069.2107 18
-1980.6274 1300.7177 3070.8259 18
-1963.2296 1301.2482 3072.0786 18
-1945.7839 1301.7567 3073.2793 18
-1928.3049 1302.2524 3074.4495 18
-1910.7742 1302.7222 3075.5583 18
-1893.368 1303.2867 3076.8916 18
-1876.0726 1303.9393 3078.4321 18
-1858.7612 1304.5935 3079.9766 18
-1841.5099 1305.3032 3081.6521 18
-1832.7061 1312.075 3097.6392 18
-1814.7278 1312.349 3098.2861 18
-1796.813 1312.6752 3099.0562 18
-1671.2318 1233.5392 2912.2263 18
-1752.0919 1306.7164 3084.9883 18
-1623.1903 1223.3461 2888.1619 18
-1608.2134 1224.9753 2892.0083 18
-1600.8545 1232.5049 2909.7844 18
-1581.7578 1231.0629 2906.3801 18
-1566.3224 1232.4702 2909.7026 18
-1549.3383 1232.6765 2910.1897 18
-1541.5688 1240.3014 2928.1912 18
-1505.9644 1225.4497 2893.1282 18
-1492.8975 1228.8066 2901.0535 18
-1490.3795 1241.0258 2929.9014 18
-1474.8872 1242.6021 2933.6228 18
-1452.8973 1238.6764 2924.3547 18
-1435.7755 1238.8563 2924.7795 18
-1417.3999 1237.9456 2922.6294 18
-1402.792 1240.3438 2928.291 18
-1386.2014 1241.0269 2929.9038 18
-1359.7509 1232.7881 2910.4531 18
-1352.5255 1241.9917 2932.1816 18
-1336.1442 1242.9176 2934.3677 18
-1268.1965 1195.267 2821.8706 18
-1289.0845 1231.1888 2906.6775 18
-1280.0039 1239.0734 2925.2917 18
-1263.4166 1239.808 2927.0261 18
-1291.9045 1285.4116 3034.6907 18
-1268.1571 1279.5966 3020.9619 18
-1249.79 1279.1213 3019.8401 18
-1249.3645 1297.2618 3062.6672 18
-1182.4541 1245.8856 2941.375 18
-1217.6421 1302.1572 3074.2246 18
-1149.8507 1248.3383 2947.1653 18
-1162.8225 1281.8923 3026.3818 18
-1142.6981 1279.441 3020.5947 18
-1095.8138 1246.4724 2942.7603 18
-1112.3418 1285.7347 3035.4534 16
-1104.5677 1297.736 3063.7866 16
-1097.2188 1310.6456 3094.2649 16
-1066.0908 1295.1074 3057.5811 16
-991.04016 1224.751 2891.4785 16
-974.68829 1225.7365 2893.8052 16
-966.92816 1237.7555 2922.1804 16
-950.39655 1238.7797 2924.5986 16
-968.89697 1286.3523 3036.9114 16
-904.1427 1223.1008 2887.5828 16
-922.8504 1272.4921 3004.1892 16
-922.83856 1297.5071 3063.2463 16
-862.75684 1237.3732 2921.2781 17
-831.03326 1216.2809 2871.4819 18
-851.43213 1272.1868 3003.4683 18
-847.5545 1293.432 3053.6257 18
-821.55902 1281.1145 3024.5457 18
-803.60583 1281.0681 3024.436 17
-793.91461 1294.4908 3056.1255 16
-775.96313 1294.7576 3056.7551 15
-749.36298 1280.2609 3022.5303 15
-732.61749 1282.303 3027.3516 16
-722.01007 1295.4608 3058.4153 16
-702.36475 1292.6624 3051.8083 16
-683.23065 1290.6818 3047.1326 16
-664.23785 1288.8678 3042.8501 16
-644.17493 1284.8182 3033.2896 16
-622.26398 1276.7444 3014.2283 16
-606.03522 1280.1965 3022.3784 16
-593.20215 1291.2505 3048.4753 16
-567.06714 1273.1345 3005.7058 16
-547.61902 1269.343 2996.7546 16
-530.18353 1270.119 2998.5867 16
-508.38007 1260.1219 2974.9849 16
-489.8089 1257.7062 2969.2815 16
-448.03851 1193.3209 2817.2764 16
-429.72427 1188.8435 2806.7056 16
-435.08652 1252.1444 2956.1509 18
-415.27972 1245.2834 2939.9531 18
-398.06976 1245.9496 2941.5256 18
-387.47345 1268.3253 2994.3521 18
-363.61624 1247.3584 2944.8518 18
-341.14548 1229.2733 2902.1553 18
-313.57889 1189.9308 2809.2727 18
-311.21701 1247.1831 2944.4377 18
-294.03516 1248.3187 2947.1189 16
-274.02954 1236.8525 2920.0488 16
-256.40714 1235.3226 2916.4368 16
-239.07071 1235.0488 2915.7905 16
-226.8287 1263.1008 2982.0176 16
-205.97269 1243.8729 2936.623 16
-185.09048 1220.9232 2882.4417 16
-171.77751 1248.3125 2947.1042 16
-152.82233 1236.259 2918.6475 16
-134.24016 1224.5315 2890.9604 16
-112.1619 1172.8158 2768.8662 16
-95.135124 1165.2478 2750.9993 16
-82.440735 1218.588 2876.9287 17
-65.385338 1218.4742 2876.6602 18
-46.240944 1165.6219 2751.8826 18
-29.49194 1148.4579 2711.3606 18
-13.403275 1146.6989 2707.2075 18
2.621079 1138.3882 2687.5874 18
18.443087 1131.9312 2672.343 18
34.311302 1132.9661 2674.7861 18
49.875229 1126.4744 2659.4602 18
65.666656 1127.0045 2660.7119 18
81.18277 1123.5194 2652.4839 18
96.629692 1120.3627 2645.0312 18
112.14948 1118.8141 2641.3752 18
127.97857 1120.3524 2645.0071 18
143.64426 1120.2809 2644.8381 18
159.10983 1118.816 2641.3801 18
174.08266 1114.4592 2631.094 18
192.87958 1133.2876 2675.5454 18
206.96863 1123.6952 2652.8989 18
218.15895 1100.8301 2598.9175 18
233.49243 1100.5084 2598.158 18
253.25867 1119.8267 2643.7659 18
266.29132 1108.855 2617.863 18
279.51743 1099.8525 2596.6094 18
292.74863 1091.8083 2577.6182 18
318.4834 1128.8817 2665.1438 18
347.71237 1174.2521 2772.2571 18
369.16418 1190.4492 2810.4966 18
357.61853 1103.4341 2605.0652 18
368.77597 1090.7725 2575.1726 18
383.44635 1089.0948 2571.2119 17
397.58209 1086.085 2564.1062 17
412.74069 1085.9882 2563.8774 18
427.82898 1085.7196 2563.2434 19
445.32016 1091.3584 2576.5559 19
456.14417 1080.8254 2551.689 18
473.1098 1085.0541 2561.6724 16
488.3808 1085.2542 2562.1445 16
504.70081 1087.7029 2567.9255 16
518.89734 1085.5656 2562.8799 16
537.79529 1093.1061 2580.6819 16
569.71271 1125.9606 2658.2473 16
598.08673 1150.2324 2715.55 16
613.3277 1148.637 2711.7832 16
631.76825 1152.962 2721.9941 16
644.82336 1147.4883 2709.0713 16
659.85687 1145.7153 2704.8857 16
673.05713 1140.9191 2693.5623 16
688.46204 1139.9956 2691.3821 15
710.46497 1149.7919 2714.5098 14
724.53528 1146.6008 2706.9761 14
740.9306 1147.1477 2708.2671 14
749.83624 1136.3213 2682.7075 14
762.2558 1131.1589 2670.5198 14
777.3678 1130.1208 2668.0691 14
793.80664 1131.0146 2670.1792 13
811.99121 1134.3121 2677.9641 12
826.06006 1131.844 2672.1372 12
848.02618 1140.0857 2691.595 12
859.73529 1134.4883 2678.3801 12
874.10962 1132.547 2673.7969 13
887.55627 1129.4943 2666.5898 14
912.29449 1140.6665 2692.9661 14
917.2063 1127.0913 2660.9167 14
946.5033 1143.4337 2699.499 14
949.92224 1128.4902 2664.2195 14
917.14001 1071.7322 2530.2212 14
980.11389 1126.8969 2660.4578 14
988.98407 1119.0934 2642.0347 14
976.02832 1087.2207 2566.7874 13
981.89575 1076.972 2542.5916 13
1003.1592 1083.6647 2558.3921 15
1001.2739 1065.5239 2515.5642 16
1025.197 1074.9772 2537.8818 16
1039.4233 1074.1361 2535.8965 14
1047.6995 1067.2579 2519.658 14
1062.78 1067.4072 2520.0103 14
1074.1338 1063.861 2511.6382 14
1084.4449 1059.3934 2501.0908 14
1098.7887 1058.9325 2500.0027 13
1114.2139 1059.5121 2501.3711 13
1130.5273 1060.9103 2504.6719 11
1038.7264 962.13019 2271.4648 65544
1047.3788 957.73291 2261.0835 393219
1070.365 966.38824 2281.5176 3351845
1099.1686 980.01416 2313.6868 5916738
1090.8568 960.62036 2267.9004 7363150
1091.3462 949.35461 2241.3035 7955027
1102.7737 947.76056 2237.54 8940896
1112.4514 944.71832 2230.3577 8414295
1121.4865 941.20813 2222.0706 9138017
1142.9438 948.08386 2238.3032 9532775
1157.6571 949.27161 2241.1074 8545880
1169.6802 948.25165 2238.6995 8809052
1189.1672 953.23761 2250.4707 9138017
1195.2047 947.45142 2236.8101 10256242
1215.4723 952.94867 2249.7886 9072224
1224.033 949.24786 2241.0515 9006433
1233.5715 946.37689 2234.2734 9269349
1248.92 947.97668 2238.0503 8808539
1259.8263 946.20654 2233.8711 10124401
1274.1998 947.05029 2235.863 9137760
1289.1952 948.33392 2238.8938 8874588
1303.8762 949.36267 2241.3225 8019022
1326.1753 955.86151 2256.6653 9137758
1323.2766 944.25012 2229.2524 9861483
1334.4337 942.79901 2225.8267 9861226
1354.0923 947.32397 2236.5093 9203553
1369.6044 948.88831 2240.2026 8808795
1374.168 942.91028 2226.0891 9927020
1388.7584 943.86047 2228.3325 8150610
1406.0569 946.61597 2234.8379 9137506
1430.0935 953.81409 2251.8318 9005920
1451.4567 959.11261 2264.3408 7887182
1470.2086 962.60437 2272.5842 9071713
1477.2543 958.43768 2262.7473 8874334
1479.5859 951.315 2245.9316 8939870
1505.8505 959.57013 2265.4209 9597800
1519.6404 959.80035 2265.9644 8347988
1535.8892 961.56598 2270.1328 9400674
1558.5999 967.31134 2283.697 8940381
1566.5895 963.90015 2275.6436 8611159
1583.9492 966.26331 2281.2227 8677209
1580.8785 956.2287 2257.5322 8479576
1582.6891 949.29028 2241.1516 8479576
1612.5441 959.14819 2264.4248 9861229
1628.1422 960.43341 2267.459 9269092
1649.4667 965.04779 2278.353 9335142
1649.6849 957.33899 2260.1536 9203555
1663.9827 957.85919 2261.3816 9269605
1676.5128 957.36157 2260.2068 9663851
1693.4967 959.39514 2265.0078 8676956
1713.2563 962.95679 2273.4163 9400678
1722.438 960.56372 2267.7666 9071713
1740.8136 963.29529 2274.2156 9268836
1731.1188 950.57117 2244.1755 8874335
1749.4749 953.3266 2250.6807 8611423
1755.5944 949.42285 2241.4646 8479835
1778.1888 954.42041 2253.2632 7821906
1797.8156 957.76245 2261.1533 8742751
1803.4813 953.67273 2251.4978 8085078
1812.4045 951.35278 2246.0208 8677470
1833.8947 955.61505 2256.0835 8611676
1832.9481 948.20892 2238.5986 9269349
1846.2706 948.23773 2238.6665 9269606
1891.9963 964.78955 2277.7434 8414297
1890.9147 957.40735 2260.3149 8085331
1912.8285 961.69025 2270.4263 8480090
1936.1998 966.64087 2282.114 8151125
1920.7902 952.29596 2248.2476 6966850
1948.4401 959.34973 2264.9006 8414296
1934.0193 945.73456 2232.7568 7953748
1942.9812 943.66077 2227.8608 8151128
1951.6731 941.48474 2222.7236 7493197
1979.5378 948.52478 2239.3442 8545373
1989.8711 947.12659 2236.0432 8216664
2003.1088 947.12006 2236.0281 8677214
2011.2675 944.72809 2230.3809 8677215
2023.879 944.44531 2229.7131 9071717
2030.6188 941.44379 2222.627 8940387
2051.7734 945.12091 2231.3081 8282201
2070.686 947.72485 2237.4558 9861232
2088.2075 949.66309 2242.0317 7887953
2086.0212 942.67078 2225.5237 8940384
2099.8435 942.95526 2226.1953 7953745
2103.5652 938.72858 2216.2168 8216919
2136.9141 947.69379 2237.3826 7821906
0 0 0 0
0 0 0 0
0 0 0 0
0 0 0 0
0 0 0 0
0 0 0 0
0 0 0 0
0 0 0 0
0 0 0 0
-2537.8206 1235.7744 2877.248 18
-2523.2234 1236.9775 2880.0491 18
-2509.4282 1238.5928 2883.8101 18
-2496.635 1240.7281 2888.7817 16
-2483.7595 1242.8519 2893.7263 16
-2471.6726 1245.4025 2899.6648 16
-2426.1875 1231.0426 2866.2307 16
-2421.4048 1237.2781 2880.7488 16
-2307.686 1187.5432 2764.9514 16
-2305.2932 1194.7955 2781.8369 16
-2287.1628 1193.937 2779.8381 16
-2305.374 1212.1746 2822.3003 15
-2291.9912 1213.9451 2826.4226 16
-2283.032 1218.1017 2836.1006 16
-2281.4746 1226.2986 2855.1853 16
-2269.5913 1229.0264 2861.5364 16
-2239.9163 1222.0881 2845.3821 16
-2221.9197 1221.4644 2843.9299 16
-2207.0212 1222.5476 2846.4519 16
-2189.1416 1221.9833 2845.1382 16
-2181.6331 1227.2443 2857.3872 16
-2173.6675 1232.3286 2869.2251 16
-2159.7791 1234.1086 2873.3694 16
-2062.2085 1187.7206 2765.3643 16
-2047.0963 1188.4612 2767.0889 15
-2034.989 1190.9727 2772.936 16
-2086.9524 1231.3274 2866.8938 18
-2153.9182 1281.2689 2983.1724 18
-2140.3469 1283.7324 2988.9082 18
-2051.1899 1240.5244 2888.3071 18
-2036.5132 1242.0125 2891.7717 18
-2021.6093 1243.386 2894.97 18
-2090.1104 1296.5203 3018.6821 18
-2076.7222 1299.3364 3025.239 18
-2061.5498 1301.0757 3029.2886 18
-2046.156 1302.7046 3033.0811 18
-2031.2559 1304.6793 3037.679 18
-2015.8156 1306.3392 3041.5437 18
-1999.6367 1307.5465 3044.3545 18
-1982.2952 1308.0083 3045.4297 18
-1965.4438 1308.8052 3047.2849 18
-1948.3 1309.4199 3048.7166 18
-1931.1544 1310.0453 3050.1724 18
-1913.6619 1310.4449 3051.1028 18
-1896.068 1310.782 3051.8877 18
-1860.9041 1298.8622 3024.1348 18
-1861.5782 1311.9678 3054.6484 18
-1844.1813 1312.4698 3055.8174 18
-1826.938 1313.0924 3057.2668 18
-1815.8727 1318.2122 3069.1873 18
-1797.9583 1318.4133 3069.6558 18
-1779.9398 1318.5414 3069.9539 18
-1761.7356 1318.5332 3069.9348 18
-1743.5757 1318.5582 3069.9932 18
-1573.1387 1202.2118 2799.1042 18
-1554.8016 1200.8612 2795.9595 15
-1682.2634 1313.3029 3057.7568 17
-1665.297 1314.2139 3059.8782 18
-1652.7007 1318.6318 3070.1646 18
-1543.7306 1245.3989 2899.6565 18
-1513.9821 1235.1484 2875.7905 18
-1500.9756 1238.4786 2883.5442 18
-1494.9554 1247.7166 2905.0525 18
-1478.4404 1248.3083 2906.4304 18
-1454.6658 1242.7123 2893.4014 18
-1438.1088 1243.2222 2894.5886 18
-1421.3942 1243.6067 2895.4836 18
-1412.2435 1250.6991 2911.9971 18
-1392.9288 1248.8544 2907.7019 18
-1382.4888 1255.0198 2922.0569 18
-1373.3583 1262.5454 2939.5789 18
-1346.7832 1254.0215 2919.7324 18
-1321.6046 1246.5929 2902.4365 18
-1348.5164 1288.75 3000.5906 18
-1299.4766 1258.4786 2930.1099 18
-1324.8074 1300.3868 3027.6846 18
-1259.3525 1253.1102 2917.6106 18
-1239.9281 1250.9572 2912.5977 18
-1282.9233 1312.6072 3056.1372 18
-1239.8003 1286.6504 2995.7021 18
-1228.4086 1293.348 3011.2964 18
-1204.6984 1287.0824 2996.708 18
-1151.2198 1248.3494 2906.5261 18
-1169.2261 1287.1332 2996.8262 18
-1111.1074 1242.0192 2891.7876 18
-1156.5885 1313.1117 3057.312 18
-1068.6578 1232.5901 2869.834 18
-1063.2708 1246.2096 2901.5439 16
-1033.1887 1230.8573 2865.7993 16
-1072.1797 1298.655 3023.6523 18
-995.91034 1226.778 2856.3013 18
-979.58252 1227.5288 2858.0496 18
-964.55725 1229.967 2863.7266 18
-941.53888 1222.1177 2845.4509 18
-921.85266 1218.3859 2836.7622 18
-910.64923 1225.9353 2854.3396 18
-898.88379 1232.9995 2870.7871 18
-879.52924 1229.7256 2863.1643 18
-860.33887 1226.5566 2855.7864 17
-890.66486 1295.2712 3015.7739 18
-868.88379 1289.4701 3002.2673 18
-864.91296 1310.4104 3051.0225 18
-841.0553 1301.4716 3030.2102 18
-816.70782 1291.368 3006.6863 18
-797.65173 1289.3671 3002.0273 16
-777.43591 1285.3575 2992.6921 16
-764.18518 1292.9451 3010.3582 16
-741.17853 1283.9946 2989.5188 16
-723.0116 1283.1952 2987.6575 16
-703.22644 1279.4116 2978.8481 16
-688.27618 1284.4559 2990.593 16
-670.58246 1284.512 2990.7231 16
-618.49945 1216.9093 2833.3242 16
-598.03192 1209.4735 2816.0115 16
-583.99597 1214.9916 2828.8594 16
-598.63214 1282.2507 2985.4585 16
-580.29443 1280.8264 2982.1423 16
-561.68054 1278.6841 2977.1541 16
-548.60187 1289.4125 3002.1331 16
-535.06018 1299.7355 3026.168 16
-481.13583 1209.2771 2815.5544 16
-457.22577 1190.4669 2771.7588 16
-470.52817 1270.7545 2958.6919 16
-451.19128 1265.6964 2946.9153 16
-434.2084 1267.1008 2950.1848 18
-413.26392 1256.5769 2925.6821 18
-375.13037 1190.5774 2772.0159 18
-382.11505 1268.2853 2952.9429 18
-362.43323 1260.6953 2935.271 18
-339.4418 1240.2473 2887.6619 18
-325.09317 1250.8835 2912.4263 18
-308.62375 1254.0946 2919.9026 18
-292.5795 1259.5176 2932.5288 16
-275.31229 1260.0282 2933.7178 16
-256.33469 1252.2522 2915.613 16
-242.35989 1269.5582 2955.9065 16
-217.27676 1226.8384 2856.4421 16
-200.79367 1229.5623 2862.7839 16
-188.61592 1261.5856 2937.3438 16
-167.31133 1232.8677 2870.4802 16
-148.63202 1219.1837 2838.6199 16
-126.76305 1172.5038 2729.9351 16
-110.61863 1172.8618 2730.7686 16
-93.709663 1163.8469 2709.7795 16
-81.8442 1226.6964 2856.1116 18
-64.444923 1217.752 2835.2864 18
-47.852642 1223.1256 2847.7976 18
-29.446913 1162.7482 2707.2212 18
-13.827334 1199.5297 2792.8594 18
2.7220623 1198.7883 2791.1333 18
19.487141 1212.7426 2823.623 18
36.574642 1224.599 2851.2283 18
51.061577 1169.4044 2722.7188 18
70.116203 1220.2064 2841.001 18
81.69902 1146.483 2669.3513 18
97.411346 1145.2272 2666.4272 18
117.97665 1193.4131 2778.6182 18
135.83864 1205.799 2807.4561 18
151.81264 1200.5511 2795.2378 18
158.10443 1127.3009 2624.6895 18
172.77748 1121.5792 2611.3677 18
188.24535 1121.5337 2611.2615 18
202.24495 1113.4116 2592.3513 18
217.25255 1111.5941 2588.1194 18
234.35474 1120.0269 2607.7532 18
247.93779 1111.6378 2588.2212 18
267.63614 1130.0472 2631.0837 18
282.20807 1125.9758 2621.6042 18
294.42093 1113.408 2592.3425 18
311.28256 1118.795 2604.8855 18
326.10297 1116.6833 2599.9685 18
342.98993 1121.5194 2611.2285 18
356.55908 1115.5576 2597.3477 18
372.72778 1117.8857 2602.7683 18
383.19095 1103.5968 2569.4995 18
395.18198 1094.6322 2548.6272 18
438.83832 1170.8101 2725.9915 18
425.13248 1093.9711 2547.0879 18
470.28738 1168.6715 2721.0125 18
455.45709 1094.2965 2547.8457 18
474.81158 1104.1927 2570.8867 16
489.8801 1103.8162 2570.01 16
502.54062 1098.2002 2556.9343 16
512.64825 1087.4974 2532.0154 16
527.66589 1087.5229 2532.0747 16
543.91278 1090.0105 2537.8665 16
560.49872 1093.0253 2544.8857 15
614.68561 1167.2863 2717.7874 15
630.94647 1167.5724 2718.4536 16
640.79926 1156.2814 2692.1648 16
654.53247 1152.371 2683.0601 16
669.94708 1151.536 2681.116 16
681.47614 1144.2157 2664.0723 13
700.20776 1149.0464 2675.3196 14
711.9353 1142.4241 2659.9006 14
725.61365 1139.1511 2652.2803 14
741.04413 1138.7094 2651.2517 14
756.21973 1137.9023 2649.3728 14
776.13586 1144.1163 2663.8408 14
794.55768 1147.9236 2672.7053 14
805.56116 1141.0742 2656.7578 14
821.44446 1141.267 2657.2068 14
830.37073 1131.9686 2635.5574 12
864.48413 1156.7151 2693.1743 12
878.7865 1154.5369 2688.1028 13
881.46265 1137.4338 2648.282 14
896.09814 1136.0916 2645.1567 14
908.9389 1132.559 2636.9319 14
935.66016 1146.149 2668.5735 14
941.91992 1134.6394 2641.7756 14
961.86212 1139.7184 2653.6011 14
984.901 1148.2443 2673.4519 14
996.48065 1143.3521 2662.0613 14
943.21906 1065.3737 2480.5046 14
954.58008 1061.6602 2471.8584 14
968.51428 1060.8773 2470.0359 15
979.41394 1056.8435 2460.644 15
992.37042 1055.115 2456.6194 16
1001.6205 1049.5525 2443.6685 14
1013.9323 1047.3113 2438.45 14
1032.4823 1051.4858 2448.1697 14
1055.2164 1059.7471 2467.4041 14
1070.0806 1059.9865 2467.9617 14
1082.3783 1057.7115 2462.665 12
1081.9534 1043.23 2428.9475 12
1114.5065 1060.5088 2469.1777 12
1129.5624 1060.906 2470.1028 11
1032.0935 956.9599 2228.0854 196614
1047.9994 959.43347 2233.8445 1050119
1075.4575 972.28918 2263.7764 3153690
1089.396 972.75604 2264.8635 5653046
1084.9358 956.98267 2228.1384 6771008
1090.0177 949.90436 2211.658 7756619
1095.6895 943.50201 2196.7515 8809308
1107.0447 942.08667 2193.4561 9533032
1122.3011 943.9856 2197.8772 9467238
1144.5509 951.65558 2215.7354 8611416
1158.538 952.35931 2217.3738 8940638
1165.8589 947.62909 2206.3604 9072224
1189.8628 956.41333 2226.8127 9598311
1200.2205 954.15643 2221.5581 8874845
1212.6626 953.58771 2220.2339 9203810
1217.4763 947.09692 2205.1213 9335396
1238.4386 953.17279 2219.2678 9006431
1254.4528 955.3526 2224.343 9927019
1268.3181 955.86761 2225.5422 9400932
1285.4164 958.78351 2232.3313 8940381
1297.325 957.80847 2230.061 8940381
1308.0842 956.01312 2225.8809 4860958
1304.8357 944.11816 2198.186 9466725
1326.6312 950.40009 2212.812 9729897
1339.3091 950.09088 2212.0923 8940381
1353.0259 950.51764 2213.0859 8940381
1367.9432 951.77161 2216.0054 10716791
1389.3282 957.45874 2229.2468 9663849
1396.6705 953.45245 2219.9189 9400676
1413.47 955.91663 2225.6562 9663850
1431.4746 959.14282 2233.1677 8874334
1438.4095 954.96075 2223.4307 8742491
1453.886 956.47388 2226.9536 9598057
1457.5117 950.23346 2212.4243 8874334
1476.6699 954.14062 2221.5212 8874077
1494.2416 956.96271 2228.0918 9005663
1511.1711 959.32764 2233.5981 9795690
1524.1455 959.16254 2233.2136 9729896
1537.8066 959.42871 2233.8335 8742746
1546.62 956.69165 2227.4607 8874589
1552.3846 952.13104 2216.8423 9005920
1565.8474 952.32886 2217.303 8019025
1581.0946 953.59967 2220.2617 8676955
1606.4995 960.92529 2237.3179 9138019
1614.594 957.86151 2230.1846 9071969
1632.8993 960.85596 2237.1565 8808541
1646.3123 960.94647 2237.3672 9334628
1659.2119 960.73834 2236.8826 8808542
1673.4608 961.30853 2238.2102 9400935
1692.2997 964.48572 2245.6077 9334886
1698.8468 960.6626 2236.7063 8742751
1700.9584 954.40985 2222.1482 8545372
1717.6036 956.34552 2226.6548 9203559
1731.7985 956.89758 2227.9402 8940387
1739.516 953.8894 2220.9363 8743008
1750.2815 952.58527 2217.8999 9006180
1773.4978 958.02637 2230.5684 8940130
1789.2892 959.40576 2233.78 8150614
1786.4816 950.86554 2213.8958 8940900
1805.8451 954.16443 2221.5767 8545886
1812.4116 950.70282 2213.5171 9138276
1822.2374 948.9884 2209.5254 9401449
1840.895 951.86511 2216.2231 8677468
1861.7773 955.8432 2225.4854 9006691
1871.9799 954.32092 2221.9409 8348505
1886.0151 954.76019 2222.9636 9269608
1900.7948 955.56744 2224.8433 8940642
1920.2946 958.72015 2232.1838 7492938
1922.8173 953.41187 2219.8245 8216408
1929.3765 950.16357 2212.2615 8676960
1942.6262 950.23169 2212.4202 7361614
1968.6681 956.51434 2227.0479 8085335
1956.2142 944.13391 2198.2227 8414299
1980.1266 949.35266 2210.3735 8940387
1996.0421 950.69415 2213.4968 9466731
1998.5686 945.68262 2201.8284 8743261
2007.0962 943.55731 2196.8801 8677469
2031.1144 948.6947 2208.8416 8808801
2039.7314 946.61884 2204.0083 8282457
2059.5942 949.75531 2211.3108 8216407
2066.1353 946.7475 2204.3079 8150871
2075.7183 945.16284 2200.6184 8545629
2085.542 943.70697 2197.2285 7953492
2091.8848 940.70367 2190.2361 7953749
0 0 0 0
0 0 0 0
0 0 0 0
0 0 0 0
0 0 0 0
0 0 0 0
0 0 0 0
0 0 0 0
0 0 0 0
-2513.1997 1240.6713 2849.3342 17
-2487.8367 1236.4581 2839.6582 16
-2430.5571 1216.2169 2793.1721 16
