# .PCD v0.7 - Point Cloud Data file format
VERSION 0.7
FIELDS x y z rgb
SIZE 4 4 4 4
TYPE F F F U
COUNT 1 1 1 1
WIDTH 1362
HEIGHT 1
VIEWPOINT 0 0 0 1 0 0 0
POINTS 1362
DATA ascii
2342.25 859.28149 5476.8643 8744280
2368.8723 857.17017 5463.4077 9204321
2407.2991 859.32965 5477.1714 9270114
2417.2634 851.40662 5426.6719 9335650
2454.4072 853.13916 5437.7144 9204064
2456.6812 842.86316 5372.2178 9533029
2527.5845 856.09503 5456.5547 9204576
2521.3325 843.19006 5374.3013 9204317
2534.0747 836.87994 5334.082 9204061
2566.5408 837.15881 5335.8599 9138268
2596.6838 836.6825 5332.8237 9138267
2671.1609 850.33075 5419.8149 7624773
2712.9622 853.37634 5439.2266 8809306
2685.2021 834.72656 5320.3569 8546388
2670.1287 820.40765 5229.0913 8676173
2549.1941 774.26404 4934.9829 4005391
2606.2493 782.61481 4988.2085 3807497
2561.5295 760.55963 4847.6338 2031872
2577.0181 756.67212 4822.856 4991778
2610.656 758.14062 4832.2158 917504
0 0 0 0
2708.4121 769.64453 4905.5391 12819326
2753.082 774.03003 4933.4912 12688510
2812.5327 782.43536 4987.0649 12951941
2869.0459 789.85718 5034.3701 13281680
2904.572 791.40802 5044.2544 13546141
2971.9485 801.51691 5108.6865 13480091
2999.6841 800.83899 5104.3652 12887700
3131.0459 827.56384 5274.7031 8085075
3246.9082 849.70416 5415.8208 8284249
3202.2415 829.81244 5289.0356 7627094
3253.533 834.93152 5321.6631 8021594
3318.1287 843.33356 5375.2163 6377030
3298.4595 830.36285 5292.5439 7099987
3292.3188 821.01007 5232.9312 786432
3200.4375 790.65002 5039.4233 9667706
3246.4807 794.60992 5064.6626 9206641
3294.4409 798.96216 5092.4028 9469298
3362.3167 808.02142 5150.1445 9271145
3475.3484 827.67181 5275.3916 9335654
3530.8682 833.39716 5311.8838 10980217
3546.2485 829.6308 5287.8779 12032901
3606.3489 836.30103 5330.3921 12229511
3656.124 840.48169 5357.0386 12229253
3651.7444 832.24823 5304.5605 13018766
3676.7046 830.78497 5295.2344 13347735
3696.9492 828.28998 5279.3315 12625039
3667.3647 814.76654 5193.1362 11374977
3736.9683 823.32092 5247.6602 12230803
3785.2581 827.07715 5271.6016 12033940
3802.9192 824.1344 5252.8447 9730672
3807.5332 818.43475 5216.5171 9927281
3864.8076 824.05542 5252.3413 9861486
3872.3499 819.06696 5220.5459 9203555
3995.4707 838.41058 5343.8379 9071196
4030.1899 839.04559 5347.8857 9005402
4118.8291 850.80884 5422.8618 9071451
4143.9604 849.37292 5413.7095 8939610
4031.6985 820.01428 5226.5845 9334880
4096.6836 826.87927 5270.3403 9071709
4148.9033 831.08319 5297.1348 9005405
4322.7476 859.40399 5477.645 10519414
4325.0889 853.46045 5439.7627 10848893
4275.4463 837.42273 5337.542 11047297
4216.1616 819.74615 5224.875 11179653
4217.7661 814.07935 5188.7563 12625298
4314.2168 826.66858 5268.9976 10716016
4375.5059 832.38794 5305.4512 9927015
4352.1714 822.04187 5239.5078 10519153
4347.7129 815.38239 5197.062 10453618
4391.6802 817.83466 5212.6919 10190191
4320.6719 798.99103 5092.5869 9400931
4270.9028 784.3092 4999.0083 8873820
4324.1128 788.61053 5026.4238 8742492
4406.4932 798.13654 5087.1406 4860450
4344.8286 781.61981 4981.8667 589824
4286.9429 766.00128 4882.3179 9799550
4340.9937 770.45923 4910.7314 9864061
4270.6729 752.93079 4799.0093 9930112
4295.2026 752.24591 4794.644 9336949
4236.0254 737.00629 4697.5103 8415334
4309.0264 744.81262 4747.2661 8283233
4388.1196 753.56396 4803.0449 9731440
4506.4482 768.89667 4900.7725 9797486
4608.3125 781.24194 4979.4585 9664872
4896.5762 824.82922 5257.2739 10717556
5015.1611 839.46368 5350.5503 11441027
5026.4199 836.06213 5328.8696 12230541
5065.3379 837.27502 5336.6006 12427663
5096.1738 837.14532 5335.7734 12492943
0 0 0 0
0 0 0 0
0 0 0 0
0 0 0 0
-5298.7886 946.34283 5812.2319 14
-5197.3931 934.30731 5738.313 14
-5329.998 964.45544 5923.4761 14
-5387.1099 981.25238 6026.6392 14
-5350.4785 981.08435 6025.6069 12
-5295.0376 977.44202 6003.2363 12
-5107.3384 949.17072 5829.6006 12
-5200.356 973.03955 5976.1978 12
-5235.6069 986.35266 6057.9639 12
-5211.0977 988.51367 6071.2363 12
-5188.9839 991.16211 6087.5024 12
-5170.3862 994.52405 6108.1509 12
-5133.2373 994.33997 6107.02 12
-5618.3628 1096.0393 6731.6353 12
-5151.0166 1012.0547 6215.8203 12
-4977.6689 985.04028 6049.9033 12
-4977.394 992.1319 6093.4585 12
-5058.0142 1015.5697 6237.4087 12
-5034.2847 1018.2466 6253.8496 12
-5002.8901 1019.4012 6260.9414 12
-4975.6836 1021.433 6273.4199 11
-4955.4985 1024.9478 6295.0063 11
-4935.0098 1028.4524 6316.5308 14
-4936.2661 1036.5768 6366.4292 13
-4944.6914 1046.3434 6426.4141 13
-4763.835 1015.8969 6239.4185 12
-4861.6128 1044.8583 6417.2925 12
-4716.2627 1021.6112 6274.5142 12
-4693.417 1024.7419 6293.7422 12
-4924.0723 1083.7144 6655.9385 12
-4805.8062 1066.2269 6548.5337 13
-4838.7588 1082.2773 6647.1123 14
-5122.7539 1155.2026 7095.0034 14
-4622.3413 1050.9838 6454.9141 14
-4513.0127 1034.6884 6354.8311 270
-4561.8179 1054.679 6477.6089 270
-4767.5103 1111.5884 6827.1343 270
-4613.855 1084.9697 6663.6484 270
-4412.0967 1046.4822 6427.2661 270
-4386.3579 1049.4371 6445.4146 270
-4281.8477 1033.4323 6347.1162 270
-4376.3838 1065.6096 6544.7432 270
-4440.5146 1090.8929 6700.0278 14
-4371.457 1083.6172 6655.3413 14
-4099.6929 1025.5034 6298.4194 14
-4086.3982 1031.5698 6335.6777 14
-4733.459 1205.9948 7406.958 14
-4442.4932 1142.4567 7016.7207 14
-4420.7871 1147.6166 7048.4116 270
-4423.3516 1159.2354 7119.772 270
-4386.0117 1160.5197 7127.6597 270
-4405.0908 1176.9022 7228.2778 271
-4528.4077 1221.729 7503.5942 271
-4326.1846 1178.7457 7239.6006 271
-4276.3008 1176.8247 7227.8018 14
-4190.8608 1164.981 7155.0605 14
-4176.7363 1172.9221 7203.833 14
-4145.0405 1176.0417 7222.9932 14
-4118.5137 1180.7085 7251.6553 14
-4112.8423 1191.5155 7318.0293 14
-4078.95 1194.29 7335.0698 14
-4039.8274 1195.5763 7342.9702 14
-3996.6025 1195.6635 7343.5054 14
-3958.5513 1197.3173 7353.6626 14
-3932.8857 1202.796 7387.3115 14
-3887.7732 1202.3834 7384.7778 14
-3752.408 1173.7308 7208.8003 14
-3811.0532 1205.8029 7405.7793 14
-3731.7339 1194.462 7336.126 14
-3711.6772 1202.0464 7382.7075 270
-3688.0662 1208.6467 7423.2456 270
-3628.2156 1203.3867 7390.9395 270
-3491.9546 1172.345 7200.2886 270
-3390.5544 1152.384 7077.6924 270
-3332.9402 1146.9912 7044.5713 270
-3290.054 1146.5944 7042.1338 270
-3147.2341 1110.9127 6822.9849 14
-3158.5276 1129.4094 6936.5869 14
-3192.53 1156.6211 7103.7153 14
-3260.3762 1196.985 7351.6216 15
-3281.8057 1221.1705 7500.1646 15
-3275.9258 1235.7188 7589.5161 16
-3220.0032 1231.5323 7563.8042 18
-3121.5864 1210.7462 7436.1401 18
-3043.9795 1197.5514 7355.1006 18
-2983.7825 1190.9221 7314.3853 19
-2931.7722 1187.4132 7292.834 19
-3079.9636 1266.0973 7776.0947 19
-3047.7441 1271.8827 7811.6274 19
-3221.3462 1365.0647 8383.9307 19
-2985.9028 1285.1155 7892.8999 19
-2754.2351 1204.2722 7396.3784 19
-2704.6895 1201.7338 7380.7876 19
-2656.6326 1199.7843 7368.8145 19
-2615.5105 1200.9537 7375.9976 19
-2578.7625 1204.2056 7395.9692 19
-2468.5757 1172.6833 7202.3662 19
-2467.7588 1192.9214 7326.6641 19
-2241.9519 1103.1757 6775.4653 19
-2370.9963 1187.9492 7296.1265 21
-2160.1589 1102.4166 6770.8037 21
-2269.1592 1179.9618 7247.0688 19
-2205.8318 1169.1599 7180.7261 21
-2284.1567 1234.4901 7581.9702 21
-2173.8257 1198.4355 7360.5312 21
-2102.865 1183.0541 7266.061 21
-1903.1078 1093.0548 6713.3057 18
-2013.7886 1181.3202 7255.4116 19
-2072.9448 1242.5521 7631.4858 19
-2088.7534 1279.9531 7861.1943 19
-1948.5426 1221.2733 7500.7954 19
-1978.0284 1268.6963 7792.0566 19
-1840.5907 1208.7632 7423.9609 19
-1916.3761 1289.353 7918.9263 19
-1588.5569 1095.6238 6729.0835 19
-1535.5585 1086.3417 6672.0747 19
-1500.1367 1089.3323 6690.4424 19
-1473.684 1099.1749 6750.894 18
-1441.088 1104.8571 6785.7925 21
-1401.3812 1105.2572 6788.2495 21
-1463.4901 1188.3553 7298.6201 21
-1381.3574 1155.8236 7098.8179 21
-1256.677 1084.5289 6660.9414 21
-1218.3506 1085.5516 6667.2222 21
-1154.6155 1063.2449 6530.2192 21
-1203.7288 1146.9128 7044.0894 21
-1171.6709 1156.4741 7102.813 21
-1104.0709 1130.3596 6942.4233 21
-1073.771 1141.8898 7013.2388 21
-1028.7596 1138.0739 6989.8027 21
-985.70825 1136.1969 6978.2749 21
-925.4353 1113.4354 6838.479 21
-837.50439 1053.7888 6472.1416 21
-806.86298 1063.9604 6534.6143 21
-809.56543 1121.3431 6887.0459 21
-769.04163 1121.7665 6889.6465 21
-725.26703 1117.2299 6861.7832 21
-686.44031 1120.2289 6880.2021 21
-643.65594 1116.7401 6858.7749 21
-599.34894 1109.9612 6817.1401 21
-557.41125 1106.9072 6798.3838 21
-516.11749 1104.7557 6785.1699 21
-475.98178 1104.9291 6786.2349 21
-437.80771 1110.1084 6818.0444 21
-397.20496 1109.5564 6814.6543 21
-356.56827 1108.7742 6809.8501 21
-315.25516 1105.4203 6789.251 21
-274.83652 1104.6803 6784.7065 21
-234.06021 1102.0028 6768.2617 20
-193.46298 1099.2354 6751.2646 19
-153.39412 1098.8097 6748.6504 19
-113.40507 1098.8571 6748.9414 19
-73.389091 1098.553 6747.0737 19
-33.351318 1096.8043 6736.334 21
6.5609822 1095.3601 6727.4634 21
46.427948 1095.3267 6727.2583 21
85.991058 1091.4673 6703.5552 21
124.21147 1078.39 6623.2368 21
165.68575 1093.0592 6713.332 21
205.39827 1092.6754 6710.9756 21
245.13675 1092.532 6710.0942 21
284.96558 1092.7751 6711.5874 21
324.66348 1092.5179 6710.0083 21
363.12299 1088.6045 6685.9722 21
401.25223 1084.5682 6661.1826 21
441.5296 1086.5413 6673.3008 19
480.84927 1086.027 6670.1421 19
520.77563 1086.8568 6675.2388 19
560.45465 1087.09 6676.6704 19
597.94055 1083.3188 6653.5093 19
635.49597 1080.1324 6633.939 19
672.79578 1076.9082 6614.1362 19
709.20172 1072.687 6588.2104 19
744.22632 1066.926 6552.8276 19
779.42944 1061.9796 6522.4482 19
814.33075 1057.1089 6492.5337 19
851.85516 1055.9292 6485.2881 19
878.85815 1042.3723 6402.0244 18
916.21545 1041.7101 6397.957 18
947.94 1034.9507 6356.4429 18
969.29431 1017.8186 6251.2207 18
1008.0464 1019.5441 6261.8188 18
1045.434 1019.816 6263.4888 18
1071.3992 1009.3088 6198.9556 18
1102.8385 1004.4841 6169.3237 18
1143.7213 1008.2944 6192.7256 16
1178.8002 1006.9103 6184.2241 65552
1211.666 1003.7762 6164.9756 65551
1223.4623 983.88184 6042.7886 131081
1157.2252 904.15094 5553.0986 262146
1196.7184 909.15295 5583.8203 4799284
1180.3621 872.59839 5359.3101 8877156
1200.5728 864.28394 5308.2441 9271138
1261.9283 885.25763 5437.0601 9665896
1294.693 885.62933 5439.3433 9665639
1326.7697 885.52386 5438.6953 9731688
1356.6691 884.0047 5429.3647 9797482
1380.9249 878.96375 5398.4043 9731432
1419.4052 882.99994 5423.1938 9665896
1444.358 878.62842 5396.3452 9665896
1474.3153 877.42474 5388.9521 9863275
1512.7521 881.21149 5412.21 9665641
1524.0282 869.3479 5339.3462 9599848
1555.291 869.13593 5338.0439 9534056
1587.4812 869.44037 5339.9141 9402470
1615.3352 867.40436 5327.4092 9336677
1650.9823 869.55103 5340.5938 9797228
1684.9186 870.73279 5347.8516 9863019
1712.5199 868.65759 5335.1064 9599076
1744.6326 868.90442 5336.6226 9467747
1785.894 873.61798 5365.5718 9467490
1814.8352 872.24518 5357.1401 9533539
1838.0526 868.21582 5332.3931 9599076
1889.8524 877.5957 5390.002 9468260
1902.0255 868.56805 5334.5562 9336161
1910.8523 858.33234 5271.6909 9336161
1958.7737 865.70441 5316.9683 9335907
1989.8717 865.52539 5315.8691 9204575
2026.7466 867.82556 5329.9966 9270111
2035.3787 858.14764 5270.5562 9007196
2056.0149 853.74664 5243.5269 9072988
2077.3542 849.76453 5219.0693 8744794
2130.4304 858.6911 5273.894 8744793
2176.3464 864.51514 5309.6646 8942173
2195.2764 859.60638 5279.5156 8876636
2227.9668 860.14801 5282.8423 8810330
2261.7424 861.08777 5288.6138 8876123
2301.178 864.1272 5307.2812 9007452
2334.6506 864.87573 5311.8789 9007196
2369.4846 866.10187 5319.4097 9336161
2398.4321 865.17261 5313.7021 9401954
2419.0911 861.31604 5290.0161 9533540
2444.6279 859.27295 5277.4678 9270368
2469.4365 857.02856 5263.6836 9203806
2505.6675 858.75494 5274.2866 9335907
2531.0334 856.76099 5262.04 9467495
2567.9126 858.66541 5273.7363 9796975
2637.2546 871.24841 5351.0186 6310721
2685.4836 876.64044 5384.1353 655360
2641.3213 852.10004 5233.4131 655360
2604.6851 830.52887 5100.9282 1180677
2542.8828 801.52045 4922.7646 4600370
2565.3645 799.43524 4909.9575 655360
2595.8733 799.87006 4912.6284 1048576
2618.8564 798.00214 4901.1558 5125418
2583.3074 778.53534 4781.5947 2296581
2671.4585 796.36603 4891.1069 6176821
2702.6855 797.02704 4895.167 12622198
2727.7993 795.89026 4888.1851 12819066
2769.2456 799.49268 4910.3101 12753272
2807.4805 802.1026 4926.3398 12425336
2853.2051 806.77673 4955.0474 13150605
2889.3391 808.67133 4966.6836 13614500
2911.0498 806.53162 4953.542 13878700
3003.594 823.86371 5059.9922 12823190
3171.9727 861.44843 5290.8291 10388079
3228.6931 868.2699 5332.7251 9005655
3224.0403 858.61438 5273.4233 7821126
3235.5762 853.41425 5241.4849 7229509
3169.1543 827.94641 5085.0674 3876640
3225.9983 834.85846 5127.519 851968
3222.6462 826.20856 5074.3936 5456704
3194.5405 811.43109 4983.6338 10455161
3238.3562 815.02551 5005.71 10915965
3293.2837 821.32587 5044.4048 10585973
3368.2974 832.47723 5112.894 10453875
3406.3447 834.37482 5124.5488 10519412
3496.5266 848.89636 5213.7368 11505790
3498.7292 841.99066 5171.3237 12032132
3559.3906 849.15125 5215.3027 12557963
3548.1106 839.17346 5154.021 12360840
3574.7119 838.24896 5148.3433 12360839
3594.3577 835.7229 5132.8286 11637373
3640.5872 839.36829 5155.2178 11375487
3593.1396 821.53473 5045.688 12822936
3648.051 827.20575 5080.5181 13021344
3671.4006 825.68579 5071.1826 12888475
3673.6204 819.47705 5033.0498 10980479
3830.623 847.61768 5205.8838 7558730
3759.071 825.13953 5067.8281 9006176
3832.2053 834.52563 5125.4751 9532007
3849.4858 831.69653 5108.0996 9400932
3897.426 835.48413 5131.3618 9532517
3910.9944 831.90179 5109.3604 9334628
3940.7288 831.78693 5108.6543 9269092
3975.1453 832.65436 5113.9819 9137250
3967.2327 824.70935 5065.1855 9005920
3971.2932 819.354 5032.2939 8940640
3962.2705 811.39917 4983.4375 8743263
4058.3328 824.9223 5066.4937 8085589
4060.8762 819.3772 5032.437 8414041
4139.3804 829.12817 5092.3252 11177855
4209.7646 837.12329 5141.4292 13612197
4282.3535 845.43866 5192.501 13809574
4315.4058 845.88562 5195.2461 13019289
4311.7275 839.17755 5154.0464 11440256
4334.7324 837.72064 5145.0981 9465441
4292.4731 823.75928 5059.3506 10189935
4291.4067 817.84204 5023.0083 10124399
4257.4404 805.77954 4948.9229 9664106
4201.1953 789.6944 4850.1313 9138276
4253.7119 794.13275 4877.3911 9006945
4281.4565 793.91766 4876.0698 8677726
4256.6836 784.03229 4815.356 8480605
4270.208 781.28564 4798.4868 8415073
4307.8159 782.95251 4808.7241 8349279
4217.7305 761.54144 4677.2222 8349536
4232.2217 759.16882 4662.6499 9336430
4250.7085 757.53906 4652.6401 9468269
4389.6831 777.26465 4773.7905 8547421
4328.8911 761.59216 4677.5337 9533287
4338.2554 758.38324 4657.8252 10124910
4537.7041 788.23413 4841.1631 10124654
4658.2275 804.08612 4938.5225 10124653
4686.209 803.86566 4937.1685 10716790
4793.667 817.19666 5019.0444 10782325
0 0 0 0
0 0 0 0
0 0 0 0
0 0 0 0
-5280.7451 977.44745 5792.4399 14
-5233.8413 975.10443 5778.5547 14
-5309.0869 995.6377 5900.2368 14
-5355.0928 1010.9233 5990.8208 14
-5222.2295 992.42126 5881.1758 12
-5177.8809 990.60449 5870.4097 12
-5168.2144 995.44342 5899.0854 12
-5169.1875 1002.4116 5940.3789 12
-5136.8467 1002.9705 5943.6914 12
-5114.7886 1005.5588 5959.0303 12
-5116.0894 1012.8074 6001.9858 12
-5119.7695 1020.6317 6048.3535 12
-5097.5347 1023.3639 6064.5444 12
-5170.3887 1045.36 6194.8955 12
-5048.1113 1027.9366 6091.6426 12
-4930.7026 1011.2607 5992.8198 12
-4900.9702 1012.4552 5999.8984 12
-4960.873 1032.3196 6117.6167 12
-4844.4819 1015.5209 6018.0664 12
-5036.6621 1063.637 6303.2061 12
-4980.0698 1059.5438 6278.9502 12
-4990.6362 1069.7852 6339.6411 12
-4708.2104 1016.9002 6026.2402 12
-4594.7988 999.99017 5926.0298 12
-4710.4956 1033.0657 6122.0386 12
-4785.2773 1057.6121 6267.5024 12
-5116.1919 1139.5941 6753.335 12
-4956.8823 1112.8141 6594.6343 12
-4469.0537 1011.2703 5992.877 12
-4667.272 1064.5839 6308.8174 12
-4754.0244 1093.1283 6477.9741 13
-4784.396 1109.0677 6572.4331 12
-4726.8276 1104.7164 6546.6465 14
-4646.6606 1094.9678 6488.875 14
-4581.459 1088.6122 6451.2114 14
-4586.9507 1099.0886 6513.2959 15
-4592.1338 1109.6686 6575.9932 16
-4552.0225 1109.3905 6574.3457 16
-4247.2231 1044.0427 6187.0894 13
-4223.9321 1047.3593 6206.7427 14
-4229.3271 1057.9093 6269.2637 14
-4172.9023 1053.046 6240.4434 14
-4165.2559 1060.5153 6284.7065 14
-4782.9521 1228.774 7281.8232 14
-4531.6626 1174.8157 6962.061 14
-4005.2031 1047.8735 6209.7905 14
-4140.3613 1093.2799 6478.8726 14
-4319.9419 1151.3761 6823.1562 270
-4308.4009 1159.15 6869.2246 270
-4442.7603 1206.7003 7151.0117 14
-4320.8784 1184.8983 7021.812 16
-4470.1597 1237.7556 7335.0483 16
-4220.0811 1179.9851 6992.6953 16
-4346.9424 1227.5109 7274.3374 270
-4140.1201 1180.8177 6997.6299 14
-4104.7739 1182.5818 7008.0835 14
-4068.5117 1184.1154 7017.1719 15
-4019.4563 1181.9188 7004.1548 15
-4018.5845 1193.9926 7075.7046 15
-3984.5491 1196.3635 7089.7559 15
-3934.7185 1193.9921 7075.7021 14
-3874.4604 1188.3711 7042.3921 14
-3847.667 1193.0038 7069.8452 14
-3810.3154 1194.4287 7078.29 14
-3774.8855 1196.4946 7090.5327 14
-3730.8308 1195.8424 7086.6675 14
-3633.0356 1177.7539 6979.4731 14
-3492.8215 1145.339 6787.3794 14
-3409.6445 1131.09 6702.9385 14
-3338.0059 1120.3777 6639.457 270
-3609.7344 1226.0332 7265.5806 270
-3504.0906 1204.5194 7138.0879 270
-3239.6921 1127.2416 6680.1328 270
-3201.147 1127.6089 6682.3096 14
-3241.1116 1155.9868 6850.48 14
-3188.0815 1151.4965 6823.8691 14
-3159.6423 1155.8865 6849.8853 14
-3106.2175 1151.1316 6821.707 14
-2950.1155 1107.6982 6564.3174 16
-3043.4885 1158.028 6862.5752 16
-3235.6479 1247.8175 7394.6763 15
-2819.854 1102.3983 6532.9097 18
-3035.8782 1203.3729 7131.2939 18
-2904.6777 1167.6213 6919.4268 18
-2766.762 1128.1078 6685.2656 18
-2727.1238 1128.0995 6685.2168 19
-2688.4841 1128.5103 6687.6509 19
-2796.1687 1191.2728 7059.5874 19
-2941.6443 1272.287 7539.6846 19
-2852.0381 1252.5571 7422.7637 19
-2887.8372 1288.1472 7633.6738 19
-2671.822 1210.7585 7175.0615 19
-2694.197 1240.6422 7352.1548 19
-2645.3911 1238.1918 7337.6333 19
-2642.4373 1257.4794 7451.9336 18
-2637.8865 1276.6498 7565.5386 18
-2592.6182 1276.4364 7564.2744 19
-2549.0554 1277.0702 7568.0298 19
-2503.0112 1276.4609 7564.4199 19
-2387.7688 1239.8971 7347.7388 19
-2285.8936 1209.0449 7164.9062 19
-2300.0596 1239.5625 7345.7563 19
-2254.2698 1238.3225 7338.4082 21
-2254.3315 1262.7166 7482.9692 21
-2184.4197 1248.1089 7396.4028 21
-2111.5188 1231.1602 7295.9634 21
-2059.522 1225.946 7265.0645 18
-1988.2695 1208.8025 7163.4697 19
-1943.6921 1207.4823 7155.6465 19
-1884.0245 1196.5195 7090.6802 19
-1797.4163 1167.5566 6919.0439 19
-1742.1812 1158.0966 6862.9819 19
-1841.3224 1253.2572 7426.9121 19
-1735.4882 1210.1498 7171.4541 19
-1629.759 1164.9531 6903.6147 19
-1495.296 1096.3612 6497.1328 19
-1462.6556 1100.7737 6523.2812 19
-1416.8951 1095.2836 6490.7466 18
-1384.5624 1100.1566 6519.6245 21
-1358.7632 1110.6499 6581.8091 21
-1292.563 1087.7638 6446.1836 21
-1264.6495 1096.6854 6499.0542 21
-1212.6737 1084.6455 6427.7046 20
-1173.0916 1083.2694 6419.5498 20
-1146.2947 1094.0031 6483.1582 20
-1150.0751 1135.6757 6730.1143 20
-1090.4243 1115.4553 6610.2861 21
-1123.275 1191.8788 7063.1787 21
-1089.4423 1200.7236 7115.5942 21
-1057.7386 1212.7222 7186.6978 21
-1016.1578 1213.9274 7193.8403 21
-864.56006 1078.0541 6388.6431 21
-799.91187 1043.1215 6181.6299 20
-780.41052 1066.5353 6320.3818 20
-818.36005 1174.7821 6961.8623 20
-779.44049 1178.3165 6982.8071 20
-736.84204 1176.3738 6971.2944 21
-686.03046 1160.3091 6876.0938 21
-632.93384 1138.1067 6744.5205 21
-589.59576 1131.6411 6706.2051 21
-548.61237 1129.0872 6691.0698 21
-507.73532 1126.371 6674.9736 21
-467.91385 1125.7354 6671.207 21
-428.28329 1125.4844 6669.7192 21
-392.61148 1136.6432 6735.8472 21
-352.05054 1134.5712 6723.5688 21
-312.16434 1134.4225 6722.6875 21
-270.77512 1127.9694 6684.4453 21
-231.0253 1127.304 6680.502 21
-191.05794 1125.0823 6667.3364 21
-151.28644 1123.156 6655.9214 21
-111.88789 1123.6167 6658.6514 21
-72.347633 1122.3807 6651.3267 21
-32.880901 1120.6918 6641.3184 21
6.457787 1117.3729 6621.6504 21
45.621464 1115.4747 6610.4014 21
84.720581 1114.4812 6604.5132 21
123.69245 1112.9706 6595.5615 21
162.59085 1111.6831 6587.9316 21
201.52815 1111.1086 6584.5273 21
240.59988 1111.3414 6585.9072 21
279.17145 1109.5216 6575.1226 21
316.78442 1104.8043 6547.1675 21
356.0983 1106.4011 6556.6304 21
394.1015 1104.0122 6542.4736 21
430.80328 1098.7321 6511.1826 19
472.51407 1106.0448 6554.519 19
508.19913 1099.2134 6514.0352 19
546.91937 1099.4479 6515.4253 19
583.66376 1095.9414 6494.6455 19
620.2699 1092.6254 6474.9941 19
657.01031 1089.9185 6458.9526 19
691.40106 1083.8263 6422.8496 19
727.07825 1080.2811 6401.8413 19
761.69641 1075.5923 6374.0542 19
799.9585 1076.2489 6377.9458 19
832.95129 1070.077 6341.3701 19
866.20496 1064.7584 6309.8525 18
896.87592 1056.837 6262.9087 18
924.35132 1045.9291 6198.2676 18
952.14197 1036.1982 6140.6016 18
986.87115 1034.4567 6130.2817 18
1016.9374 1028.1248 6092.7578 18
1050.9769 1026.1061 6080.7954 18
1083.8947 1023.1625 6063.3511 18
1124.7678 1027.6766 6090.1016 18
1162.2582 1028.915 6097.4414 17
1192.8682 1024.1716 6069.3315 16
1213.1416 1011.0909 5991.814 14
1238.3317 1002.7354 5942.2979 262153
1124.8137 885.62921 5248.3169 459010
1136.8002 870.98303 5161.522 6180165
1189.0259 887.12665 5257.1904 9469034
1222.6559 888.92584 5267.853 9534054
1253.5341 888.68475 5266.4238 9336675
1288.684 891.4101 5282.5742 9336931
1313.0886 886.74963 5254.9565 9402723
1349.1085 889.96741 5274.0254 9665640
1379.7423 889.56689 5271.6519 9731690
1405.4166 886.0575 5250.8545 9534309
1436.3165 885.92303 5250.0581 9336677
1474.1915 890.00555 5274.251 9468262
1481.0223 875.56543 5188.6777 9599849
1512.1108 875.7619 5189.8423 9534056
1543.2971 876.0061 5191.2891 9928814
1570.5747 874.06531 5179.7881 9665641
1605.7827 876.52795 5194.3818 9599592
1644.6284 880.84631 5219.9727 9599848
1674.0182 880.03412 5215.1597 9599076
1691.9674 873.34625 5175.5264 9467747
1731.5708 877.87457 5202.3623 9533283
1760.3998 876.87769 5196.4546 9467747
1789.3425 875.97083 5191.0801 9467747
1810.3198 871.26093 5163.1689 9665125
1843.0377 872.26422 5169.1147 9599333
1870.7803 870.91852 5161.1396 9599333
1906.2759 873.16742 5174.4668 9533539
1939.3809 874.26727 5180.9849 9138782
1966.2383 872.56042 5170.8701 9204575
1989.51 869.33917 5151.7803 9270367
2023.2745 870.73102 5160.0283 8875353
2051.9331 869.91663 5155.2026 8744794
2063.3611 861.92847 5107.8638 8679001
2097.0396 863.3316 5116.1787 8679001
2122.5471 861.37872 5104.606 8678744
2152.1792 861.13098 5103.1382 8744794
2194.3152 865.82404 5130.9492 8810586
2240.2371 871.86206 5166.7314 8876380
2271.8728 872.25238 5169.0444 8876380
2290.7576 867.80188 5142.6704 9007195
2342.0762 875.59375 5188.8457 9204318
2357.1016 869.79114 5154.459 9204575
2384.0647 868.4859 5146.7236 9138782
2399.5532 863.08618 5114.7246 9204061
2446.1758 868.88007 5149.0601 9006941
2471.7742 867.15546 5138.8394 9204322
2490.0894 862.94879 5113.9102 9139555
2487.6335 851.73157 5047.436 9205092
2575.7654 871.42828 5164.1606 8612700
2599.48 869.12482 5150.5103 8546906
2572.5276 850.13129 5037.9526 6967618
2559.6021 836.15564 4955.1318 4797995
2561.7852 827.37671 4903.1069 983553
2602.9109 831.23083 4925.9473 2427909
2587.7402 817.22083 4842.9224 4073497
2595.144 810.56909 4803.5039 1704704
2667.9033 824.25336 4884.5981 3546124
2594.3064 792.91223 4698.8677 12755330
2649.1165 801.0658 4747.1865 12360057
2715.9592 812.64832 4815.8252 12425592
2759.6824 817.14417 4842.4683 12754561
2764.9851 810.28827 4801.8394 13282191
2846.948 825.80865 4893.8145 13546391
2849.824 818.30682 4849.3579 14273454
2939.7285 835.69489 4952.4014 13746598
2937.0874 826.69073 4899.042 11835265
3001.0015 836.4126 4956.6543 11835268
3073.5352 848.32501 5027.2485 10585458
3074.908 840.55621 4981.21 10059114
3177.5325 860.35004 5098.5103 8414548
3187.8198 855.00525 5066.8364 9269601
3132.5417 832.33905 4932.5146 6704961
3189.375 839.60535 4975.5752 10586491
3186.5872 831.18695 4925.687 10717052
3235.4214 836.26422 4955.7754 9993069
3260.2947 835.11279 4948.9517 10256241
3364.0168 853.99841 5060.8701 10716790
3406.6333 857.17517 5079.6953 10782583
3476.6841 867.13861 5138.7397 10322032
3487.5769 862.30225 5110.0791 10913398
3496.688 857.11255 5079.3242 10782067
3504.6433 851.73035 5047.4292 12558734
3514.5229 846.9032 5018.8228 12821906
3550.9092 848.49066 5028.2305 12821650
3556.1602 842.67383 4993.7593 12822676
3591.969 844.13434 5002.4146 13019544
3616.2935 842.89423 4995.0649 13545629
3691.2083 853.37006 5057.146 12821906
3710.2275 850.85883 5042.2642 12229512
3753.7776 853.96832 5060.6914 10649970
3816.2661 861.3028 5104.1562 8676439
3751.3992 840.00488 4977.9429 9203553
3798.5745 843.93176 5001.2139 9335138
3817.6633 841.60608 4987.4316 9334885
3828.6846 837.55133 4963.4028 9071713
3860.2131 838.01038 4966.123 9071713
3881.9497 836.35278 4956.3003 9005663
3909.4973 835.96265 4953.9883 8874077
3915.1064 830.92224 4924.1182 8940127
3925.1077 826.88165 4900.1733 8874587
3945.302 825.03192 4889.2119 8940380
3985.6084 827.38446 4903.1528 9006173
4141.3901 853.5011 5057.9229 8874331
4242.4653 868.04901 5144.1348 9729641
4303.8765 874.33167 5181.3662 12164238
4288.0967 864.95502 5125.7993 13940904
4234.645 848.16479 5026.2993 14138026
4279.0747 851.07721 5043.5581 13611938
4258.4097 841.0921 4984.3857 12295821
4260.936 835.79346 4952.9858 10387309
4261.2793 830.14227 4919.4961 8741973
4243.3525 821.03284 4865.5127 9269345
4251.5781 817.0722 4842.0415 9466471
4194.0815 800.6189 4744.5381 9401448
4205.6416 797.47931 4725.9326 9006690
4193.2383 789.86737 4680.8232 9072483
4183.0674 782.77313 4638.7827 8874848
4188.4399 778.66144 4614.416 12098704
4182.269 772.47076 4577.7295 11704203
4206.0464 771.85577 4574.085 10783613
4233.9937 772.00897 4574.9932 9270117
4252.0981 770.37689 4565.3213 9862253
4302.0425 774.49774 4589.7417 10190192
4354.188 778.96045 4616.188 10059373
4298.3945 764.17786 4528.585 9532517
4381.1997 774.06622 4587.1846 8874586
0 0 0 0
0 0 0 0
0 0 0 0
0 0 0 0
-5110.2876 979.1156 5605.4653 14
-5128.9922 989.12909 5662.793 14
-5085.5708 987.21472 5651.833 14
-5147.4854 1005.8583 5758.5679 14
-5032.9082 990.03265 5667.9658 12
-5007.2808 991.60925 5676.9922 12
-4904.7466 977.87433 5598.3594 12
-4897.7109 983.12177 5628.4004 12
-4905.1758 991.37164 5675.6318 12
-4962.9722 1009.9783 5782.1553 12
-5004.8203 1025.5756 5871.4497 12
-5340.5605 1102.0363 6309.1899 12
-4840.4448 1005.8787 5758.6846 12
-4678.229 979.07184 5605.2148 12
-4809.4004 1013.7216 5803.5859 12
-4842.1001 1027.9653 5885.1313 12
-4877.9595 1043.0913 5971.728 12
-4867.4961 1048.4604 6002.4668 12
-4731.0435 1026.5708 5877.1475 12
-4758.0015 1040.0771 5954.4722 12
-4667.458 1027.9082 5884.8047 12
-4729.8369 1049.4875 6008.3467 12
-4860.6978 1086.7046 6221.4155 14
-4965.0693 1118.5231 6403.5771 14
-4498.7358 1021.274 5846.8237 14
-4591.4194 1050.4047 6013.5977 14
-4292.0874 989.60602 5665.5234 14
-4596.9429 1068.2516 6115.7715 12
-4612.6904 1080.4294 6185.4897 12
-4376.7749 1033.3832 5916.1484 12
-4687.6772 1115.7266 6387.5674 14
-4732.6289 1135.5959 6501.3193 14
-4472.7358 1082.0433 6194.7295 14
-4509.0972 1099.8673 6296.7725 14
-4676.334 1150.1786 6584.8062 14
-4195.6362 1040.6313 5957.645 14
-4124.2393 1031.6039 5905.9624 13
-4677.2114 1179.9333 6755.1528 13
-4573.0063 1163.6046 6661.6699 14
-4027.5508 1033.7372 5918.1753 14
-4025.1292 1042.1912 5966.5747 14
-4567.3052 1193.0525 6830.2603 14
-4447.9805 1172.2722 6711.2925 14
-4621.1372 1228.8964 7035.4673 14
-4616.6479 1238.8801 7092.625 14
-4571.7344 1238.1 7088.1587 14
-4489.5137 1227.1082 7025.2295 270
-4090.2505 1128.443 6460.3691 270
-4042.9368 1125.9287 6445.9746 270
-4376.5825 1230.4729 7044.4932 271
-4361.6968 1238.0977 7088.145 271
-4311.7573 1235.8237 7075.127 271
-4141.2725 1198.6156 6862.1094 271
-4238.8945 1239.0375 7093.5259 15
-4149.4355 1225.0374 7013.3745 16
-3729.4182 1112.1758 6367.2388 16
-4110.7417 1238.423 7090.0078 16
-3603.1885 1096.7249 6278.7817 16
-3521.9353 1083.1791 6201.2319 16
-3497.4478 1086.9901 6223.0503 15
-3479.2932 1092.8717 6256.7222 15
-3447.8889 1094.6733 6267.0366 14
-3384.186 1086.1479 6218.2285 14
-3874.1323 1257.0836 7196.8403 14
-3310.6575 1086.2045 6218.5527 14
-3335.3994 1106.6407 6335.5508 14
-3302.2419 1108.1133 6343.981 14
-3265.436 1108.3813 6345.5156 14
-3250.7812 1116.2621 6390.6328 270
-3225.1841 1120.5267 6415.0483 270
-3165.6091 1112.9475 6371.6567 14
-3152.4031 1121.6842 6421.6748 270
-3120.1143 1123.7615 6433.5674 14
-3074.6919 1121.1013 6418.3374 14
-3037.7122 1121.4915 6420.5708 14
-3030.6638 1133.0819 6486.9272 15
-2978.9055 1128.0398 6458.0605 15
-2984.2964 1144.7889 6553.9502 16
-2986.5334 1160.7542 6645.3511 16
-2979.698 1173.5726 6718.7378 18
-3029.1155 1209.1941 6922.6714 18
-2851.7893 1154.0371 6606.896 18
-2839.2131 1164.942 6669.3271 18
-2712.094 1128.494 6460.6606 19
-3015.719 1272.7997 7286.8154 19
-2958.7869 1266.9125 7253.1113 19
-2966.5107 1288.9449 7379.2471 19
-2861.0144 1261.7063 7223.3057 19
-2844.0698 1273.2848 7289.5928 19
-2763.2393 1256.1776 7191.6538 19
-2779.6819 1283.4481 7347.7778 19
-2737.7854 1284.2211 7352.2031 19
-2678.7185 1276.8347 7309.916 19
-2633.8481 1276.0836 7305.6157 19
-2590.2842 1275.9509 7304.8564 19
-2550.0945 1277.5043 7313.749 19
-2504.5999 1276.4076 7307.4707 19
-2458.4075 1274.9106 7298.9004 19
-2417.8333 1276.3256 7307.001 20
-2373.1394 1275.5779 7302.7202 20
-2326.7886 1273.8953 7293.0874 20
-2261.1077 1261.3655 7221.3545 19
-2204.9985 1253.7952 7178.0137 21
-2157.7834 1251.0836 7162.4902 21
-2100.9514 1242.5754 7113.7808 21
-2046.1827 1234.9644 7070.2065 21
-1910.9952 1177.4836 6741.1284 18
-1954.8333 1230.2126 7043.0034 20
-1831.7177 1177.8832 6743.4155 20
-1804.9816 1186.5784 6793.1958 18
-1726.8721 1161.1274 6647.4883 19
-1580.9749 1087.8445 6227.9414 19
-1672.1227 1178.064 6744.4507 19
-1618.4335 1168.1609 6687.7554 19
-1611.7904 1192.5704 6827.5005 19
-1419.7047 1077.4941 6168.6851 19
-1415.2406 1102.4949 6311.8154 19
-1430.5665 1144.6885 6553.375 18
-1352.687 1112.576 6369.5303 21
-1354.947 1146.4261 6563.3232 21
-1308.1036 1139.5029 6523.6875 21
-1270.2356 1140.2145 6527.7607 21
-1156.6066 1070.8285 6130.5244 21
-1115.2302 1066.0056 6102.9131 21
-1087.347 1074.1893 6149.7656 21
-1046.6466 1069.8395 6124.8623 21
-1018.2475 1078.2026 6172.7417 21
-1046.3942 1149.2955 6579.7505 21
-1009.4587 1151.6428 6593.1885 21
-930.97363 1104.8687 6325.4053 20
-924.72906 1143.5009 6546.5757 20
-881.93463 1138.3403 6517.0317 20
-807.02625 1089.3586 6236.6099 19
-800.69019 1132.6793 6484.6221 19
-770.23065 1144.522 6552.4214 21
-731.49286 1144.6678 6553.2568 21
-690.53918 1141.1682 6533.2212 21
-653.0553 1143.3275 6545.5835 21
-613.82648 1142.5117 6540.9131 21
-573.73077 1139.8636 6525.7529 21
-537.65143 1145.3892 6557.3862 21
-496.74982 1140.7019 6530.5518 21
-457.43329 1139.1702 6521.7827 21
-418.24094 1137.6934 6513.3281 21
-378.85669 1135.3413 6499.8623 21
-341.45923 1139.0847 6521.293 21
-303.93036 1143.2891 6545.3633 20
-265.57388 1145.155 6556.0459 20
-226.57855 1144.4337 6551.9165 20
-187.72519 1144.2795 6551.0337 19
-148.84442 1143.8341 6548.4839 19
-109.96169 1143.0543 6544.019 21
-70.873459 1138.1248 6515.7979 21
-32.235569 1137.2822 6510.9736 21
6.3462019 1136.6289 6507.2334 21
44.936916 1137.324 6511.2129 21
83.515625 1137.2133 6510.5791 21
121.80701 1134.4965 6495.0254 21
160.18445 1133.6934 6490.4277 21
198.23047 1131.3099 6476.7822 21
236.15314 1129.1099 6464.1875 21
273.66138 1125.8193 6445.3481 19
311.76135 1125.4707 6443.3525 19
349.37415 1123.6315 6432.8228 20
385.24295 1117.097 6395.4131 21
422.54785 1115.5244 6386.4097 19
461.27057 1117.6456 6398.5537 19
499.12207 1117.4941 6397.6865 19
534.35175 1111.9083 6365.7075 19
570.15118 1108.1666 6344.2866 19
606.55328 1105.9868 6331.8066 19
641.28448 1101.1918 6304.3545 19
675.89075 1096.7219 6278.7646 19
711.42999 1094.1534 6264.0601 19
746.65729 1091.3838 6248.2036 19
779.0849 1084.9768 6211.5234 19
812.72034 1080.7542 6187.3491 19
844.13287 1074.0679 6149.0693 18
872.86121 1064.6606 6095.2134 18
907.1698 1062.5372 6083.0566 18
930.77899 1048.5232 6002.8262 18
962.72656 1044.5884 5980.2993 18
994.82007 1041.0857 5960.2461 18
1021.0591 1031.9066 5907.6953 18
1062.1064 1037.8055 5941.4668 18
1101.6102 1041.8661 5964.7139 18
1122.0735 1028.2262 5886.6245 17
1159.8617 1030.8059 5901.394 16
1186.4071 1023.5353 5859.77 16
1225.278 1027.0094 5879.6587 65550
1223.7052 997.32928 5709.7393 262152
0 0 0 0
978.18207 755.44769 4324.96 6311236
1156.0525 870.02002 4980.8901 9534828
1209.8562 887.8421 5082.9219 9731947
1235.351 884.5285 5063.9517 9534568
1280.2543 894.93939 5123.5542 9205344
1302.2732 889.24164 5090.9341 7626053
1351.0972 901.69073 5162.2061 6047022
1384.2932 903.39001 5171.9341 7954506
1408.6486 899.37109 5148.9258 9270110
1429.6549 893.42969 5114.9111 9007197
1461.7552 894.52399 5121.1763 9007453
1476.7389 885.31238 5068.439 9600104
1503.1926 883.20715 5056.3867 9665641
1534.2664 883.84583 5060.043 9731433
1566.6433 885.19623 5067.7744 9731433
1591.6544 882.41223 5051.8359 9797226
1621.1191 882.1546 5050.3608 9928297
1649.8109 881.49329 5046.5747 9796455
1672.8987 877.91461 5026.0864 9665126
1702.7383 877.94238 5026.2456 9599076
1732.8716 878.11804 5027.2515 9796455
1757.8306 875.71002 5013.4658 9730919
1794.0625 878.90472 5031.7554 9862504
1812.0841 873.21967 4999.208 9796711
1835.2585 870.16052 4981.6943 9599332
1867.3035 871.33752 4988.4326 9204575
1894.4935 870.24768 4982.1934 9467747
1920.9445 868.85706 4974.2319 9468003
1955.8518 871.27545 4988.0776 9533283
1963.4976 861.65851 4933.02 9468516
1990.0443 860.49646 4926.3672 8679001
1997.1061 851.06451 4872.3691 9271140
2070.2283 869.65186 4978.7822 9336676
2091.7288 866.33655 4959.8018 8744796
2119.9607 865.86224 4957.0869 9468517
2169.7549 874.08746 5004.1763 8876379
2187.5227 869.36298 4977.1284 8678744
2232.5781 875.4646 5012.0601 9072732
2270.9341 878.81323 5031.2314 9007196
2300.7588 878.81647 5031.25 8809817
2312.416 871.96906 4992.0483 9138782
2346.2732 873.56006 5001.1567 9204062
2376.95 873.94202 5003.3433 9138781
2404.5342 873.19153 4999.0469 9204575
2424.6382 869.77594 4979.4927 9401697
2449.5039 868.13013 4970.0703 9336158
2469.4885 864.81403 4951.0854 9138267
2490.0693 861.78223 4933.7285 9138265
2508.0891 857.94464 4911.7583 8743508
2529.4509 855.32526 4896.7622 8480849
2536.9583 848.13354 4855.5894 8020041
2558.2988 845.67603 4841.5195 6901562
2599.6177 849.80371 4865.1509 4598814
2611.6155 844.36102 4833.9917 2035720
2652.615 848.31134 4856.6069 655616
2610.4807 825.87579 4728.1631 12690058
2602.6455 814.65271 4663.9106 12031872
2653.0093 821.69104 4704.2051 11307891
2653.2991 813.23523 4655.7954 11439478
2706.5186 821.00946 4700.3027 12623497
2736.2905 821.58502 4703.5981 11637118
2818.7871 837.82007 4796.5444 11702912
2862.5325 842.32825 4822.3535 11374459
2777.2004 809.14026 4632.3516 10979701
2807.6453 810.0036 4637.2944 11242360
2805.0022 801.39691 4588.0205 11703426
2874.8828 813.47675 4657.1782 11637635
2898.0283 812.22845 4650.0317 12163979
3024.7947 839.77191 4807.7188 10190705
3095.4309 851.36328 4874.0796 8940124
3112.0679 848.02582 4854.9727 8742745
3198.0398 863.46985 4943.3901 9072223
3166.2205 847.11865 4849.7793 9203806
3229.1614 856.18652 4901.6929 8940635
3277.4963 861.25452 4930.7075 9466723
3339.2168 869.71936 4979.1689 9664102
3365.6069 868.91455 4974.561 9598309
3380.0728 865.07196 4952.562 9465954
3402.3701 863.28241 4942.3169 9860710
3416.1631 859.38409 4919.999 9729378
3446.9397 859.78809 4922.312 11045239
3488.6409 862.88745 4940.0562 11703167
3501.4548 858.84967 4916.9395 12361097
3530.2822 858.77386 4916.5054 12887185
3573.7124 862.22253 4936.249 12689806
3612.7249 864.55792 4949.6196 12821649
3615.8472 858.33612 4913.9995 13084823
3640.2305 857.22046 4907.6118 13611164
3703.6433 865.24036 4953.5264 12624014
3755.0012 870.34015 4982.7227 11242106
3703.1501 851.62488 4875.5776 9268572
3726.1172 850.27252 4867.835 8742230
3714.3552 841.0769 4815.1895 8216143
3691.9502 829.62976 4749.6543 8742488
3769.4919 840.64539 4812.7192 8018765
3775.2007 835.59607 4783.812 9729382
3835.7744 842.67529 4824.3408 10322032
3854.9944 840.63196 4812.6426 9598567
3876.0493 839.01593 4803.3906 8611419
3954.9209 849.84729 4865.4004 8809313
4006.939 854.79327 4893.7163 8349535
4017.7234 850.93494 4871.6274 7954779
4025.0681 846.40851 4845.7134 8021086
4088.5671 853.67084 4887.2905 8744295
4198.7119 870.50195 4983.6489 10454394
4259.3975 876.91528 5020.3657 11836044
4235.8418 866.01672 4957.9707 13481122
4232.1602 859.30334 4919.5366 13810086
4237.356 854.47217 4891.8779 13480864
4281.73 857.55322 4909.5171 12427406
4251.9946 845.84998 4842.5161 10650738
4150.4414 820.11292 4695.1704 8874589
4111.498 807.00775 4620.1426 8940895
4096.334 798.71234 4572.6514 8414041
3989.2415 772.71948 4423.8413 12428952
3980.8315 766.05597 4385.6929 12231316
4041.281 772.6441 4423.4102 11770507
4086.8108 776.31323 4444.416 11901578
4025.969 759.85895 4350.2144 8611415
4130.2998 774.59015 4434.5513 8940890
4120.5557 767.87689 4396.1177 8940632
4218.7959 781.24481 4472.6494 9401182
4201.9097 773.25958 4426.9336 9664097
4339.4639 793.61798 4543.4863 8808791
0 0 0 0
0 0 0 0
0 0 0 0
0 0 0 0
-4637.8306 918.74225 5087.228 14
-4656.8066 928.53741 5141.4653 14
-4666.3623 936.57068 5185.9468 14
-4609.3325 931.25763 5156.5278 13
-4766.9624 969.53265 5368.4629 12
-4816.4648 986.18243 5460.6558 12
-4895.4976 1009.1448 5587.8018 12
-5396.7529 1120.0486 6201.8945 12
-4748.1611 992.19623 5493.9551 12
-4729.1646 995.04974 5509.7554 12
-4690.0259 993.67548 5502.1455 12
-4727.9546 1008.7244 5585.4741 12
-4724.3213 1015.0557 5620.5317 12
-4614.8721 998.58026 5529.3042 13
-4528.7432 986.95117 5464.9121 14
-4615.2646 1013.0515 5609.4341 14
-5031.8096 1112.4962 6160.0757 14
-4913.2627 1094.225 6058.9048 14
-4953.6797 1111.3479 6153.7178 14
-4573.3608 1033.6337 5723.4004 14
-4683.8906 1066.5245 5905.5225 14
-4542.4604 1042.1073 5770.3208 14
-4975.8877 1150.2008 6368.8521 14
-5043.6479 1174.7748 6504.9224 14
-4375.4971 1026.9974 5686.6553 14
-4912.5679 1162.0061 6434.2207 14
-4953.1069 1180.7601 6538.0645 14
-4845.1973 1164.1423 6446.0488 13
-4210.2065 1019.6137 5645.77 13
-4183.125 1021.1703 5654.3892 14
-4319.7095 1063.0283 5886.1636 13
-4843.855 1201.7184 6654.1138 13
-4331.0957 1083.3265 5998.5586 13
-4132.1626 1042.1213 5770.3984 13
-4097.8481 1042.0913 5770.2324 14
-4084.0911 1047.3326 5799.2544 14
-4082.3245 1055.7639 5845.9399 14
-4011.8789 1046.4259 5794.2334 14
-4074.4563 1071.9227 5935.4136 14
-4013.5698 1065.0994 5897.6313 14
-4017.2329 1075.4364 5954.8696 14
-3985.9326 1076.5139 5960.8359 14
-4533.6011 1235.3757 6840.48 15
-3933.3433 1081.4799 5988.333 16
-4366.4595 1211.4965 6708.2568 271
-4475.188 1253.0724 6938.4697 270
-3926.7588 1109.7061 6144.6265 270
-3969.6636 1132.3315 6269.9072 270
-3870.0132 1114.337 6170.2686 270
-4425.8232 1286.5337 7123.75 16
-4304.0908 1263.197 6994.5308 15
-4255.3599 1261.0396 6982.585 15
-3784.4001 1132.4873 6270.77 15
-3864.8101 1168.0198 6467.519 269
-3890.3313 1187.5094 6575.4365 17
-3819.4751 1177.6771 6520.9932 269
-3691.6887 1149.9106 6367.2456 270
-3501.3621 1101.8892 6101.3428 270
-3473.1033 1104.401 6115.251 270
-3587.7966 1152.9019 6383.8091 270
-3520.9565 1143.4812 6331.6445 270
-3596.8933 1180.7257 6537.8735 270
-3473.5874 1152.6652 6382.4976 270
-3429.6047 1150.599 6371.0571 14
-3368.4055 1142.6466 6327.0234 14
-3371.0508 1156.4165 6403.27 14
-3311.637 1148.9686 6362.0298 14
-3302.3687 1158.9476 6417.2847 14
-3475.3538 1233.8649 6832.1143 270
-3205.981 1151.6456 6376.8525 270
-3171.5256 1152.858 6383.5659 14
-3132.9507 1152.584 6382.0488 16
-3153.3389 1174.2605 6502.0752 16
-3062.1924 1154.4255 6392.2451 16
-3028.5896 1156.059 6401.2896 16
-3025.7163 1169.6123 6476.3374 16
-2979.781 1166.6543 6459.9585 16
-2919.1775 1157.8016 6410.9395 16
-2871.2764 1153.8199 6388.8921 16
-2875.9509 1171.1415 6484.8047 18
-2843.5806 1173.6427 6498.6543 18
-2741.0728 1146.8669 6350.3926 19
-2728.2715 1157.4016 6408.7246 19
-2666.6426 1147.2273 6352.3877 19
-2646.9275 1155.0516 6395.7124 19
-2613.9868 1157.2483 6407.8755 19
-2527.3359 1135.381 6286.7925 19
-2537.8052 1157.1421 6407.2876 19
-2510.002 1161.8488 6433.3486 19
-2709.1707 1273.3833 7050.9341 19
-2629.6094 1255.3494 6951.0776 19
-2455.9958 1191.1274 6595.4702 19
-2537.6409 1250.6274 6924.9316 19
-2663.3799 1334.1716 7387.5293 19
-2423.0005 1234.043 6833.1001 19
-2422.1284 1254.5657 6946.7378 19
-2458.4128 1295.3766 7172.7148 19
-2279.0903 1222.0179 6766.5156 19
-2366.2622 1291.4814 7151.1465 19
-2282.7083 1268.5989 7024.4424 19
-2300.7078 1302.3522 7211.3394 19
-2218.968 1279.8557 7086.7729 19
-2101.2075 1235.3142 6840.1396 21
-2061.2561 1235.6647 6842.0801 21
-2108.3105 1289.2333 7138.6987 21
-1867.7632 1165.526 6453.7104 21
-1821.8822 1160.662 6426.7778 18
-1706.1802 1110.1599 6147.1396 19
-1752.8187 1165.3889 6452.9512 19
-1872.8048 1272.9354 7048.4541 19
-1587.6384 1103.7267 6111.5171 19
-1551.7649 1103.9718 6112.8745 19
-1516.4596 1104.6426 6116.5889 19
-1461.6786 1090.8121 6040.0073 19
-1418.52 1085.1783 6008.812 19
-1396.8739 1096.1355 6069.4839 19
-1357.8591 1093.6824 6055.9004 19
-1322.3954 1094.0338 6057.8467 19
-1357.6576 1154.55 6392.9351 21
-1445.9404 1264.924 7004.0933 21
-1367.6445 1231.79 6820.6255 21
-1190.7207 1105.1021 6119.1328 21
-1103.6807 1056.496 5849.9932 21
-1104.8542 1091.9183 6046.1323 21
-1079.0845 1102.1946 6103.0342 21
-1012.9077 1070.4801 5927.4253 21
-959.75873 1050.7498 5818.1753 21
-926.59631 1052.2456 5826.4585 21
-894.08026 1054.6199 5839.605 21
-863.3609 1059.39 5866.0176 21
-825.74872 1055.7476 5845.8491 21
-792.82471 1058.0425 5858.5566 21
-759.80304 1060.4114 5871.6738 21
-727.13226 1063.521 5888.8921 21
-694.20325 1066.5474 5905.6494 21
-744.24139 1204.1301 6667.4678 21
-714.2699 1220.4329 6757.7388 21
-676.73792 1224.9868 6782.9546 21
-635.14209 1222.2953 6768.0513 21
-593.0697 1218.2621 6745.7188 21
-529.26251 1165.7719 6455.0718 21
-479.92297 1139.4525 6309.3369 21
-462.91745 1191.9404 6599.9717 21
-411.92474 1158.5287 6414.9653 21
-378.44086 1172.5725 6492.728 21
-332.70627 1147.5413 6354.126 21
-294.46991 1145.2838 6341.626 21
-255.83733 1140.5992 6315.6865 21
-218.49806 1141.0631 6318.2554 21
-183.59184 1157.0526 6406.7925 21
-145.52354 1156.256 6402.3809 21
-107.33816 1153.6387 6387.8887 21
-69.414879 1152.5215 6381.7026 21
-31.582497 1152.0453 6379.0654 21
6.2010818 1148.3187 6358.4312 21
44.061501 1153.0028 6384.3677 21
81.573463 1148.4531 6359.1753 21
118.88257 1144.8253 6339.0874 18
155.2917 1136.3542 6292.1816 19
192.39694 1135.271 6286.1836 19
230.51764 1139.5591 6309.9272 19
267.93359 1139.6527 6310.4453 19
305.12363 1138.8799 6306.1665 19
340.6033 1132.5885 6271.3301 19
377.53122 1131.877 6267.3906 19
410.79523 1121.2921 6208.7803 19
451.65268 1131.4705 6265.1392 19
484.8912 1122.4655 6215.2769 19
522.80579 1124.7924 6228.1616 19
553.62665 1112.5569 6160.4116 19
589.60925 1111.5665 6154.9277 19
624.68823 1109.0872 6141.1997 19
658.48077 1104.7228 6117.0327 19
692.30536 1100.8646 6095.6699 19
725.61804 1096.6156 6072.1421 19
760.85034 1095.532 6066.1421 19
793.37671 1090.8258 6040.0835 19
824.50433 1084.6858 6006.085 18
859.27045 1083.6426 6000.3086 18
890.06372 1077.8711 5968.3511 19
914.78632 1065.4702 5899.6851 18
946.31146 1061.6136 5878.3311 18
985.70233 1066.5419 5905.6191 18
1011.4677 1056.8947 5852.2007 18
1040.5254 1051.2131 5820.7417 18
1069.9305 1046.2361 5793.1826 17
1096.5728 1038.9507 5752.8423 17
1132.9865 1041.0836 5764.6523 16
1165.465 1039.5815 5756.335 17
1202.4128 1042.038 5769.937 16
1211.7649 1021.1048 5654.0264 65549
1220.0852 1000.4522 5539.6694 262150
1085.347 866.6496 4798.7822 1116680
0 0 0 0
1171.5513 888.90106 4921.9922 9535084
1212.7314 897.79315 4971.2295 9534312
1239.8383 896.09204 4961.8101 8744794
1273.7399 899.26685 4979.3896 9139554
1307.8347 902.43127 4996.9111 9336932
1340.0908 904.21478 5006.7871 8613208
1366.8876 902.3172 4996.2798 6310198
1386.552 895.89166 4960.7007 6375478
1425.274 901.79114 4993.3667 7625544
1457.201 903.23853 5001.3813 8613209
1463.8402 889.26624 4924.0146 8612953
1501.376 894.24268 4951.5698 9402468
1518.9613 887.37329 4913.5327 9468516
1546.1044 886.24084 4907.2622 9599846
1574.5665 885.89227 4905.3325 9664869
1602.2925 885.14984 4901.2212 9599333
1630.7512 884.83142 4899.458 9730919
1661.4518 885.71924 4904.374 9533540
1699.0607 890.19604 4929.1626 9599076
1703.5981 877.487 4858.791 9664870
1737.9506 880.30231 4874.3799 9730663
1761.3206 877.55365 4859.1602 9665126
1787.0746 876.06226 4850.9019 9730406
1813.009 874.70508 4843.3872 9795942
1833.0752 870.60315 4820.6738 9730407
1860.697 870.16052 4818.2231 9664615
1891.7571 871.31482 4824.6147 9598821
1914.5913 868.70258 4810.1499 9204576
1950.2751 871.9115 4827.9185 9270368
1971.7178 868.75293 4810.4292 9204575
1999.504 868.4397 4808.6943 9335905
2025.6478 867.43188 4803.1138 9269856
2053.2598 867.07184 4801.1206 9796454
2094.8296 872.53552 4831.374 9664869
2109.2551 866.69812 4799.0513 9533283
2153.1704 872.97223 4833.792 9599076
2191.5979 876.88593 4855.4629 9401954
2221.3008 877.25262 4857.4932 9336160
2238.8552 872.87354 4833.2451 9467747
2282.3896 878.60602 4864.9868 9664612
2286.79 869.31879 4813.562 9598563
2319.7537 870.9848 4822.7871 9533026
2334.1238 865.71417 4793.603 9796199
2361.9031 865.48383 4792.3271 9467234
2408.832 872.19263 4829.4751 9269853
2432.0071 870.24414 4818.686 9270110
2446.8037 865.37762 4791.7393 9335902
2482.5813 867.95801 4806.0273 9072730
2462.8564 851.29535 4713.7632 6967614
2459.1628 840.48547 4653.9072 8151119
2465.8652 833.42914 4614.835 10717048
2512.7419 839.95703 4650.981 9730412
2551.4436 843.64008 4671.375 10914428
2521.97 824.94373 4567.8501 10782585
2476.198 801.36993 4437.3184 9729643
2493.7178 798.55945 4421.7559 10847867
2487.1489 788.17365 4364.248 10716281
2600.6809 815.66974 4516.4985 10716022
2598.6958 806.74432 4467.0767 11637119
2595.2639 797.5542 4416.1899 11900546
2565.447 780.52014 4321.8696 12361094
2635.5994 793.93726 4396.1621 11768680
2639.3645 787.28918 4359.3506 12097385
2697.26 796.75995 4411.7915 13346942
2720.259 795.83942 4406.6948 12887167
2727.1802 790.27747 4375.8975 12426881
2833.083 813.23285 4503.0049 10913393
2994.8799 851.65442 4715.7515 10189674
3022.4944 851.56079 4715.2334 9532513
3064.8887 855.59497 4737.5713 9334879
3097.7642 856.92267 4744.9229 9137502
3149.8909 863.50391 4781.3643 9269344
3166.2202 860.242 4763.3022 9269344
3197.9153 861.17566 4768.4722 9269344
3231.2263 862.52411 4775.939 9006172
3297.5527 872.58563 4831.6514 8940378
3295.5505 864.54877 4787.1499 8874328
3306.9785 860.14227 4762.75 9071965
3349.1379 863.73596 4782.6489 9334624
3323.5056 849.93262 4706.2178 9729384
3337.6436 846.44501 4686.9062 9927018
3351.8254 843.02594 4667.9746 9137762
3344.7554 834.36163 4619.9985 9532518
3475.9141 860.03955 4762.1816 11506562
3515.2993 862.7796 4777.3535 12625042
3552.5767 864.96246 4789.4404 13282713
3626.417 875.94244 4850.2383 13282963
3674.564 880.59241 4875.9858 13680543
3538.7104 841.41882 4659.0757 14143147
3611.0332 851.96808 4717.4883 13683109
3513.1665 822.50995 4554.374 13551786
3513.2288 816.25366 4519.7314 13880235
3513.7041 810.18713 4486.1406 13880236
3518.9321 805.2995 4459.0767 14011308
3545.1289 805.24756 4458.7891 13083518
3554.1824 801.33118 4437.1035 12755070
3552.4841 795.06604 4402.4126 10188645
3855.9033 856.68152 4743.5874 7559514
3862.9343 852.03186 4717.8418 5261131
3970.937 869.55994 4814.8975 5460054
3886.5413 845.0069 4678.9434 6645363
3937.3708 849.9939 4706.5571 7500676
3968.7954 850.75116 4710.75 7829899
4013.762 854.38043 4730.8457 8158606
4083.8599 863.27173 4780.0786 8223110
4098.271 860.35016 4763.9014 9799816
4181.3027 871.77557 4827.166 12694442
4145.4282 858.42303 4753.2305 13678758
4107.9541 844.92169 4678.4712 13743782
4060.1072 829.48218 4592.98 12953749
3952.7761 802.17645 4441.7842 11437683
3930.0417 792.28662 4387.0225 7561821
4008.6628 802.82556 4445.3784 13946551
4031.8511 802.19769 4441.9014 13616552
