# .PCD v0.7 - Point Cloud Data file format
VERSION 0.7
FIELDS x y z rgb
SIZE 4 4 4 4
TYPE F F F U
COUNT 1 1 1 1
WIDTH 1403
HEIGHT 1
VIEWPOINT 0 0 0 1 0 0 0
POINTS 1403
DATA ascii
-2168.189 1215.9263 3392.8008 18
-2155.9209 1220.3633 3405.1814 18
-2136.0679 1220.5499 3405.7021 18
-2109.2021 1216.6949 3394.9456 18
-2105.2339 1226.1013 3421.1924 18
-2234.4224 1313.9961 3666.4453 18
-2077.917 1233.9595 3443.1189 18
-2138.2363 1282.3722 3578.2051 18
-2042.8787 1237.4551 3452.8728 18
-2017.5798 1234.4958 3444.6157 18
-2000.9814 1236.854 3451.1958 18
-2166.3848 1352.9224 3775.0613 19
-2119.1973 1337.2632 3731.3674 19
-2078.7515 1325.5726 3698.7473 19
-1925.7925 1241.1213 3463.1025 19
-1904.9583 1240.9185 3462.5369 19
-1887.2334 1242.759 3467.6724 19
-1869.9923 1244.9622 3473.8196 19
-1852.4166 1246.989 3479.4751 18
-1964.2156 1337.1327 3731.0034 18
-1815.8538 1250.2092 3488.4607 19
-1983.6049 1381.4329 3854.614 19
-1968.0548 1386.5712 3868.9517 19
-1775.2211 1265.4552 3531.0015 19
-1878.2709 1354.8843 3780.5356 19
-1886.7839 1377.4556 3843.5164 19
-1888.7429 1395.7352 3894.5222 19
-1862.4062 1393.2987 3887.7234 19
-1693.9902 1283.1776 3580.4526 19
-1670.2124 1281.2145 3574.9746 19
-1795.9358 1395.3561 3893.4641 19
-1777.3639 1398.8992 3903.3506 19
-1769.1479 1410.7939 3936.5405 19
-1746.3942 1411.2585 3937.8369 18
-1697.1478 1390.0372 3878.6228 18
-1679.951 1394.8435 3892.0342 18
-1667.5371 1403.8102 3917.0537 18
-1645.8618 1405.1232 3920.7173 16
-1625.7042 1407.7881 3928.1531 17
-1605.5856 1410.5647 3935.9009 18
-1566.8209 1396.8004 3897.4944 18
-1542.8049 1395.9692 3895.175 18
-1537.3428 1412.1558 3940.3403 19
-1505.5438 1404.2764 3918.3542 18
-1471.1949 1393.7344 3888.939 18
-1345.8768 1295.3057 3614.2935 18
-1327.677 1298.4541 3623.0786 18
-1306.9026 1299.1467 3625.0112 18
-1290.9875 1304.7737 3640.7119 16
-1268.7206 1304.0631 3638.7292 16
-1253.2563 1310.441 3656.5256 16
-1229.405 1308.1194 3650.0474 18
-1212.0331 1312.7323 3662.9189 18
-1184.7952 1306.6329 3645.8997 18
-1168.5734 1312.6816 3662.7773 18
-1147.2406 1313.1091 3663.9705 18
-1126.0598 1313.7306 3665.7046 18
-1080.583 1285.4738 3586.8594 18
-1085.6823 1317.4559 3676.0991 18
-1058.9757 1311.3618 3659.0947 18
-1035.1003 1308.5923 3651.3669 18
-991.53735 1280.2833 3572.3767 18
-1044.3445 1377.8884 3844.7241 18
-971.3042 1310.1031 3655.5828 18
-955.23438 1317.8203 3677.1162 18
-977.93378 1380.6317 3852.3789 18
-899.48016 1300.2262 3628.0232 18
-889.88037 1317.8501 3677.1992 19
-853.95129 1296.3884 3617.3145 18
-845.13226 1316.037 3672.1401 18
-820.69757 1311.7649 3660.2195 18
-797.34857 1309.0433 3652.6255 18
-778.46442 1313.7045 3665.6316 18
-736.4079 1278.406 3567.1382 18
-726.48187 1298.4482 3623.062 18
-712.8717 1312.9259 3663.459 18
-695.70587 1321.5588 3687.5474 18
-673.99774 1321.8434 3688.3416 18
-627.02246 1270.9321 3546.2837 18
-628.72137 1318.5704 3679.209 19
-609.3103 1323.7687 3693.7139 19
-584.63062 1317.4816 3676.1707 19
-566.07355 1325.0391 3697.2585 19
-543.81329 1324.1881 3694.884 18
-519.67218 1318.4934 3678.9944 18
-512.35663 1356.859 3786.0457 18
-463.40204 1283.4167 3581.1196 18
-469.68878 1363.2617 3803.9114 18
-443.90134 1353.3694 3776.3086 18
-423.73462 1360.4729 3796.1296 18
-399.43793 1354.3698 3779.0999 18
-378.38892 1359.2073 3792.5981 19
-355.86343 1359.0173 3792.0681 19
-330.75082 1348.2557 3762.04 19
-310.89038 1358.8956 3791.7285 19
-287.95416 1356.7018 3785.6072 19
-265.30984 1355.6287 3782.6128 19
-242.83235 1355.2887 3781.6641 19
-220.82182 1357.7507 3788.5339 19
-198.05275 1355.5784 3782.4722 19
-176.18066 1359.7742 3794.1799 19
-153.52809 1358.2927 3790.0461 19
-130.88684 1356.4207 3784.8228 19
-108.49735 1356.9232 3786.2249 19
-85.450745 1347.3268 3759.448 19
-63.047859 1344.6908 3752.0925 19
-40.869614 1346.5837 3757.3748 19
-18.739489 1356.4918 3785.0212 19
3.6503878 1341.4374 3743.0146 19
25.673742 1333.2042 3720.0415 19
48.027237 1341.8018 3744.0315 19
69.985451 1337.4117 3731.7822 19
92.107155 1337.5044 3732.0405 19
113.85429 1333.175 3719.9602 19
136.37624 1337.8512 3733.0081 18
158.45746 1337.5018 3732.0334 19
180.22617 1334.9233 3724.8386 19
201.80608 1331.6619 3715.738 19
220.98868 1314.7791 3668.6299 19
244.95641 1326.84 3702.2837 19
266.51752 1324.9539 3697.0208 19
287.73318 1321.7672 3688.1292 19
282.47595 1206.007 3365.123 19
328.28223 1309.1488 3652.9197 19
351.49149 1314.9896 3669.2178 19
372.21356 1311.3872 3659.1658 19
393.23236 1309.1692 3652.9768 19
415.37769 1310.7377 3657.3533 19
436.67496 1309.6071 3654.1985 19
456.74658 1305.0812 3641.5701 19
478.74622 1306.2241 3644.7593 19
499.495 1304.0029 3638.5613 19
521.28333 1304.567 3640.1355 19
543.2287 1305.4639 3642.6377 19
563.7251 1302.9431 3635.604 19
583.90247 1299.8976 3627.1062 18
604.19873 1297.3236 3619.9241 18
629.18994 1304.6615 3640.3989 18
652.0611 1307.2625 3647.6565 18
671.13544 1302.3289 3633.8901 18
691.6073 1300.3296 3628.3118 18
711.80206 1297.9456 3621.6597 18
733.49152 1298.3472 3622.7798 18
755.08972 1298.5685 3623.3977 18
773.18256 1292.9163 3607.626 18
741.16498 1206.0281 3365.1821 18
757.49225 1200.2991 3349.1963 18
776.6355 1199.2107 3346.1594 18
801.56238 1206.8849 3367.5728 18
808.69281 1188.0416 3314.9941 18
821.94885 1178.8776 3289.4241 18
848.33057 1188.5278 3316.3508 18
871.31781 1193.0928 3329.0884 18
894.54187 1197.7727 3342.147 18
909.39795 1191.2881 3324.053 18
922.16998 1182.4062 3299.27 18
940.84839 1181.3091 3296.2087 18
955.63196 1175.4658 3279.9043 18
974.25604 1174.4855 3277.1685 18
988.0481 1167.832 3258.6035 18
1009.9778 1170.8676 3267.0737 18
1033.2151 1175.2766 3279.376 18
1048.8101 1170.9899 3267.4148 18
1068.2856 1171.113 3267.7583 18
1088.9941 1172.5591 3271.7935 16
1094.5315 1157.905 3230.9041 15
1104.5201 1148.3829 3204.3347 16
1140.6467 1165.8993 3253.2107 13
1138.9911 1144.8567 3194.4954 196617
1030.0482 1018.4255 2841.7141 327682
1068.3896 1039.3418 2900.0769 3943462
1094.301 1047.6951 2923.385 7231816
1084.318 1021.9579 2851.5706 8875354
1103.7717 1024.3287 2858.186 9401186
1123.2383 1026.6395 2864.634 9466978
1146.3113 1032.1288 2879.9507 9664359
1147.6742 1018.1964 2841.075 9729893
1175.1619 1027.509 2867.0598 9532514
1193.9504 1029.0583 2871.3833 9466721
1209.7158 1027.9952 2868.4167 9532514
1225.1772 1026.707 2864.822 9400927
1248.1691 1031.6782 2878.6931 9466721
1256.8873 1024.8763 2859.7141 8874327
1279.5621 1029.4845 2872.5723 8940377
1292.2389 1026.0332 2862.9421 8940379
1313.8219 1029.6512 2873.0374 8940636
1326.9 1026.5967 2864.5144 8743256
1340.3976 1023.9398 2857.1006 9335650
1357.5032 1024.0708 2857.4663 9071965
1381.0546 1029.0013 2871.2241 8874588
1397.2742 1028.4156 2869.5896 8940381
1411.6532 1026.5056 2864.26 8940381
1423.3242 1022.6951 2853.6274 9466981
1431.6826 1016.6218 2836.6814 9993579
1463.6567 1027.2642 2866.3767 9664871
1472.7705 1021.8019 2851.1353 9664615
1503.7959 1031.4933 2878.1775 9269344
1517.0325 1028.9025 2870.948 9269601
1536.8521 1030.7842 2876.1987 9466979
1550.277 1028.3829 2869.4983 9466979
1583.7175 1039.167 2899.5891 9466981
1596.9155 1036.58 2892.3706 9401188
1621.147 1041.1337 2905.0767 9269859
1639.0339 1041.5598 2906.2661 9598825
1664.2742 1046.6016 2920.334 9796203
1659.2592 1032.7089 2881.5691 9203810
1678.535 1034.0636 2885.3494 9795947
1690.3003 1030.8108 2876.2729 9137760
1718.4779 1037.5319 2895.0269 9401189
1731.123 1034.8348 2887.5015 9401188
1766.3157 1045.5375 2917.3647 9138017
1769.2306 1037.1116 2893.854 9006431
1803.771 1047.208 2922.0261 9137760
1834.5306 1054.9385 2943.5964 9269603
1842.0806 1049.3024 2927.8699 8743259
1858.6714 1048.8733 2926.6726 8874588
1880.4583 1051.3572 2933.6035 9664104
1896.4723 1050.5977 2931.4841 9203042
1905.9696 1046.2745 2919.4214 8940127
1932.9047 1051.5154 2934.0449 9532263
1948.6489 1050.6293 2931.5725 9400677
1961.16 1048.0311 2924.3228 9598055
1982.7848 1050.306 2930.6704 9663848
2001.4792 1051.0026 2932.6143 9071967
2029.5389 1056.5627 2948.1287 9598310
2038.0037 1051.9141 2935.1575 9006174
2055.0964 1051.7598 2934.7268 8611416
2066.4624 1048.7017 2926.1938 8545623
2086.5896 1050.1036 2930.106 8940124
2107.875 1052.0607 2935.5667 8808795
2116.9905 1047.9613 2924.1282 9269603
2147.8318 1054.5958 2942.6404 9466982
2164.3145 1054.1302 2941.3413 9269346
2172.8613 1049.8379 2929.364 8611419
2208.7039 1058.697 2954.084 9335142
2205.8865 1049.0317 2927.1147 9138019
2223.3501 1049.0869 2927.269 9269603
2247.7761 1052.401 2936.5161 9466727
2268.1741 1053.7927 2940.3994 8940126
2295.3569 1058.2915 2952.9524 8677208
2308.7598 1056.4167 2947.7214 8874588
2306.5847 1047.4957 2922.8291 8742745
2331.7837 1051.0468 2932.7373 9335139
2350.3252 1051.5664 2934.1873 8085332
2354.7061 1045.7893 2918.0674 7756367
2380.1191 1049.3693 2928.0566 7362126
2398.4624 1049.803 2929.2671 8414817
2428.8506 1055.4647 2945.0647 4535347
2416.1821 1042.4686 2908.802 852741
2406.4543 1030.9165 2876.5679 655368
2416.4148 1027.902 2868.1565 393232
2426.5105 1024.9867 2860.0217 393234
2398.2683 1006.0298 2807.1265 393232
2389.3542 995.38593 2777.427 458763
2384.041 986.37762 2752.291 524296
2378.9678 977.59033 2727.7717 655364
2386.2815 973.97742 2717.6907 851970
2396.5151 971.5968 2711.0481 983040
2397.2844 965.43646 2693.8586 983040
2381.1487 952.5946 2658.0261 983040
2352.6731 935.01727 2608.9802 1114112
2309.7178 911.95245 2544.6223 1048833
2359.5173 925.57202 2582.625 2100233
2355.0029 917.84747 2561.071 2558981
2374.0366 919.3407 2565.2378 1376256
2338.0869 899.65826 2510.3179 983040
2365.1558 904.31995 2523.3254 6703168
2362.1733 897.50519 2504.3101 4598055
2368.0737 894.12939 2494.8906 6901576
2358.3013 884.91449 2469.1782 7954779
0 0 0 0
0 0 0 0
0 0 0 0
0 0 0 0
0 0 0 0
0 0 0 0
0 0 0 0
-2672.1289 1089.0513 2989.3499 14
-2657.4424 1090.2941 2992.761 14
-2643.3481 1091.7981 2996.8896 15
-2627.981 1092.7932 2999.6211 17
-2611.3752 1093.2833 3000.9666 18
-2595.9529 1094.2789 3003.6995 18
-2604.918 1105.6395 3034.8831 18
-2649.793 1132.5056 3108.6282 18
-2634.2197 1133.7319 3111.9941 18
-2615.6353 1133.6703 3111.825 18
-2603.9871 1136.6355 3119.9641 18
-2581.9543 1135.0778 3115.6885 18
-2569.9731 1137.9484 3123.5681 18
-2552.8569 1138.5704 3125.2756 18
-2532.5427 1137.765 3123.0645 18
-2518.1362 1139.621 3128.1592 18
-2503.9194 1141.5913 3133.5676 18
-2486.3193 1142.0367 3134.7903 18
-2470.6016 1143.3602 3138.4231 18
-2455.3499 1144.921 3142.7075 18
-2439.6375 1146.2892 3146.4629 18
-2424.4785 1147.9407 3150.9958 18
-2410.4993 1150.1805 3157.144 18
-2397.8225 1153.0818 3165.1079 18
-2383.625 1155.2916 3171.1738 18
-2367.2158 1156.4563 3174.3706 18
-2358.1812 1161.2711 3187.5869 18
-2336.1267 1159.7003 3183.2751 18
-2317.3071 1159.723 3183.3374 18
-2305.0615 1163.063 3192.5054 18
-2298.9104 1169.5587 3210.3357 18
-2279.3457 1169.282 3209.5759 18
-2264.7502 1171.5713 3215.8599 18
-2254.3975 1176.1125 3228.3254 18
-2242.3774 1179.8545 3238.5967 18
-2224.4768 1180.5402 3240.4788 18
-2211.8667 1184.0699 3250.1677 18
-2199.2683 1187.668 3260.0439 18
-2187.136 1191.5839 3270.7927 18
-2169.5154 1192.5529 3273.4524 18
-2161.2888 1198.7496 3290.4622 18
-2149.0999 1202.8416 3301.6941 18
-2129.7954 1202.9897 3302.1008 18
-2234.8408 1274.0293 3497.0981 18
-2103.7209 1210.5066 3322.7339 18
-2074.3992 1204.9127 3307.3792 18
-2060.1804 1208.0682 3316.041 18
-2048.2148 1212.6187 3328.5315 18
-2074.3447 1240.0309 3403.7754 18
-2030.1904 1225.5532 3364.0356 18
-1995.0326 1216.2732 3338.5627 18
-1980.9518 1219.7856 3348.2041 18
-1961.46 1220.0035 3348.802 18
-1954.4359 1228.0599 3370.9163 18
-1933.9117 1227.7125 3369.9626 19
-1905.2075 1222.1106 3354.5859 19
-1888.9755 1224.4753 3361.0767 19
-1960.4866 1284.3734 3525.4919 19
-1865.2347 1235.1339 3390.3335 19
-1841.4456 1232.6589 3383.54 19
-1828.762 1237.6453 3397.2273 19
-1894.2698 1296.2493 3558.0898 19
-1822.524 1261.1925 3461.8623 19
-1775.1223 1242.3755 3410.2112 19
-1939.4861 1373.0426 3768.8809 19
-1744.9421 1249.7086 3430.3401 19
-1827.9719 1324.6056 3635.9255 19
-1870.5656 1371.6383 3765.0264 19
-1638.9209 1216.2874 3338.6013 19
-1781.488 1338.2456 3673.3662 19
-1779.0901 1352.9773 3713.8035 19
-1636.0161 1259.7554 3457.9175 19
-1618.8789 1262.3717 3465.0989 19
-1740.4135 1374.578 3773.0955 19
-1689.3452 1351.6094 3710.0486 19
-1512.5704 1226.1335 3365.6284 19
-1524.5775 1252.3812 3437.676 19
-1685.3025 1403.1604 3851.5518 18
-1666.1428 1406.2542 3860.0437 18
-1642.6124 1405.6937 3858.5054 18
-1619.53 1405.5061 3857.9905 18
-1590.5134 1400.0896 3843.1226 18
-1565.8234 1398.3795 3838.4285 18
-1554.3815 1408.6248 3866.5508 18
-1521.0234 1399.0186 3840.1826 18
-1493.0388 1394.1378 3826.7854 19
-1479.3401 1402.652 3850.156 18
-1452.4814 1398.7596 3839.4719 18
-1326.8781 1298.1376 3563.2732 18
-1308.7078 1301.0668 3571.3137 18
-1299.6908 1313.3417 3605.0073 16
-1271.7587 1306.5938 3586.4849 15
-1247.208 1303.1495 3577.0308 15
-1236.2522 1314.0364 3606.9141 17
-1217.7531 1317.1473 3615.4534 18
-1196.4764 1317.3118 3615.9048 18
-1175.3777 1317.6815 3616.9197 18
-1153.5745 1317.2606 3615.7644 18
-1132.8839 1318.1185 3618.1191 18
-1102.6385 1307.6779 3589.4604 18
-1088.8472 1316.7239 3614.2908 18
-1068.1492 1317.6134 3616.7327 18
-1047.0973 1318.0938 3618.0513 18
-1026.3639 1319.0035 3620.5483 18
-1007.6036 1322.542 3630.2612 18
-941.68085 1262.9807 3466.7708 18
-936.25446 1283.7097 3523.6702 18
-938.52997 1316.1855 3612.8135 18
-918.72614 1318.4911 3619.1421 18
-877.61145 1289.592 3539.8164 18
-875.76849 1318.3978 3618.8857 19
-853.85614 1317.6785 3616.9114 18
-831.44604 1316.1344 3612.6729 18
-806.77173 1310.8297 3598.1121 19
-787.89905 1314.9192 3609.3374 19
-732.74658 1257.0006 3450.3557 18
-715.88 1263.3199 3467.7019 18
-714.00531 1297.251 3560.8396 18
-704.34491 1318.6725 3619.6396 18
-683.18341 1319.231 3621.1729 18
-661.91431 1319.6113 3622.2168 18
-638.25629 1315.0948 3609.8196 18
-621.98206 1326.0066 3639.7712 19
-600.46021 1326.1132 3640.0637 19
-580.53101 1329.876 3650.3923 19
-561.16449 1335.269 3665.1958 19
-535.07916 1324.4653 3635.5405 18
-490.16394 1264.1908 3470.0923 18
-486.8118 1310.5275 3597.2825 18
-462.69489 1302.6484 3575.655 18
-462.60007 1364.8893 3746.501 18
-439.7489 1362.8793 3740.9834 18
-420.16522 1371.3199 3764.1523 18
-396.58743 1366.9404 3752.1311 18
-375.36844 1370.6538 3762.3237 19
-353.25311 1371.3564 3764.2524 19
-330.07748 1367.7603 3754.3813 19
-307.36725 1365.712 3748.7593 19
-285.03781 1365.1685 3747.2668 19
-262.96921 1365.8878 3749.2417 19
-241.18253 1368.3395 3755.9712 19
-218.85474 1367.9075 3754.7856 19
-196.46985 1366.9807 3752.2415 19
-175.26544 1375.0787 3774.47 19
-152.73985 1373.6643 3770.5874 19
-130.6008 1375.837 3776.5515 19
-107.49362 1366.6005 3751.1978 19
-85.302299 1367.2268 3752.917 19
-59.678627 1293.8788 3551.5835 19
-40.833763 1367.65 3754.0786 19
-18.534744 1363.8568 3743.6667 19
3.653012 1364.5995 3745.7053 19
25.793495 1361.5714 3737.3936 19
47.988605 1362.8925 3741.0198 19
70.035995 1360.5092 3734.4775 19
92.034103 1358.5428 3729.0806 19
114.10636 1358.2207 3728.196 19
136.67906 1362.9935 3741.2974 18
157.40332 1350.5739 3707.2063 19
179.36394 1350.5055 3707.0186 19
200.73415 1346.4917 3696.001 19
222.42581 1345.2117 3692.4875 19
244.5377 1346.475 3695.9553 19
266.5275 1346.9136 3697.1592 19
286.31912 1337.0206 3670.0039 19
307.28424 1333.6177 3660.6628 19
329.29129 1334.8872 3664.1477 19
349.97983 1330.9854 3653.4375 19
371.27032 1329.694 3649.8928 19
392.63217 1328.7865 3647.4019 19
413.47589 1326.3114 3640.6079 19
435.92026 1328.9618 3647.8831 19
457.81396 1329.7622 3650.0801 19
478.82983 1328.0557 3645.3958 19
500.79364 1329.0121 3648.0212 19
523.30676 1331.2869 3654.2651 19
541.76935 1323.4857 3632.8518 19
561.26001 1318.6965 3619.7058 19
586.22552 1326.6497 3641.5364 18
602.25824 1314.5405 3608.2981 18
623.55035 1314.348 3607.7693 18
643.39093 1311.2097 3599.155 18
664.98401 1311.7299 3600.583 18
685.10724 1309.4086 3594.2112 18
705.15784 1307.0927 3587.854 18
726.76447 1307.712 3589.5542 18
748.79523 1309.0376 3593.1929 18
768.90637 1307.027 3587.6738 18
789.78387 1306.3921 3585.9309 18
761.44641 1226.5164 3366.6792 18
764.49127 1199.9786 3293.8357 18
785.25977 1201.8895 3299.0808 18
804.13055 1200.8738 3296.2927 18
841.90051 1227.4603 3369.2705 18
839.65747 1195.8291 3282.4453 18
859.13562 1195.8649 3282.5435 18
884.48132 1203.8853 3304.5591 18
893.65631 1190.025 3266.5137 18
915.39966 1193.134 3275.0479 18
932.70978 1190.4556 3267.6956 18
944.99255 1181.6001 3243.3882 18
962.22748 1179.1663 3236.7073 18
982.20898 1180.1274 3239.3459 18
1001.5152 1180.2562 3239.6992 18
1017.1602 1176.1465 3228.4185 18
1035.1975 1174.9037 3225.0071 18
1044.9879 1164.5157 3196.4932 18
1070.5076 1171.7141 3216.252 17
1095.0874 1177.6498 3232.5449 16
1109.6923 1172.839 3219.3396 15
1115.743 1159.3027 3182.1836 15
1151.3983 1176.4653 3229.2937 131084
1005.045 1010.1362 2772.7349 262150
1047.2865 1035.6594 2842.7937 852737
1057.8721 1029.5654 2826.0662 4732460
1087.214 1041.6315 2859.1865 8151890
1089.5922 1027.8904 2821.4685 8941145
1106.0864 1027.6801 2820.8911 9467236
1120.9683 1026.0002 2816.28 9467236
1139.5691 1027.7235 2821.0105 9927529
1154.9067 1026.4967 2817.6431 9401441
1173.5376 1028.1903 2822.2917 9664356
1185.842 1024.3711 2811.8086 9532514
1209.2209 1030.0919 2827.5115 9335135
1228.106 1031.8804 2832.4207 9335391
1235.4393 1024.0455 2810.9148 8809304
1259.9579 1030.4744 2828.5615 8875097
1278.6671 1032.0454 2832.8738 9401442
1289.1873 1027.052 2819.1672 9664615
1307.0457 1027.9575 2821.6528 9269857
1324.9852 1028.9033 2824.2488 9598566
1344.7295 1031.2092 2830.5786 9203807
1355.8958 1026.9614 2818.9187 10190446
1376.9091 1030.1844 2827.7656 9400929
1394.5608 1030.8452 2829.5793 9466466
1407.5354 1028.074 2821.9724 9203551
1425.5859 1029.0319 2824.6016 9269087
1436.1025 1024.5923 2812.4155 8940379
1444.9878 1019.1041 2797.3508 9664101
1472.1791 1026.5046 2817.6646 9729894
1482.8181 1022.3271 2806.198 9071964
1508.0402 1028.1852 2822.2776 10124654
1519.0251 1024.3143 2811.6523 9269088
1547.6624 1032.3015 2833.5767 9137759
1568.7896 1035.1619 2841.428 9598568
1589.4237 1037.6395 2848.229 9598568
1607.9523 1038.705 2851.1536 9269603
1623.5376 1037.8668 2848.8528 9138017
1637.2279 1035.8468 2843.3081 9138017
1638.1548 1025.8751 2815.9368 9466982
1675.6412 1038.7686 2851.3284 9006174
1687.4651 1035.6548 2842.7812 9335396
1702.9685 1034.8383 2840.54 9269603
1729.1266 1040.4491 2855.9409 9006431
1751.3279 1043.5931 2864.5713 9072224
1766.3695 1042.4515 2861.4377 8940381
1783.7744 1042.713 2862.1555 8414294
1799.3484 1041.9095 2859.9497 9006173
1832.3088 1051.0946 2885.1619 8874332
1840.0538 1045.7788 2870.5708 8150610
1864.5063 1049.969 2882.0725 8940127
1882.3442 1050.3921 2883.2336 9400421
1907.3567 1054.7751 2895.2646 9005920
1921.5214 1053.1345 2890.7615 8874077
1929.4426 1048.1313 2877.0283 9005920
1934.3291 1041.5817 2859.05 8940640
1963.6855 1048.2078 2877.238 8611162
1981.0371 1048.3668 2877.6746 9532264
1999.8497 1049.2897 2880.2078 9466470
2020.1409 1050.9662 2884.8093 9729387
2042.6946 1053.7815 2892.5376 9269605
2066.7502 1057.3187 2902.2466 9138019
2074.9175 1052.7361 2889.6677 8414295
2096.9651 1055.2133 2896.4675 9203554
2112.9385 1054.6185 2894.835 9138017
2129.0022 1054.078 2893.3513 9401191
2135.2646 1048.7323 2878.6777 9466982
2159.4585 1052.2084 2888.2192 9269603
2172.8223 1050.3944 2883.24 8940638
2185.501 1048.28 2877.4365 8809053
2207.354 1050.5651 2883.7083 8743003
2215.2915 1046.2427 2871.844 8611160
2228.9202 1044.6536 2867.4822 8743001
2254.8848 1048.8264 2878.936 8742745
2266.196 1046.1721 2871.6501 8545623
2292.3572 1050.3615 2883.1497 7953487
2314.7512 1052.7755 2889.7759 8479576
2332.2393 1052.9392 2890.2253 8348504
2363.9746 1059.486 2908.1956 8414554
2380.8875 1059.3428 2907.8025 6968391
2386.3298 1054.1348 2893.5068 7889242
2355.6992 1033.1798 2835.9875 5718592
2377.7402 1035.4594 2842.2446 655361
2406.8433 1040.7605 2856.7957 524295
2404.9771 1032.6895 2834.6414 393227
2405.4404 1025.7236 2815.521 393227
2406.8435 1019.252 2797.7568 393227
2398.6836 1008.8467 2769.1953 393225
2372.4104 991.01648 2720.2529 458758
2377.2 986.31512 2707.3481 655364
2369.7612 976.63715 2680.783 720898
2370.7441 970.53577 2664.0352 917504
2374.9458 965.82416 2651.1021 983040
2383.6772 963.00439 2643.3621 983040
2386.6436 957.90753 2629.3718 983040
2353.1169 938.32501 2575.6194 917504
2359.0999 934.64801 2565.5264 1639425
2386.873 939.59601 2579.1082 1376256
2367.8623 926.18146 2542.2866 1442048
2353.4272 914.71527 2510.8127 851968
2382.6765 920.2652 2526.0469 3414548
2386.2903 915.90656 2514.0828 1049344
2352.9268 897.49731 2463.551 2690571
0 0 0 0
0 0 0 0
0 0 0 0
0 0 0 0
0 0 0 0
0 0 0 0
0 0 0 0
-2608.2678 1080.3164 2917.9077 16
-2611.8621 1089.0249 2941.4294 16
-2598.4131 1090.6967 2945.9448 16
-2584.0781 1092.0165 2949.5095 16
-2569.135 1093.0958 2952.4246 18
-2564.0435 1098.4099 2966.7781 18
-2565.8235 1106.7616 2989.3357 18
-2612.5842 1134.7666 3064.9766 18
-2596.2959 1135.5868 3067.1919 18
-2577.1538 1135.1617 3066.0437 18
-2550.78 1131.5225 3056.2141 18
-2546.6274 1137.7589 3073.0588 18
-2529.8296 1138.3951 3074.7773 18
-2515.7957 1140.2935 3079.9043 18
-2502.5688 1142.5878 3086.1013 18
-2488.2161 1144.3982 3090.9912 18
-2478.4949 1148.3813 3101.7495 18
-2459.3914 1148.0443 3100.8391 18
-2444.8384 1149.8424 3105.696 18
-2435.3474 1154.0667 3117.1055 18
-2422.1143 1156.5686 3123.863 18
-2404.8667 1157.1772 3125.5073 18
-2389.866 1158.885 3130.1196 18
-2370.5916 1158.5309 3129.1633 18
-2357.4919 1161.2126 3136.4065 18
-2342.9087 1163.2003 3141.7754 19
-2322.4321 1162.2708 3139.2644 19
-2308.7832 1164.7705 3146.0161 19
-2288.978 1164.1798 3144.4209 19
-2273.2397 1165.665 3148.4324 19
-2259.4363 1168.1749 3155.2117 19
-2247.48 1171.6899 3164.7056 19
-2235.311 1175.1522 3174.0571 18
-2216.6187 1175.2146 3174.2258 18
-2205.9841 1179.5868 3186.0349 18
-2158.5674 1164.1965 3144.4661 18
-2176.7053 1184.2021 3198.5007 18
-2167.6602 1189.6409 3213.1904 18
-2148.6855 1189.6781 3213.291 18
-2140.1309 1195.537 3229.116 18
-2133.6963 1202.6965 3248.4536 18
-2115.4827 1203.2866 3250.0476 18
-2104.6829 1208.1434 3263.1655 18
-2087.7285 1209.5244 3266.8955 18
-2158.8235 1262.4203 3409.7659 18
-2049.0974 1209.5773 3267.0383 19
-2047.0565 1219.8988 3294.9167 18
-2176.988 1309.8229 3537.7991 18
-2135.5305 1297.3738 3504.1746 18
-2086.9216 1280.2928 3458.0396 18
-2065.146 1279.4983 3455.8933 18
-1942.6674 1215.6703 3283.4956 18
-1934.1366 1222.578 3302.1528 18
-1915.6018 1223.2386 3303.9373 18
-1896.3848 1223.4727 3304.5693 19
-1879.0583 1224.9441 3308.5437 19
-1861.943 1226.5857 3312.9775 19
-1842.0353 1226.403 3312.4841 19
-1826.6556 1229.2635 3320.2104 19
-1903.2266 1294.7394 3497.0588 19
-1792.9518 1233.1487 3330.7041 19
-1883.808 1310.0597 3538.439 19
-1752.7855 1232.6638 3329.3945 19
-1735.1439 1234.1498 3333.408 19
-1880.1497 1352.6877 3653.5762 19
-1696.5623 1234.8247 3335.231 19
-1689.1289 1243.9062 3359.76 19
-1670.3655 1244.7611 3362.0688 19
-1656.1373 1249.0571 3373.6724 19
-1636.8647 1249.6072 3375.158 19
-1612.7799 1246.4517 3366.635 19
-1592.6776 1246.3336 3366.3162 19
-1584.0148 1255.2778 3390.4744 19
-1559.0809 1251.3922 3379.9795 19
-1555.1265 1264.4635 3415.2847 19
-1654.6793 1363.1504 3681.8357 19
-1497.4281 1250.0887 3376.4587 18
-1484.2251 1255.8479 3392.0142 18
-1465.3837 1256.9291 3394.9343 18
-1461.2394 1270.822 3432.459 18
-1550.146 1367.1752 3692.7063 18
-1541.2566 1378.7998 3724.1042 18
-1539.0653 1396.8414 3772.8342 18
-1511.3219 1391.8822 3759.4395 18
-1496.0674 1398.4485 3777.175 18
-1483.4106 1407.6796 3802.1077 18
-1444.5916 1391.9856 3759.7188 18
-1317.4357 1289.3467 3482.4934 18
-1363.1907 1355.3583 3660.7893 18
-1349.9464 1363.896 3683.8491 18
-1324.7526 1360.4427 3674.5222 18
-1300.5748 1357.9351 3667.749 18
-1272.7096 1351.4266 3650.1699 18
-1251.6122 1352.0038 3651.7288 18
-1240.5077 1363.5856 3683.0107 18
-1216.7614 1361.4373 3677.2083 18
-1197.2667 1364.0547 3684.2778 18
-1100.7881 1277.4315 3450.311 18
-1099.9207 1300.5834 3512.8435 18
-1130.3824 1362.3878 3679.7759 18
-1050.8354 1291.4283 3488.116 18
-1002.7176 1257.021 3395.1824 18
-1008.6395 1290.3367 3485.1672 18
-1001.0112 1307.3484 3531.1157 18
-947.35779 1263.693 3413.2036 18
-959.08893 1307.2529 3530.8579 18
-904.65356 1260.5586 3404.7375 18
-895.52979 1276.312 3447.2871 18
-900.9649 1314.0347 3549.175 18
-882.21326 1317.4417 3558.3774 18
-862.26624 1319.1869 3563.0913 19
-841.43152 1319.6274 3564.281 18
-825.10345 1327.3405 3585.1138 18
-798.76648 1318.9346 3562.4097 18
-776.73981 1317.3824 3558.2175 18
-731.25385 1274.8457 3443.3267 19
-699.36267 1254.2478 3387.6924 18
-700.69629 1293.7793 3494.4658 18
-685.07416 1303.4576 3520.6069 18
-657.19965 1289.7 3483.4475 18
-633.27618 1283.0549 3465.4995 18
-627.77533 1314.5406 3550.5417 18
-612.43665 1326.8956 3583.9124 19
-591.69116 1328.0034 3586.9043 19
-575.15948 1339.0037 3616.6157 19
-554.29041 1340.3671 3620.2981 19
-531.97083 1338.1912 3614.4214 18
-511.7789 1341.4097 3623.1143 18
-502.85309 1375.7324 3715.8193 18
-468.93488 1341.6919 3623.8767 18
-447.13126 1340.7091 3621.2224 18
-418.64072 1318.5659 3561.4141 18
-412.72821 1368.9596 3697.5261 18
-391.8736 1372.6646 3707.5332 18
-370.34561 1374.311 3711.98 19
-348.86145 1376.338 3717.4551 19
-326.97751 1376.955 3719.1213 19
-306.26352 1382.9438 3735.2974 19
-282.53802 1375.2081 3714.4033 19
-260.47012 1374.915 3713.6113 19
-238.47855 1375.0077 3713.8618 19
-216.42494 1374.7252 3713.0989 19
-194.70116 1376.7109 3718.4622 19
-172.42456 1374.7958 3713.2896 19
-150.1398 1372.2457 3706.4016 19
-128.27373 1373.3041 3709.2603 19
-106.52773 1376.3516 3717.4915 19
-84.343353 1373.8473 3710.7278 19
-62.154865 1369.4863 3698.9487 19
-40.233818 1369.4764 3698.9221 19
-18.432905 1378.427 3723.0972 19
3.6178269 1373.4401 3709.6274 19
25.619778 1374.4006 3712.2222 19
47.346508 1366.5303 3690.9644 19
69.644066 1374.9031 3713.5791 19
91.087654 1366.4441 3690.7317 19
113.02974 1367.2911 3693.0198 19
134.64409 1364.5419 3685.594 19
156.33588 1363.2355 3682.0654 19
178.49384 1365.8162 3689.0356 19
202.65479 1381.4877 3731.3643 19
222.04149 1364.7321 3686.1074 18
242.60194 1357.5459 3666.698 18
264.47449 1358.2799 3668.6804 18
286.86035 1361.3385 3676.9417 18
307.56912 1356.568 3664.0566 19
327.11435 1347.6333 3639.9243 19
347.24976 1342.085 3624.9382 19
368.26617 1340.3899 3620.3599 19
390.26544 1342.2617 3625.4158 19
412.0466 1343.2272 3628.0234 19
433.11142 1341.8774 3624.3779 19
454.16342 1340.6176 3620.9746 19
474.49948 1337.4532 3612.4282 19
496.1022 1337.9784 3613.8464 19
519.4046 1342.8545 3627.0166 19
536.95868 1333.0718 3600.5938 19
558.52673 1333.6215 3602.0786 19
580.18146 1334.3298 3603.9919 18
596.93457 1324.1154 3576.4026 18
618.19531 1324.2571 3576.7856 18
640.96783 1327.5205 3585.6003 18
661.88837 1326.8621 3583.8218 18
685.16772 1330.8262 3594.5286 18
703.05084 1324.3859 3577.1335 18
723.3222 1322.6898 3572.5525 18
745.51202 1324.4985 3577.438 18
701.3266 1211.5439 3272.3501 18
724.24371 1217.4686 3288.3528 18
737.08154 1206.5834 3258.9519 18
784.13531 1250.8344 3378.4727 18
845.14264 1314.5862 3550.6646 18
870.19739 1320.6761 3567.1138 18
822.83008 1219.171 3292.9509 18
906.64313 1312.2334 3544.3101 18
870.5462 1231.4591 3326.1404 18
943.03516 1304.4641 3523.3254 18
904.16541 1223.605 3304.9268 18
909.84918 1205.1904 3255.1897 18
914.83289 1186.6324 3205.0649 18
933.59784 1186.3416 3204.2793 18
957.21881 1192.1099 3219.8594 18
976.78052 1192.6962 3221.4429 18
998.54071 1195.8929 3230.0774 18
1009.9361 1186.7897 3205.4895 18
1024.6588 1181.8602 3192.1753 18
1046.4991 1185.1704 3201.116 18
1062.6687 1182.0547 3192.7004 17
1076.4783 1176.4691 3177.6138 17
996.67181 1070.5226 2891.4548 16
1113.0238 1175.2896 3174.428 16
1121.7407 1164.8065 3146.1138 65549
998.87604 1020.267 2755.7158 196618
999.34741 1004.3283 2712.666 327684
1049.9952 1038.5226 2805.0237 3088413
1081.559 1053.0696 2844.3149 4995630
1068.2787 1024.1775 2766.2778 8218199
1086.7679 1026.1562 2771.6226 8612185
1104.5106 1027.3817 2774.9324 9598565
1121.7283 1028.09 2776.8455 9598563
1141.0598 1030.6871 2783.8606 9795942
1160.4343 1033.2487 2790.7791 9466721
1171.9399 1028.8302 2778.8447 9532513
1189.3624 1029.6565 2781.0767 9466464
1208.5347 1031.9542 2787.2827 9466721
1221.9866 1029.3713 2780.3066 8874841
1244.2111 1034.1488 2793.2102 9335391
1259.212 1032.8756 2789.7715 9204062
1281.5366 1037.5648 2802.437 9466721
1290.762 1031.6642 2786.4995 8940377
1301.4108 1027.0361 2773.999 9400672
1311.432 1022.0342 2760.4893 9203551
1324.7897 1019.7239 2754.249 9137758
1349.8801 1026.3907 2772.2561 9598566
1360.5837 1022.0898 2760.6394 9730409
1378.8364 1023.4947 2764.4338 8940636
1384.3801 1015.5435 2742.9578 9006429
1408.2888 1021.0927 2757.946 8875099
1428.2437 1023.6805 2764.9358 9466980
1443.6541 1022.9895 2763.0693 9400929
1465.23 1026.6339 2772.9128 9137758
1478.9972 1024.7869 2767.9241 9269344
1496.2365 1025.3597 2769.4714 9203552
1505.0719 1020.2236 2755.5989 9269346
1524.3796 1022.2203 2760.9917 8808795
1547.1649 1026.4817 2772.5017 9335396
1553.6 1019.9198 2754.7783 8743261
1580.5939 1026.8508 2773.4985 9006431
1611.0713 1035.8788 2797.8831 9072224
1623.7959 1033.4247 2791.2544 9269346
1621.1167 1021.3154 2758.5476 8809052
1641.0785 1023.5695 2764.636 9006430
1678.1228 1036.3285 2799.0977 9072224
1706.8658 1043.7614 2819.1736 8940637
1726.2013 1045.353 2823.4727 9335141
1739.4287 1043.2509 2817.7947 8809054
1756.7709 1043.6331 2818.8271 9532775
1773.9338 1043.9026 2819.5549 9138017
1809.6097 1054.9597 2849.4199 9203809
1821.8004 1052.2474 2842.0945 8151122
1831.6832 1048.2643 2831.3359 8545623
1859.6724 1054.6215 2848.5066 8743004
1875.2148 1053.8693 2846.4749 9927022
1882.6802 1048.6317 2832.3284 9663850
1879.2382 1037.465 2802.1675 9795949
1895.9515 1037.5237 2802.3259 9137763
1945.3882 1055.333 2850.4285 9664106
1942.6782 1044.7909 2821.9541 9269091
1973.5964 1052.3596 2842.3975 9466724
1992.6459 1053.5254 2845.5459 9861482
2015.0499 1056.4302 2853.3918 9664361
1998.6533 1039.114 2806.6211 9401192
2050.9131 1057.4839 2856.2378 9072226
2059.5457 1053.2423 2844.7815 9466984
2077.2627 1053.6776 2845.9573 9335141
2093.9612 1053.5934 2845.7297 9072226
2106.7412 1051.5548 2840.2236 9137762
2130.9751 1055.2202 2850.1238 9006433
2142.4705 1052.5697 2842.9648 9137761
2152.9768 1049.4784 2834.6152 8874846
2153.3569 1041.5371 2813.166 8677211
2187.7786 1050.0565 2836.1768 8545366
2201.8098 1048.7341 2832.6047 8348244
2214.4536 1046.7759 2827.3157 8414037
2236.2737 1049.1519 2833.7334 8676952
2250.7268 1048.0623 2830.79 8348244
2267.2749 1047.957 2830.5059 8282452
2281.3103 1046.7003 2827.1118 8545625
2307.0859 1050.8093 2838.2102 8414807
2318.4624 1048.348 2831.5623 8283990
2335.2554 1048.3536 2831.5771 7297098
2355.926 1050.0876 2836.2607 7166028
2372.8618 1050.1439 2836.4128 7627097
2387.9434 1049.3849 2834.3625 2563614
2393.8311 1044.6241 2821.5042 656390
2399.3225 1039.7579 2808.3604 327687
2410.1091 1037.2374 2801.5527 393227
2412.408 1031.1237 2785.0396 393225
2371.4692 1006.7378 2719.1738 458759
2376.3813 1002.0142 2706.4158 720900
2366.7178 991.24927 2677.3398 655364
2369.3281 985.73425 2662.4438 851968
2372.4287 980.49487 2648.2922 917504
2375.9299 975.48871 2634.7708 851968
2386.2871 973.3443 2628.979 917504
2380.0903 964.51953 2605.1433 917504
2363.7 951.70398 2570.5291 786432
2366.4519 946.71069 2557.0422 2034953
2379.8577 946.01593 2555.1658 1705988
2392.7524 945.12811 2552.7678 1969159
2383.4309 935.53119 2526.8467 1048832
2371.6665 925.10132 2498.6758 917504
2368.0955 917.97693 2479.4329 1179904
0 0 0 0
0 0 0 0
0 0 0 0
0 0 0 0
0 0 0 0
0 0 0 0
0 0 0 0
-2586.1667 1088.3079 2893.1826 16
-2581.3555 1093.533 2907.0735 15
-2567.1023 1094.8018 2910.4463 16
-2552.2737 1095.8405 2913.2075 18
-2545.4954 1100.3733 2925.2578 18
-2521.8569 1097.63 2917.9651 18
-2542.1931 1114.1208 2961.8047 18
-2552.282 1126.3188 2994.2322 18
-2556.342 1136.0087 3019.9917 18
-2533.7893 1133.9252 3014.4529 18
-2516.1187 1134.0123 3014.6848 18
-2501.1995 1135.3499 3018.2402 18
-2483.8594 1135.5999 3018.9048 18
-2476.4324 1140.4185 3031.7146 18
-2462.8984 1142.4746 3037.1809 18
-2448.2676 1144.0485 3041.365 18
-2430.698 1144.2623 3041.9333 18
-2412.4331 1144.1495 3041.6335 18
-2382.4438 1138.4327 3026.4358 18
-2383.7295 1147.6869 3051.0374 18
-2369.6128 1149.6104 3056.1506 18
-2363.0337 1155.2482 3071.1384 18
-2342.1565 1153.9293 3067.6323 18
-2334.8967 1159.3513 3082.0461 19
-2306.5696 1154.3157 3068.6594 19
-2300.5613 1160.4583 3084.9888 19
-2282.9807 1160.8149 3085.9373 19
-2263.0273 1159.9612 3083.6677 19
-2244.9326 1160.0543 3083.915 19
-2239.3645 1166.6748 3101.5151 19
-2226.7263 1169.691 3109.5337 19
-2225.1648 1178.6248 3133.2832 18
-2199.0305 1174.5835 3122.54 18
-2181.4094 1175.0597 3123.8057 18
-2133.7129 1159.2045 3081.6558 18
-2142.063 1173.7875 3120.4236 18
-2146.0332 1186.2034 3153.4304 19
-2132.5383 1189.099 3161.1282 19
-2118.5874 1191.7893 3168.2803 18
-2111.8997 1198.6503 3186.5195 18
-2099.0364 1202.0983 3195.6858 18
-2083.7393 1204.2026 3201.28 18
-2073.9351 1209.5491 3215.4932 18
-2057.2224 1210.9281 3219.1594 18
-2042.3353 1213.4178 3225.7778 18
-2024.4792 1214.1738 3227.7878 19
-2007.1882 1215.2864 3230.7454 19
-1993.0575 1218.3522 3238.8958 19
-2073.8376 1280.0609 3402.9434 18
-1960.4597 1221.9618 3248.4915 18
-1942.188 1222.5785 3250.1306 18
-1938.4969 1232.4777 3276.447 18
-1912.1917 1228.0537 3264.6863 18
-1884.8938 1222.8955 3250.9736 18
-1868.0302 1224.4701 3255.1597 19
-1855.7845 1229.1365 3267.5647 19
-1844.8798 1234.7985 3282.6167 19
-1822.9276 1233.1082 3278.1233 19
-1805.6967 1234.6096 3282.1147 19
-1900.6018 1313.6494 3492.2358 19
-1886.4467 1318.22 3504.3862 19
-1739.5417 1229.0961 3267.4573 19
-1718.5874 1227.9595 3264.4358 19
-1864.9973 1347.7429 3582.8708 19
-1673.0043 1222.9218 3251.0435 19
-1669.1948 1234.3521 3281.4299 19
-1747.7512 1307.6783 3476.3623 19
-1643.4601 1244.3146 3307.9146 19
-1718.552 1316.877 3500.8159 19
-1756.4944 1362.3979 3621.8303 19
-1594.1049 1251.7389 3327.6516 19
-1571.4797 1249.4293 3321.512 19
-1557.0586 1253.6667 3332.7769 19
-1639.7428 1337.2019 3554.8486 19
-1525.2406 1260.0143 3349.6509 19
-1625.0159 1360.1414 3615.8313 19
-1615.2218 1370.0093 3642.0642 19
-1626.8757 1398.5828 3718.0249 18
-1604.3367 1398.1425 3716.8542 18
-1581.5977 1397.5131 3715.1812 18
-1552.925 1391.5491 3699.3264 18
-1508.3782 1370.9861 3644.6611 18
-1493.7141 1377.3809 3661.6611 18
-1378.4156 1289.7994 3428.8328 18
-1449.7588 1376.8531 3660.2581 18
-1425.2026 1374.0912 3652.9155 19
-1394.5081 1365.2345 3629.3708 18
-1307.3523 1299.9584 3455.8394 18
-1347.8843 1361.5908 3619.6846 18
-1268.9834 1302.6183 3462.9104 18
-1250.0728 1304.2994 3467.3796 18
-1277.833 1355.546 3603.6147 18
-1216.3073 1312.2089 3488.4065 18
-1241.5345 1362.5845 3622.3259 18
-1183.9447 1322.2417 3515.0779 18
-1198.6438 1362.6331 3622.4551 18
-1175.075 1360.2004 3615.9883 18
-1115.6143 1315.3596 3496.7822 18
-1095.9851 1316.6732 3500.2744 18
-1075.3286 1316.7797 3500.5574 18
-1053.5913 1315.5408 3497.2639 18
-1026.1238 1306.9535 3474.4355 18
-1012.451 1315.9446 3498.3374 18
-990.23035 1313.969 3493.0854 18
-971.18079 1316.2069 3499.0347 18
-951.08771 1317.0972 3501.4016 18
-931.10718 1318.1868 3504.2981 18
-875.35376 1267.5261 3369.6206 18
-868.58673 1287.0892 3421.6277 18
-868.07959 1317.0852 3501.3699 18
-838.80188 1303.8296 3466.1306 18
-820.7323 1307.7677 3476.5999 18
-808.56085 1321.5488 3513.2358 18
-783.82886 1314.986 3495.7891 18
-768.92053 1324.9951 3522.3977 18
-747.3075 1323.6869 3518.9199 18
-714.09991 1301.177 3459.0789 18
-705.35962 1323.2365 3517.7224 18
-682.87665 1320.0735 3509.314 18
-665.60651 1327.1055 3528.0078 18
-645.09222 1327.9153 3530.1606 18
-622.22839 1323.7809 3519.1697 18
-603.95782 1329.4706 3534.2952 19
-576.19696 1313.9281 3492.9768 19
-568.04974 1343.6196 3571.9097 19
-560.14557 1376.207 3658.5405 19
-526.63348 1345.9698 3578.1575 19
-517.68408 1378.6067 3664.9197 18
-482.58469 1341.4142 3566.0464 18
-445.71817 1295.6782 3444.4609 18
-440.43784 1341.7781 3567.0139 18
-429.17645 1373.3866 3651.0425 18
-407.99234 1374.9124 3655.0986 18
-386.43555 1375.2828 3656.0835 18
-359.85449 1356.7545 3606.8274 19
-338.49741 1356.8256 3607.0164 19
-322.21844 1378.6333 3664.9907 19
-300.93243 1380.6222 3670.2778 19
-279.29587 1381.1874 3671.7803 19
-256.827 1377.3844 3661.6704 19
-223.4778 1309.1418 3480.2529 19
-214.38768 1383.582 3678.1465 19
-192.43268 1382.4503 3675.1379 19
-162.79602 1318.8013 3505.9316 19
-146.43855 1359.8403 3615.031 19
-127.00076 1381.4391 3672.4497 19
-105.27651 1381.9575 3673.8276 19
-83.644302 1384.2689 3679.9727 19
-61.951225 1386.8484 3686.8298 19
-39.974407 1382.4261 3675.0735 19
-18.22764 1384.8953 3681.6377 19
3.5702338 1377.0669 3660.8267 19
25.152735 1370.9441 3644.5493 19
47.104626 1381.3105 3672.1079 19
68.89476 1381.8811 3673.6248 19
90.751213 1383.1884 3677.0999 19
112.30698 1380.2938 3669.405 19
132.71745 1366.5457 3632.8567 18
154.28024 1366.8444 3633.6506 19
176.77066 1374.2815 3653.4216 19
198.20747 1372.7983 3649.4788 19
219.09088 1368.1511 3637.1245 19
242.27911 1377.4402 3661.8188 19
263.7197 1376.0828 3658.2104 19
282.60651 1362.6184 3622.416 19
307.9711 1380.0833 3668.8452 19
323.414 1353.7157 3598.749 19
344.46939 1352.6493 3595.9141 19
369.14618 1365.0991 3629.011 19
387.44543 1353.8925 3599.2188 19
408.20978 1352.0198 3594.2407 19
429.27771 1351.2886 3592.2966 19
452.1861 1356.146 3605.21 19
472.74246 1353.8295 3599.0518 19
493.13165 1351.255 3592.2075 19
513.7345 1349.4548 3587.4219 19
533.23254 1345.011 3575.6082 19
555.12427 1346.7139 3580.135 19
573.8877 1340.9814 3564.896 18
593.55292 1337.6886 3556.1421 18
615.4563 1339.4927 3560.938 18
634.78864 1335.767 3551.0337 18
654.34546 1332.7377 3542.9805 18
680.62146 1343.1564 3570.678 18
697.24072 1334.4645 3547.5713 18
720.25684 1338.1664 3557.4124 18
733.18115 1323.4412 3518.2666 18
753.7868 1323.0123 3517.1267 18
776.6803 1326.514 3526.4355 18
809.23108 1345.894 3577.9558 18
817.24664 1324.5198 3521.134 18
835.77283 1320.8204 3511.2996 19
857.34424 1321.9965 3514.426 18
874.16608 1315.9668 3498.3965 18
847.21765 1245.8513 3312 18
866.79315 1245.7764 3311.8008 18
956.69196 1344.5374 3574.3494 18
883.68439 1215.0302 3230.0642 18
903.72687 1216.2419 3233.2856 19
911.08148 1200.6826 3191.9221 19
928.52307 1198.7791 3186.8618 19
949.40082 1201.2992 3193.5615 19
966.29645 1198.7808 3186.8662 18
986.17291 1199.9857 3190.0698 18
999.48773 1193.3115 3172.3267 18
1022.7205 1198.5062 3186.1367 18
980.71521 1128.4475 2999.8909 18
981.14801 1108.8447 2947.7786 17
1066.6876 1184.4288 3148.7129 16
978.30481 1067.6141 2838.1702 16
981.55963 1053.0613 2799.4824 16
982.97083 1037.0471 2756.9099 65550
1166.2548 1210.2976 3217.4829 65549
990.64264 1011.516 2689.0374 196616
1043.5457 1048.6646 2787.7939 393217
1048.2766 1037.0013 2756.7881 3812392
1065.8663 1038.2212 2760.031 6639941
1063.4192 1020.1821 2712.0754 8941664
1085.9418 1026.2778 2728.2805 9204064
1103.1096 1027.2085 2730.7549 9072476
1119.5226 1027.4196 2731.3159 9400928
1136.3907 1028.0364 2732.9556 9532514
1152.5272 1027.9832 2732.8142 9269085
1165.4507 1025.1053 2725.1638 8940377
1185.6566 1028.6243 2734.5186 9335135
1202.0854 1028.8156 2735.0269 9334878
1221.0686 1031.1587 2741.2561 8874583
1241.4501 1034.6058 2750.4199 9335135
1252.5389 1030.3196 2739.0254 9334880
1267.51 1029.2957 2736.3032 8742743
1283.8794 1029.4186 2736.6301 9006172
1297.0121 1026.9758 2730.1362 9006172
1308.3778 1023.2112 2720.1284 9071965
1329.7472 1027.2665 2730.9089 9071965
1346.467 1027.6755 2731.9963 9335136
1365.8867 1030.1111 2738.4709 9203295
1363.7742 1016.4409 2702.1301 9203553
1394.3707 1027.1838 2730.6892 9269346
1414.9399 1030.3782 2739.1812 9598311
1432.7771 1031.5332 2742.2515 9137760
1441.8246 1026.4049 2728.6187 9071968
1462.3895 1029.4987 2736.843 9400933
1475.9659 1027.6586 2731.9514 9269603
1497.2374 1031.1582 2741.2549 9137760
1516.509 1033.2202 2746.7363 8874588
1525.8475 1028.5426 2734.3013 9203810
1545.3983 1030.7748 2740.2356 8216658
1555.5562 1026.7607 2729.5645 9401188
1574.1508 1028.3407 2733.7646 9006430
1586.5925 1025.91 2727.303 8809053
1600.4048 1024.4056 2723.3037 8151124
1612.3431 1021.7438 2716.2273 9532520
1625.1016 1019.649 2710.6584 8809054
1669.6472 1037.3446 2757.7009 8940640
1690.6019 1040.1823 2765.2446 9335398
1707.2264 1040.3268 2765.6287 8874847
1729.0391 1043.5999 2774.3298 9335399
1738.7166 1039.5558 2763.5791 8480089
1753.9221 1038.8616 2761.7336 9203812
1784.063 1046.9447 2783.2222 9795949
1810.9032 1052.9607 2799.2151 8940640
1820.1818 1048.7487 2788.0178 8940640
1852.813 1057.9469 2812.4702 8940639
1858.7577 1051.8789 2796.3391 8019538
1864.1121 1045.587 2779.6125 9006433
1874.2731 1042.0779 2770.2839 9071969
1898.7478 1046.5188 2782.0896 10453623
1906.4348 1041.7102 2769.3064 8611418
1941.8699 1052.0162 2796.7043 8743260
1968.4491 1057.3909 2810.9924 9138276
1995.3656 1062.855 2825.5181 9466725
1989.8063 1051.0732 2794.1975 9401189
2011.2605 1053.6377 2801.0149 9006430
2030.9198 1055.2277 2805.2415 9400934
2042.4088 1052.5809 2798.2056 9203812
2063.4233 1054.8466 2804.2285 9138019
2077.6226 1053.6198 2800.967 9335398
2098.6509 1055.848 2806.8909 8940640
2092.5469 1044.4982 2776.718 8611675
2113.3635 1046.6582 2782.4602 8874588
2124.6038 1044.0786 2775.6025 8479319
2148.1199 1047.5249 2784.7644 8479830
2162.4978 1046.4966 2782.0305 8479830
2180.166 1047.064 2783.5388 8677209
2200.3237 1048.8093 2788.179 8414037
2219.3953 1050.015 2791.384 8611415
2233.8135 1049.0173 2788.7319 8414037
2244.8413 1046.454 2781.9175 8479829
2265.3884 1048.3334 2786.9136 7822156
2270.0835 1042.9027 2772.4766 7296324
2290.356 1044.6552 2777.1355 7559496
2298.9949 1041.1143 2767.7222 7033922
2332.6553 1048.8745 2788.3521 5455148
2334.0205 1042.1061 2770.3589 6705470
2351.9463 1042.7747 2772.1362 6179127
2363.3884 1040.5795 2766.3003 6968902
2415.5708 1056.2283 2807.9016 5062714
2387.1934 1036.6786 2755.9302 1839380
2380.8479 1026.8973 2729.9275 327684
2384.28 1021.4368 2715.4114 524292
2373.8613 1010.1556 2685.4211 655365
2373.9062 1003.4476 2667.5884 655362
2377.0037 998.11017 2653.3992 720896
2376.9304 991.5202 2635.8801 851968
2381.5444 986.95886 2623.7542 917504
2386.5022 982.59808 2612.1614 851968
2388.7676 977.19208 2597.79 917504
2363.0635 960.487 2553.3809 786432
2388.3589 964.59186 2564.2932 2824213
2402.0635 963.99304 2562.7014 655360
2388.908 952.69006 2532.6533 1179904
2372.614 940.28455 2499.6741 2166025
2357.1785 928.37091 2468.0027 786432
0 0 0 0
0 0 0 0
0 0 0 0
0 0 0 0
0 0 0 0
0 0 0 0
0 0 0 0
-2547.946 1089.1161 2850.4248 18
-2560.0796 1101.606 2883.1128 18
-2555.9939 1107.2375 2897.8521 18
-2540.7544 1108.0809 2900.0593 18
-2524.6001 1108.5341 2901.2454 18
-2493.7595 1102.5006 2885.4546 18
-2524.8677 1123.9608 2941.6199 18
-2532.1948 1135.0593 2970.6667 18
-2512.3682 1134.0564 2968.042 18
-2492.1016 1132.8392 2964.8567 18
-2487.519 1138.7852 2980.418 18
-2481.624 1144.2109 2994.6184 18
-2454.5266 1139.8685 2983.2534 18
-2442.4387 1142.4841 2990.0989 18
-2425.9512 1143.0647 2991.6184 18
-2413.6667 1145.6489 2998.3818 18
-2399.575 1147.4073 3002.9839 18
-2385.0242 1148.9708 3007.0759 18
-2366.3582 1148.5605 3006.002 18
-2361.8672 1155.0763 3023.0552 18
-2467.9106 1216.1619 3182.9277 19
-2342.2844 1163.1448 3044.1716 19
-2310.771 1156.4022 3026.5251 19
-2299.636 1159.8322 3035.5022 19
-2278.2024 1158.0813 3030.9199 19
-2269.0713 1162.606 3042.7615 19
-2248.8914 1161.4966 3039.8582 19
-2233.4561 1162.8396 3043.3733 19
-2202.6411 1156.1318 3025.8179 19
-2205.0652 1166.9041 3054.0107 19
-2192.2388 1169.7172 3061.373 18
-2171.8682 1168.5183 3058.2354 18
-2149.5234 1166.2283 3052.2419 18
-2148.8152 1175.7378 3077.1304 18
-2154.5798 1188.9822 3111.7932 18
-2062.627 1148.0652 3004.7058 18
-2116.5774 1188.3534 3110.1475 18
-2103.9182 1191.6226 3118.7036 18
-2098.9722 1199.3571 3138.9463 18
-2087.6729 1203.5673 3149.9651 18
-2071.7024 1205.1359 3154.0708 18
-2055.2588 1206.4556 3157.5247 18
-2042.9321 1210.2385 3167.4253 18
-2030.7583 1214.1827 3177.748 18
-2017.2802 1217.4138 3186.2043 18
-2004.8433 1221.3402 3196.4805 18
-1984.99 1220.7804 3195.0154 18
-1971.9587 1224.4458 3204.6084 19
-1966.3888 1232.8605 3226.6313 19
-1933.7217 1224.2847 3204.1865 19
-1926.9906 1232.1222 3224.699 18
-1862.6265 1202.8967 3148.2104 18
-1882.818 1228.2393 3214.5366 18
-1867.6826 1230.8191 3221.2886 18
-1848.6888 1230.8832 3221.4563 19
-1827.6886 1229.5988 3218.0947 19
-1810.6715 1230.9952 3221.7495 19
-1791.7046 1231.0817 3221.9758 19
-1775.2877 1232.941 3226.842 19
-1756.7206 1233.3313 3227.8633 19
-1740.7565 1235.5776 3233.7427 19
-1832.0747 1314.87 3441.2659 19
-1696.656 1231.3878 3222.7771 19
-1682.5356 1235.0424 3232.3416 19
-1683.3586 1249.8761 3271.1646 19
-1644.9739 1235.6052 3233.8147 19
-1769.3176 1344.6704 3519.2593 19
-1618.8146 1244.9641 3258.3086 19
-1595.6216 1241.9413 3250.3975 19
-1579.4264 1244.3579 3256.7222 19
-1573.3517 1254.9064 3284.3296 19
-1555.6317 1256.3147 3288.0154 19
-1661.4637 1358.8037 3556.2488 19
-1628.5139 1348.9675 3530.5054 19
-1508.4536 1265.7786 3312.7842 19
-1481.413 1259.4801 3296.2998 19
-1572.6659 1354.929 3546.1077 19
-1439.8479 1257.3005 3290.5957 18
-1423.5797 1260.1621 3298.0847 18
-1386.4045 1244.3386 3256.6716 18
-1402.329 1276.3997 3340.5815 18
-1379.4634 1273.5667 3333.167 18
-1482.3618 1388.4476 3633.8325 18
-1469.6467 1396.8304 3655.7717 18
-1443.5914 1392.595 3644.687 18
-1320.8024 1293.4972 3385.3289 19
-1302.174 1294.9229 3389.0603 18
-1283.0649 1295.908 3391.6384 18
-1332.8823 1367.6486 3579.3972 18
-1314.0914 1370.1733 3586.0051 18
-1287.4888 1364.5018 3571.1619 18
-1269.6669 1368.1027 3580.5857 18
-1252.0929 1372.0974 3591.0408 18
-1231.7731 1373.1692 3593.8457 18
-1207.9375 1370.2905 3586.3118 18
-1184.7465 1368.0529 3580.4553 18
-1166.4312 1371.4664 3589.3894 18
-1143.3068 1369.2472 3583.5813 18
-1121.3937 1368.4222 3581.4224 18
-1099.1542 1367.1597 3578.1177 18
-1040.8864 1320.1525 3455.0908 18
-1021.4132 1321.4496 3458.4856 18
-998.68713 1318.5049 3450.7788 18
-971.02893 1308.7894 3425.3518 18
-940.05786 1294.0986 3386.9031 18
-938.45154 1320.0726 3454.8821 18
-918.47998 1320.7957 3456.7744 18
-862.45135 1268.5179 3319.9536 18
-876.98224 1320.0031 3454.7 18
-856.47858 1319.9562 3454.5774 18
-828.55389 1308.1903 3423.7837 18
-812.27338 1314.6798 3440.7678 18
-799.28931 1326.9763 3472.9502 18
-779.62836 1328.5449 3477.0557 18
-749.54095 1311.9489 3433.6206 18
-733.07788 1318.9392 3451.9158 18
-706.1969 1307.0491 3420.7969 18
-688.42664 1311.817 3433.2756 18
-677.14697 1329.6199 3479.8691 18
-657.75818 1332.1184 3486.408 18
-639.03314 1336.1667 3497.0034 18
-636.29626 1375.0369 3598.7339 18
-597.24921 1335.4155 3495.0374 19
-575.10962 1332.1096 3486.3853 19
-560.0694 1345.6143 3521.7292 19
-538.7887 1344.5905 3519.0498 19
-515.73804 1338.8895 3504.1294 19
-495.12408 1339.3014 3505.2075 18
-477.75891 1348.9221 3530.3865 18
-459.31482 1356.238 3549.5339 18
-435.51111 1347.6714 3527.1133 18
-423.87561 1377.7932 3605.9478 18
-390.1983 1335.6637 3495.6868 18
-383.00577 1384.551 3623.6343 18
-362.80792 1389.4401 3636.4297 19
-340.96378 1388.2434 3633.2979 19
-320.09116 1391.1077 3640.7942 19
-297.28226 1385.3629 3625.759 19
-275.67032 1384.7354 3624.1167 19
-253.80101 1382.5999 3618.5276 19
-233.04811 1386.713 3629.2925 19
-209.37425 1372.515 3592.1335 19
-189.87219 1385.5455 3626.2371 19
-168.27876 1384.6932 3624.0066 19
-145.92052 1376.3776 3602.2427 19
-125.56704 1387.3619 3630.9912 19
-104.14411 1388.6302 3634.3103 19
-82.369743 1384.6516 3623.8975 19
-59.807476 1359.951 3559.2515 19
-39.34845 1382.2169 3617.5254 19
-17.84272 1377.0074 3603.8911 19
3.5108843 1375.5096 3599.9712 19
24.845852 1375.5522 3600.0828 19
46.309944 1379.4017 3610.1575 19
67.541702 1376.0847 3601.4763 19
90.001778 1393.377 3646.7336 19
110.36642 1377.8135 3606.0007 19
131.2914 1373.1598 3593.8213 18
152.34689 1370.9797 3588.1155 19
173.6808 1371.5323 3589.5618 19
194.31267 1367.0251 3577.7659 19
216.0708 1370.549 3586.9883 19
236.79961 1367.4972 3579.0012 19
255.47646 1354.0715 3543.8635 19
277.93759 1361.2192 3562.5706 19
299.37552 1362.7002 3566.4465 19
