# .PCD v0.7 - Point Cloud Data file format
VERSION 0.7
FIELDS x y z rgb
SIZE 4 4 4 4
TYPE F F F U
COUNT 1 1 1 1
WIDTH 1365
HEIGHT 1
VIEWPOINT 0 0 0 1 0 0 0
POINTS 1365
DATA ascii
-405.25607 1180.4352 5777.8745 21
-370.15976 1177.7135 5764.5527 21
-335.95456 1177.562 5763.811 21
-299.77246 1169.6627 5725.1465 21
-265.07974 1166.2999 5708.687 21
-230.27525 1161.3896 5684.6523 21
-197.41304 1166.2708 5708.5444 21
-162.13409 1155.9409 5657.9829 21
-130.45476 1172.5791 5739.4219 21
-93.704872 1139.3033 5576.5469 21
-60.275921 1132.1444 5541.5059 21
-27.34771 1128.5105 5523.7188 19
5.3752832 1126.0505 5511.6782 19
37.93964 1123.1191 5497.3301 19
70.366676 1120.7092 5485.5342 19
102.63196 1118.0602 5472.5679 19
134.14893 1110.4889 5435.5083 19
165.40306 1104.0951 5404.2129 19
196.8007 1100.5781 5386.9985 19
226.67055 1090.6915 5338.6069 19
255.63258 1079.3937 5283.3066 19
286.27286 1076.8744 5270.9756 19
315.75452 1070.9211 5241.8364 19
347.38669 1072.6748 5250.4199 19
376.03564 1065.6858 5216.2104 19
404.82672 1060.1306 5189.02 19
431.08636 1049.1987 5135.5117 19
457.38647 1039.8007 5089.5112 19
489.72757 1044.4491 5112.2637 19
517.45862 1039.2968 5087.0444 19
541.02167 1026.8013 5025.8828 19
572.63153 1030.085 5041.9556 19
604.4458 1033.3925 5058.1445 19
633.0014 1031.0793 5046.8228 18
658.86176 1024.7827 5016.0029 18
680.89569 1013.3353 4959.9712 196620
655.5473 935.2373 4577.7046 327683
674.01849 923.37708 4519.6528 3417638
688.20715 906.78101 4438.4199 8351326
718.01672 911.2312 4460.2021 9535338
752.44226 921.01538 4508.0928 9140324
781.93353 924.29608 4524.1509 9337702
811.16644 927.06384 4537.6982 9205346
842.73419 932.23688 4563.0186 9271138
871.67993 934.27795 4573.0093 9731688
892.41125 927.6571 4540.6021 9468261
917.98181 926.30695 4533.9937 9073504
940.97101 922.50287 4515.3735 9534054
968.3916 923.13354 4518.4604 9600102
993.00641 921.1275 4508.6416 9665641
1020.7456 922.04889 4513.1514 9468262
1043.5153 918.54889 4496.02 9534309
1065.594 914.63 4476.8384 9468517
1094.957 917.00195 4488.4482 9401954
1118.7507 914.70795 4477.2197 8941659
1140.7203 911.06335 4459.3804 9402467
1168.3231 911.98096 4463.8721 9468518
1211.7407 924.92944 4527.251 9863276
1224.4442 914.38062 4475.6177 9336676
1244.1218 909.37671 4451.125 9402469
1265.7142 905.95117 4434.3579 9073760
1297.5137 909.82208 4453.3052 9139552
1318.4941 906.10376 4435.105 9468263
1351.0138 910.3056 4455.6719 9402470
1374.0621 908.08716 4444.813 9468263
1406.0137 911.7254 4462.6211 9205344
1436.3643 914.21027 4474.7837 8810587
1450.7521 906.62933 4437.6772 8481365
1487.8842 913.27899 4470.2256 8546902
1513.1716 912.55286 4466.6714 7560006
1545.4204 915.97772 4483.4351 8284244
1556.9861 907.23499 4440.6421 8350038
1585.1562 908.29736 4445.8418 8876124
1613.8242 909.60559 4452.2451 8810332
1640.8254 909.94733 4453.918 8810333
1660.8081 906.44763 4436.7881 8613208
1688.6061 907.25604 4440.7451 8481365
1718.7887 909.30121 4450.7554 8481365
1735.3806 904.20319 4425.8022 8415828
1772.2039 909.64142 4452.4209 8284243
1792.9193 906.7735 4438.3833 8612951
1818.8354 906.58081 4437.4399 8942173
1836.7437 902.45892 4417.2646 8810588
1876.0641 908.82574 4448.4282 8349267
1894.3707 904.97742 4429.5918 8809563
1916.6584 903.11011 4420.4517 8743770
1938.3441 901.01324 4410.1885 8743769
1954.1127 896.25836 4386.9146 8744796
1982.4663 897.32458 4392.1338 8941406
1990.3649 889.22479 4352.4873 9205088
2001.5839 882.79657 4321.0234 9007453
2053.8608 894.41071 4377.8706 8547157
2063.7183 887.49255 4344.0088 8678228
2074.8616 881.29114 4313.6548 8941400
2115.4897 887.61194 4344.5928 8940887
2155.1973 893.39899 4372.9189 9138269
2214.6243 907.12573 4440.1074 7887947
2250.5896 911.03296 4459.2319 7492422
2253.6143 901.6701 4413.4033 8019027
2282.4875 902.74524 4418.666 7821648
2301.6826 900.01166 4405.2861 8611675
2311.3743 893.66498 4374.2207 9401187
0 0 0 0
2157.3103 815.79926 3993.0918 7359282
2185.4009 817.45502 4001.196 6043418
2197.8303 813.28015 3980.7615 3083780
2221.5044 813.31055 3980.9102 2689798
2217.1086 803.17181 3931.2842 1310977
2200.0632 788.70905 3860.4932 1575433
2240.4836 794.93317 3890.9585 917504
2274.8462 798.90302 3910.3896 11506559
2305.0964 801.3631 3922.4309 12164228
2336.3728 804.1272 3935.9604 13019279
2362.9744 805.24365 3941.4253 13018768
2430.7415 820.22931 4014.7751 12821648
2440.0916 815.40308 3991.1523 13348507
2456.6885 813.06805 3979.7229 13676957
2526.1206 828.09735 4053.2871 12689549
2631.1863 854.41473 4182.103 7295294
2709.9104 871.76715 4267.0376 6374192
2711.3689 864.17236 4229.8633 6572601
2775.323 876.45294 4289.9731 4467233
2811.0486 879.67688 4305.7534 655360
2804.5305 869.74219 4257.126 1574407
2793.5044 858.59912 4202.584 1114113
2770.6211 844.04071 4131.3252 1442050
2774.4285 837.79736 4100.7656 1905941
2786.7888 834.2226 4083.2683 10654082
2859.032 848.48096 4153.0586 9008491
2885.3328 848.97791 4155.4912 9139563
2920.97 852.19031 4171.2148 9269864
2982.7058 862.89917 4223.6313 9137763
2986.1077 856.69415 4193.2598 11045240
3061.4097 871.04901 4263.5225 12163460
3104.9714 876.21185 4288.793 12426631
3149.2727 881.4978 4314.6665 12229510
3161.5452 877.80591 4296.5952 12032130
3215.75 885.72241 4335.3442 12032133
3182.1536 869.52179 4256.0474 8151122
3132.6162 849.25439 4156.8447 6111797
3186.9341 857.23895 4195.9263 12692639
3177.4736 848.07715 4151.082 12692644
3208.2573 849.71478 4159.0981 12364193
3199.9236 841.04626 4116.668 10520705
3228.4001 842.11053 4121.8774 10717571
3241.0759 839.0683 4106.9863 8875107
3306.3528 849.58759 4158.4751 7690832
3328.947 849.0647 4155.916 9269349
3405.5603 862.22614 4220.3374 9203556
3424.7612 860.76599 4213.1904 9400679
3402.9482 849.09338 4156.0562 9006433
3465.3569 858.45209 4201.8643 8874594
3511.8464 863.76196 4227.8545 8743521
3505.9067 856.19244 4190.8042 8414814
3547.593 860.27875 4210.8052 8217696
3636.7952 875.74988 4286.5317 8151646
3587.7661 857.95074 4199.4106 7889501
3611.0576 857.57196 4197.5562 7494998
3645.0056 859.71167 4208.0298 7166289
3615.356 846.92419 4145.439 8350561
3696.1492 860.00677 4209.4741 12165783
3766.7498 870.55829 4261.1206 13349028
3846.9946 883.18335 4322.9165 13744300
3824.5369 872.21912 4269.25 12954013
3849.1182 872.05615 4268.4521 11967374
3829.1812 861.87512 4218.6191 9927279
3821.2246 854.50531 4182.5459 9531495
3764.5803 836.41296 4093.9895 9663337
3807.4763 840.52661 4114.1245 9795695
3820.9712 838.13867 4102.4365 9138022
3813.6401 831.24158 4068.6772 8546142
3829.5652 829.46844 4059.998 8020314
3792.9561 816.40967 3996.0793 8151900
3893.2566 832.79901 4076.3003 8151903
0 0 0 0
0 0 0 0
0 0 0 0
0 0 0 0
0 0 0 0
-4486.186 1041.2819 4953.0869 12
-4472.856 1045.0255 4970.894 12
-4452.9697 1047.2767 4981.603 14
-4427.2329 1048.173 4985.8657 14
-4404.5645 1049.8124 4993.6641 12
-4383.3818 1051.8307 5003.2646 11
-4353.8276 1051.854 5003.3755 11
-4322.2969 1051.3969 5001.2007 13
-4292.5723 1051.3756 5001.0996 13
-4263.3369 1051.4747 5001.5713 14
-4220.5278 1048.2042 4986.0146 14
-4194.1611 1048.9999 4989.7993 14
-4164.0942 1048.8749 4989.2046 13
-4142.8965 1050.998 4999.3042 14
-4114.3896 1051.2843 5000.6655 14
-4084.8555 1051.3103 5000.7891 13
-4054.9084 1051.2296 5000.4053 14
-4024.5261 1051.0341 4999.4751 14
-3992.0713 1050.2904 4995.9375 14
-3963.4392 1050.5487 4997.1665 270
-3917.2607 1046.1251 4976.1245 269
-3887.5955 1046.0779 4975.8999 15
-3854.5647 1045.1173 4971.3311 15
-3830.5264 1046.599 4978.3789 14
-3806.8337 1048.199 4985.9893 14
-3770.9521 1046.4412 4977.6284 14
-3741.5762 1046.4756 4977.7915 14
-3725.8857 1050.3684 4996.3091 13
-3691.9595 1049.1417 4990.4736 13
-3669.3506 1051.1371 4999.9653 13
-3645.7085 1052.8667 5008.1924 270
-3612.6213 1051.8745 5003.4731 269
-3582.6943 1051.7937 5003.0884 17
-3552.7703 1051.7124 5002.7017 16
-3541.6079 1057.2303 5028.9492 16
-3514.3694 1058.0022 5032.6206 16
-3488.1743 1059.1042 5037.8628 16
-3468.4229 1062.1985 5052.5815 16
-3453.6584 1066.8873 5074.8848 16
-3423.9417 1066.9989 5075.4155 16
-3375.7229 1061.2957 5048.2866 16
-3340.8557 1059.7255 5040.8179 16
-3325.6926 1064.4336 5063.2134 16
-3287.3494 1061.7407 5050.4038 17
-3285.8809 1071.0176 5094.5312 18
-3265.3967 1074.2109 5109.7212 18
-3243.7422 1077.0754 5123.3467 18
-3217.3286 1078.3989 5129.6421 18
-3189.042 1079.1138 5133.0425 18
-3152.9102 1077.1624 5123.7598 18
-3134.1211 1081.1554 5142.7539 18
-3112.9087 1084.3827 5158.105 19
-3084.5908 1085.1743 5161.8706 19
-3053.1904 1084.8864 5160.5015 19
-3025.6748 1085.9872 5165.7373 19
-3001.8196 1088.4376 5177.3931 19
-2974.8113 1089.7834 5183.7954 19
-2945.1709 1090.1832 5185.6968 19
-2919.5879 1092.109 5194.8574 21
-2893.7117 1093.9652 5203.6865 21
-2864.4829 1094.5802 5206.6118 21
-2841.6765 1097.6893 5221.4014 21
-2807.1226 1096.2793 5214.6938 18
-2781.3433 1098.3027 5224.3188 18
-2756.8728 1100.8943 5236.6465 19
-2729.8359 1102.5083 5244.3242 19
-2856.875 1167.1035 5551.585 20
-2813.3528 1162.7134 5530.7026 21
-2832.5508 1184.4468 5634.082 21
-2757.1169 1166.6556 5549.4546 21
-2562.7065 1097.4832 5220.4204 21
-2532.8213 1097.9391 5222.5894 21
-2505.1675 1099.3856 5229.4702 21
-2476.3362 1100.3453 5234.0352 21
-2447.8501 1101.4847 5239.4546 21
-2417.5991 1101.8489 5241.187 21
-2390.8484 1103.8386 5250.6519 21
-2359.9255 1103.9292 5251.0825 21
-2325.1775 1102.209 5242.8999 21
-2290.7075 1100.5757 5235.1309 21
-2259.168 1100.3248 5233.9375 21
-2229.2202 1100.8531 5236.4502 21
-2196.6355 1100.0757 5232.7524 21
-2224.292 1129.8767 5374.5078 21
-2151.3992 1108.7255 5273.897 21
-2098.6404 1097.4797 5220.4043 21
-2068.6135 1097.963 5222.7031 21
-2037.4415 1097.8439 5222.1362 21
-2031.822 1111.7019 5288.0552 21
-1975.9376 1098.0612 5223.1699 21
-1946.6853 1099.0215 5227.7383 21
-1923.2899 1103.3732 5248.438 21
-1886.52 1100.0688 5232.7202 21
-1858.514 1101.85 5241.1924 21
-1829.5098 1103.0897 5247.0898 21
-1794.8092 1100.8785 5236.5713 21
-1759.6173 1098.2827 5224.2236 21
-1725.3657 1096.1913 5214.2754 21
-1704.5725 1102.7302 5245.3794 21
-1682.9531 1108.9678 5275.0493 21
-1648.0934 1106.5515 5263.5562 20
-1620.3219 1108.8931 5274.6943 19
-1584.8126 1105.927 5260.5859 19
-1556.9363 1108.2753 5271.7559 19
-1530.0658 1111.4507 5286.8599 19
-1503.2574 1114.8046 5302.8135 19
-1472.5292 1115.3328 5305.3262 19
-1391.5724 1077.0095 5123.0332 19
-1336.7041 1057.6184 5030.7949 19
-1314.259 1063.5814 5059.1597 19
-1322.548 1095.2755 5209.9194 19
-1336.7616 1133.5085 5391.7832 19
-1308.6512 1136.8466 5407.6611 19
-1279.7582 1139.6552 5421.021 21
-1248.6888 1140.6205 5425.6128 21
-1221.2323 1145.0242 5446.5601 21
-1191.356 1147.3367 5457.5596 21
-1161.9625 1150.2561 5471.4468 21
-1129.5942 1150.3138 5471.7212 21
-1100.4788 1153.7854 5488.2344 21
-1069.8376 1155.8201 5497.9131 21
-1040.0145 1158.8939 5512.5347 21
-1009.2105 1161.0389 5522.7378 21
-986.58215 1173.0486 5579.8643 21
-959.47058 1180.3757 5614.7173 21
-926.46484 1180.7177 5616.3438 21
-892.75189 1180.15 5613.644 21
-860.57458 1181.6473 5620.7656 21
-830.79712 1186.6927 5644.7661 21
-807.9754 1202.514 5720.0229 19
-773.14844 1201.071 5713.1592 19
-743.54913 1207.9889 5746.0654 20
-709.66705 1208.2788 5747.4448 21
-673.28375 1204.125 5727.6855 21
-639.22174 1203.9016 5726.6235 21
-601.92419 1197.2179 5694.8311 21
-567.39825 1195.5803 5687.0415 21
-534.8349 1198.1326 5699.1816 21
-498.67047 1192.4178 5671.9985 21
-467.29288 1198.1509 5699.2686 21
-431.67987 1193.071 5675.1055 21
-399.54947 1197.5715 5696.5127 21
-364.34918 1192.8521 5674.0635 21
-330.64157 1192.5568 5672.6587 21
-295.47018 1186.3174 5642.98 21
-259.06885 1172.9169 5579.2378 21
-226.99283 1178.0431 5603.6216 21
-191.47098 1163.9783 5536.7192 21
-157.76181 1157.3949 5505.4038 21
-124.85793 1154.8264 5493.1865 21
-92.04557 1151.5914 5477.7988 20
-59.282867 1145.7913 5450.209 20
-26.912378 1142.76 5435.79 19
5.2786751 1137.8888 5412.6187 19
37.275589 1135.4696 5401.1113 19
69.134987 1133.032 5389.5161 19
100.59409 1127.6476 5363.9043 19
131.86816 1123.2728 5343.0952 19
163.2234 1121.1499 5332.9966 19
193.09573 1111.1823 5285.583 19
220.49261 1091.7401 5193.1021 19
250.34409 1087.7255 5174.0063 19
281.5491 1089.8265 5184 19
310.40112 1083.302 5152.9648 19
337.82785 1073.4176 5105.9473 19
369.61316 1077.8688 5127.1206 19
398.06467 1072.6603 5102.3447 19
426.67398 1068.5823 5082.9473 19
453.43445 1060.7172 5045.5352 19
481.41556 1056.5042 5025.4946 19
512.03064 1058.2255 5033.6826 19
537.57874 1049.8619 4993.8994 19
564.06897 1044.115 4966.563 19
592.82178 1042.9185 4960.8716 19
625.31836 1048.1101 4985.5669 18
651.0929 1042.0747 4956.8579 18
676.09442 1035.3765 4924.9966 65551
703.7077 1033.0669 4914.0103 131083
665.17657 937.69714 4460.3633 393475
684.45746 928.00018 4414.2373 4009257
702.71002 917.67413 4365.1191 8811366
732.46973 922.57507 4388.4316 9995892
771.54248 938.4679 4464.0293 9929329
793.67114 933.38025 4439.8291 9731692
820.10242 933.51672 4440.478 9797484
845.57959 932.59241 4436.0815 9600362
871.78699 932.505 4435.6655 9731690
893.52454 927.78137 4413.1968 9928811
919.68781 927.79126 4413.2437 9862763
946.65277 928.58685 4417.0283 9863020
970.0976 925.97974 4404.6265 9928812
997.7915 927.45868 4411.6616 9534053
1021.2343 925.0116 4400.0215 9468260
1050.4207 927.75922 4413.0913 9731434
1072.8015 924.50854 4397.6284 9665641
1110.4708 934.27484 4444.084 9797227
1118.4426 919.18188 4372.291 9402727
1143.5397 918.52795 4369.1807 9205091
1169.8118 918.82593 4370.5981 8941919
1187.9348 912.849 4342.1675 9139298
1218.3955 916.40515 4359.083 9665386
1244.7145 916.76312 4360.7861 9665642
1272.1991 917.94775 4366.4209 9270884
1294.1483 915.17065 4353.2109 9270884
1317.6896 913.60596 4345.7681 9402470
1348.3937 916.97223 4361.7808 9402469
1372.696 915.94031 4356.8721 9139298
1401.1984 917.69727 4365.2295 9007711
1419.5688 912.87506 4342.2915 8283988
1456.0996 919.69489 4374.7314 8086609
1477.8633 917.11206 4362.4458 8086864
1498.0002 913.62604 4345.8638 8284243
1532.9762 919.15509 4372.1641 8415829
1550.2389 914.05627 4347.9102 8547415
1572.9644 912.29254 4339.5205 8810587
1608.1655 917.70465 4365.2646 8613208
1628.9469 914.84711 4351.6719 8152655
1641.7977 907.69409 4317.647 8086863
1674.8566 911.76141 4336.9941 7889484
1694.2218 908.36395 4320.8335 8021069
1722.0531 909.53918 4326.4238 8152656
1750.9995 911.26031 4334.6104 8284241
1783.1404 914.57007 4350.354 8415829
1799.0286 909.56824 4326.562 8284242
1835.512 914.97345 4352.2729 8217936
1847.3251 908.10162 4319.5854 8481878
1872.9167 908.09808 4319.5688 8612954
1895.7552 906.77783 4313.2886 8744283
1917.36 904.91052 4304.4062 8810333
1947.222 906.93793 4314.0503 8875869
1956.771 899.57465 4279.0249 9007712
1986.9624 901.76807 4289.4585 8876127
2005.035 898.4754 4273.7964 8612697
2029.3215 898.01483 4271.6055 8743513
2028.0298 886.38611 4216.291 8612186
2071.3667 894.30884 4253.9771 8809310
2107.415 898.93201 4275.9683 8940644
2167.5334 913.59058 4345.6948 6835529
2199.7434 916.27997 4358.4878 984068
2201.0728 906.19318 4310.5078 917507
2213.5371 900.86969 4285.1851 655367
2188.0125 880.38141 4187.728 720902
2180.9163 867.68439 4127.332 851970
2103.906 827.76208 3937.4326 1048576
2146.813 835.37848 3973.6616 4005144
2181.9529 839.8399 3994.8835 2953995
2195.1172 835.83783 3975.8469 1245184
2195.7395 827.19592 3934.7397 1179648
2200.0623 820.11505 3901.0581 4401186
2225.8635 821.10474 3905.7656 4466977
2224.3774 812.11151 3862.9873 1048576
2253.9888 814.53937 3874.5361 3219997
2282.0234 816.35431 3883.1692 12426626
2309.8254 818.0506 3891.2378 12557440
2343.0518 821.61542 3908.1946 12622719
2383.2454 827.52966 3936.3271 12885635
2417.0425 831.12976 3953.4519 13083789
2420.2803 824.25336 3920.7429 13282711
2469.8835 833.14801 3963.0522 13875105
2509.676 838.59668 3988.97 13414815
2617.5879 866.49323 4121.666 8349010
2640.8477 866.11078 4119.8467 8611669
2700.5303 877.57141 4174.3618 8019792
2757.5774 887.97528 4223.8501 8941411
2757.7842 880.05341 4186.168 5718073
2771.4526 876.53015 4169.4092 1049604
2750.9431 862.35522 4101.9829 851968
2773.8706 861.92596 4099.9409 524288
2736.7583 843.00995 4009.9626 10785928
2798.332 854.55621 4064.8853 9995897
2841.2612 860.2605 4092.0186 10784897
2859.491 858.45312 4083.4214 10257527
2884.3025 858.63531 4084.2883 10191221
2891.2319 853.53552 4060.03 10519670
2963.2737 867.58337 4126.8516 10914427
3013.4978 875.06573 4162.4434 11571842
3048.6245 878.07831 4176.7729 11900807
3061.5195 874.69067 4160.6587 11966087
3088.4556 875.33649 4163.731 11768706
3122.625 878.0061 4176.4297 10913910
3128.1594 872.64545 4150.9307 11374720
3149.365 871.70618 4146.4624 11966859
3136.1335 861.32343 4097.0747 11901325
3153.8003 859.52112 4088.5015 12098960
3183.3127 860.94995 4095.2983 13480870
3212.4702 862.2619 4101.5386 11967118
3205.1072 853.8252 4061.4077 9203813
3272.9189 865.3913 4116.4243 8611419
3291.2808 863.80792 4108.8926 7953489
3315.9504 863.89111 4109.2886 8480090
3376.0608 873.1391 4153.2783 8940127
3381.7229 868.27332 4130.1333 8809055
3402.7678 867.39874 4125.9731 8874593
3418.9094 865.29547 4115.9688 8479835
3435.0955 863.23334 4106.1597 8480350
3441.2783 858.70404 4084.6152 8349534
3477.4978 861.68085 4098.7749 8678245
3543.8633 872.03424 4148.0229 8612451
3506.9641 857.00977 4076.5559 8415072
3532.0801 857.24219 4077.6614 8546658
3589.377 865.2287 4115.6509 8282714
3626.1831 868.20142 4129.7915 8348505
3655.7168 869.40472 4135.5151 9203558
3765.3584 889.51636 4231.1807 10585465
3870.6284 908.33606 4320.7007 12164754
3818.6807 890.25592 4234.6987 13546919
3855.8835 893.06012 4248.0376 14074033
3833.3955 882.09259 4195.8677 14007214
3800.5728 868.90363 4133.1313 13019805
3835.5149 871.27704 4144.4214 10387574
3816.1965 861.37286 4097.3101 8216404
3798.8796 852.04291 4052.9297 7887182
3849.8025 858.03931 4081.4531 8479578
3887.1443 860.95276 4095.3115 8677472
3946.5576 868.68829 4132.1074 8677215
0 0 0 0
0 0 0 0
0 0 0 0
0 0 0 0
0 0 0 0
-4419.1934 1054.647 4879.1216 14
-4403.7529 1057.8838 4894.0962 14
-4373.5474 1057.5931 4892.7515 14
-4348.5181 1058.5586 4897.2183 14
-4320.4551 1058.7937 4898.3057 15
-4293.5518 1059.318 4900.7314 15
-4261.459 1058.5604 4897.2261 16
-4218.3198 1055.0295 4880.8916 16
-4195.5957 1056.5912 4888.1162 16
-4164.0488 1055.9373 4885.0908 16
-4453.6313 1137.2776 5261.3965 16
-4315.9087 1109.8792 5134.6426 16
-4067.2456 1053.3596 4873.166 16
-4062.2236 1059.5825 4901.9551 13
-4049.863 1063.967 4922.2393 13
-4020.7412 1063.9799 4922.2988 13
-3983.4165 1061.8064 4912.2432 14
-3956.3054 1062.3435 4914.728 14
-3926.7229 1062.22 4914.1562 14
-3897.0593 1062.0723 4913.4736 14
-3867.1223 1061.8475 4912.4336 14
-3843.2212 1063.2892 4919.1035 14
-3815.3054 1063.6338 4920.6973 13
-3783.9556 1063.0189 4917.853 14
-3749.6643 1061.5618 4911.1113 14
-3716.2556 1060.3336 4905.4297 270
-3689.9885 1061.1399 4909.1597 270
-3671.1443 1064.1104 4922.9023 270
-3643.3889 1064.5249 4924.8203 270
-3617.0369 1065.3595 4928.6812 269
-3583.1763 1063.9781 4922.2905 16
-3534.7751 1058.2209 4895.6558 16
-3506.1348 1058.3335 4896.1763 16
-3491.3608 1062.6682 4916.23 16
-3479.4746 1067.9623 4940.7222 16
-3446.1023 1066.6956 4934.8618 16
-3422.1733 1068.3551 4942.5396 16
-3399.5144 1070.4432 4952.2002 16
-3381.4866 1074.0387 4968.834 16
-3357.4854 1075.7834 4976.9053 15
-3330.1741 1076.4891 4980.1699 15
-3300.5364 1076.4486 4979.9824 16
-3265.9551 1074.7805 4972.2656 18
-3247.8989 1078.5698 4989.7959 18
-3222.3748 1079.9258 4996.0693 18
-3195.1372 1080.7275 4999.7783 18
-3172.3167 1083.0522 5010.5332 18
-3148.845 1085.1965 5020.4531 19
-3131.1377 1089.3872 5039.8403 19
-3108.5767 1091.9537 5051.7139 19
-3085.6863 1094.4531 5063.2773 19
-3058.1045 1095.3215 5067.2944 19
-3036.3049 1098.2986 5081.0674 19
-3009.4568 1099.4908 5086.583 19
-2982.6689 1100.7294 5092.313 19
-2959.1919 1103.2278 5103.8711 19
-2932.7781 1104.6714 5110.5498 21
-2907.1685 1106.4513 5118.7842 21
-2878.5195 1107.0997 5121.7842 21
-2940.0667 1142.8218 5287.0454 21
-2821.8894 1108.7009 5129.1919 21
-2797.9167 1111.2524 5140.9956 21
-2906.812 1167.2123 5399.8833 19
-2882.9412 1170.5132 5415.1543 19
-2710.7947 1113.0088 5149.1211 19
-2686.8596 1115.7411 5161.7617 19
-2836.5508 1191.4663 5512.0898 19
-2630.0117 1117.5817 5170.2769 21
-2592.1951 1114.4962 5156.0024 21
-2557.7224 1112.7921 5148.1187 21
-2535.4949 1116.4384 5164.9878 21
-2509.4817 1118.4867 5174.4639 21
-2473.3489 1116.0195 5163.0503 21
-2435.7161 1112.8053 5148.1797 21
-2405.2559 1112.8279 5148.2847 21
-2373.8772 1112.4209 5146.4014 21
-2347.8867 1114.5608 5156.3013 21
-2318.9377 1115.3345 5159.8804 21
-2287.8433 1115.083 5158.7173 21
-2252.271 1112.6128 5147.2891 21
-2224.0596 1113.7607 5152.6001 21
-2184.5334 1109.1957 5131.481 21
-2167.5947 1116.1324 5163.5723 21
-2127.2874 1111.0626 5140.1177 21
-2090.8433 1107.8925 5125.4517 21
-2058.8975 1107.0476 5121.543 21
-2035.2559 1110.7094 5138.4834 21
-2006.1322 1111.4452 5141.8877 21
-1982.3539 1115.2108 5159.3086 21
-1925.8943 1100.4209 5090.8857 21
-1908.7542 1107.9841 5125.876 21
-1882.6823 1110.5236 5137.624 21
-1872.7069 1122.7974 5194.4062 21
-1838.7112 1120.8391 5185.3467 21
-1798.7916 1115.1418 5158.9893 21
-1762.1696 1111.327 5141.3408 21
-1728.8088 1109.4711 5132.7549 21
-1697.4404 1108.8501 5129.8818 21
-1672.2987 1112.3483 5146.0654 21
-1641.9137 1112.4238 5146.415 21
-1625.5253 1122.1649 5191.48 21
-1595.3429 1122.5754 5193.3794 19
-1566.7131 1124.1162 5200.5073 19
-1540.5011 1127.488 5216.1069 19
-1507.6787 1126.061 5209.5054 19
-1477.5319 1126.6145 5212.0654 19
-1446.6852 1126.6466 5212.2139 19
-1339.8135 1066.1816 4932.4844 19
-1331.3358 1083.0648 5010.5913 19
-1302.6617 1083.9133 5014.5166 19
-1335.5869 1137.2533 5261.2837 19
-1316.5741 1147.8608 5310.3574 19
-1286.9009 1149.4661 5317.7837 19
-1258.6593 1152.4625 5331.6465 21
-1232.5792 1157.6437 5355.6157 21
-1202.4619 1159.2064 5362.8462 21
-1173.1755 1161.677 5374.2759 21
-1144.3647 1164.7695 5388.5825 21
-1114.4214 1166.8536 5398.2246 21
-1082.5784 1167.0132 5398.9624 21
-1052.793 1169.4681 5410.3198 21
-1023.3973 1172.5239 5424.4565 21
-997.83789 1180.3156 5460.5029 21
-975.27063 1192.2875 5515.8887 21
-946.07086 1196.7002 5536.3037 21
-905.91791 1187.0775 5491.7856 21
-881.69397 1198.3879 5544.1113 21
-852.0625 1202.9398 5565.1699 21
-825.66559 1212.6085 5609.9004 21
-795.67682 1217.5922 5632.9561 21
-763.31128 1219.2158 5640.4678 21
-730.60284 1220.4155 5646.0181 21
-694.21521 1215.2896 5622.3037 21
-659.85571 1213.3761 5613.4517 21
-629.37494 1218.7708 5638.4087 21
-595.53607 1217.9027 5634.3926 21
-556.60645 1205.9023 5578.8755 21
-522.94769 1204.5269 5572.5117 21
-488.21039 1200.3142 5553.0229 21
-458.13461 1207.7819 5587.5708 21
-426.70917 1212.5776 5609.7578 21
-391.55801 1206.7023 5582.5762 21
-357.74255 1204.2385 5571.1777 21
-323.44919 1199.5013 5549.2622 21
-289.16397 1193.7256 5522.542 21
-257.42291 1198.3187 5543.7915 21
-224.5589 1198.2635 5543.5361 21
-190.16481 1188.6259 5498.9492 21
-158.02327 1191.9933 5514.5278 21
-123.16876 1171.3165 5418.8706 21
-90.593758 1165.3783 5391.3989 21
-58.337254 1159.2988 5363.2734 21
-26.405773 1152.8557 5333.4653 19
5.1868181 1149.6058 5318.4307 19
36.640175 1147.5764 5309.042 19
67.955826 1145.1017 5297.5933 19
99.107689 1142.3031 5284.646 19
129.95926 1138.2186 5265.7495 19
160.45218 1133.1829 5242.4526 19
190.95091 1129.8152 5226.873 19
220.65759 1123.3555 5196.9883 19
247.79781 1107.0126 5121.3809 19
276.15634 1099.0851 5084.7061 19
304.06342 1091.0974 5047.7524 19
331.38989 1082.6438 5008.6436 19
361.20248 1083.0345 5010.4512 19
389.99191 1080.531 4998.8691 19
418.00064 1076.3707 4979.6221 19
443.5947 1066.9513 4936.0449 19
473.12665 1067.5826 4938.9663 19
497.42181 1057.0126 4890.0659 19
525.71521 1055.6349 4883.6919 19
554.93091 1056.156 4886.103 18
584.37054 1057.0308 4890.1499 18
609.41211 1050.2433 4858.749 18
635.60529 1045.9633 4838.9482 18
662.25769 1042.7761 4824.2031 16
690.11621 1041.673 4819.1001 15
696.37555 1009.3511 4669.5688 196617
681.89996 950.5946 4397.7432 787463
686.30383 921.51385 4263.2065 5917251
724.93896 938.8291 4343.3125 7890007
751.13501 939.40033 4345.9551 8942433
784.81769 948.98621 4390.3022 9336931
804.37384 941.42352 4355.3149 9402727
834.18115 945.95587 4376.2832 9468776
863.94653 950.16876 4395.7729 9929327
878.02118 937.38348 4336.6245 9929067
902.59467 936.21521 4331.2197 9600103
926.38086 934.3175 4322.4404 9665896
959.71057 941.88837 4357.4653 9205345
977.88666 934.57977 4323.6538 9600103
1001.323 932.54346 4314.2329 9600103
1025.6825 931.44684 4309.1597 9665640
1062.8556 941.75714 4356.8584 9731178
1082.2817 936.22638 4331.2715 9402469
1096.2908 926.37445 4285.6934 9270883
1123.4764 927.85089 4292.5239 9073504
1143.6771 923.62097 4272.9551 9204834
1166.7095 921.81165 4264.5845 8941919
1207.0448 933.46008 4318.4736 9665641
1215.719 920.64825 4259.2021 9402470
1238.4219 918.76526 4250.4912 9599592
1259.854 916.03351 4237.853 9402470
1281.5238 913.57788 4226.4927 9402469
1308.9515 915.24243 4234.1934 9139297
1340.8826 919.93402 4255.8979 9073504
1366.4705 920.18091 4257.04 9336675
1382.955 914.3996 4230.2939 9205345
1412.6058 917.37476 4244.0581 8876124
1446.0471 922.66437 4268.5293 8876125
1470.0227 921.83618 4264.6978 8941917
1470.4569 906.52301 4193.8545 8876124
1504.6715 912.198 4220.1089 9007966
1538.9572 917.72986 4245.7007 8679001
1564.4841 917.94458 4246.6943 8810330
1580.8916 912.88647 4223.2939 8547415
1629.5262 926.30566 4285.375 8876381
1642.5592 919.38568 4253.3613 8876123
1662.4952 916.48029 4239.9199 8613208
1682.5596 913.73114 4227.2017 8481365
1704.3344 911.97784 4219.0903 8547158
1724.4156 909.38232 4207.0825 8744537
1749.8752 909.65649 4208.3511 8810331
1770.0894 907.23456 4197.1465 8875867
1814.8925 917.30774 4243.748 8547414
1829.1533 911.87958 4218.6357 8546905
1856.3357 912.9527 4223.6001 8349782
1883.0402 913.7652 4227.3594 8547163
1905.0908 912.32782 4220.7095 8941919
1930.2419 912.39319 4221.0117 8876126
1951.3816 910.58496 4212.6465 9204834
1946.566 896.86377 4149.168 8415061
1994.1348 907.31952 4197.5396 9006942
2016.3916 906.1427 4192.0952 8809309
2046.0452 908.27814 4201.9741 9270116
2064.2393 905.3363 4188.3643 9401445
2084.3425 903.29169 4178.9053 9335651
2103.0762 900.70856 4166.9551 8744546
2202.9258 932.52264 4314.1367 3811878
2203.895 922.22974 4266.5186 524288
2180.0022 901.88477 4172.3965 393218
2183.7644 893.30896 4132.7222 327680
2194.2412 887.63959 4106.4941 3218976
2147.5288 859.21362 3974.9868 4995378
2172.3813 859.72638 3977.3589 1246466
2183.0913 854.69135 3954.0652 1114112
2194.9846 850.22162 3933.387 1048576
2209.4912 846.84747 3917.7771 1836804
2228.05 845.08038 3909.6023 5783088
2209.0496 829.25049 3836.3679 1968386
2234.6953 830.33203 3841.3716 2493444
2241.3147 824.39337 3813.8977 11834491
2259.9624 822.95349 3807.2361 12425597
2313.8787 834.25793 3859.5342 12556668
2347.4373 838.07306 3877.1838 12819070
2376.5469 840.24127 3887.2151 12293498
2407.1401 842.88733 3899.4563 13347213
2453.7427 851.03571 3937.1531 13678492
2482.9929 853.06885 3946.5593 14009770
2577.5945 877.30688 4058.6919 12888211
2652.9263 894.59894 4138.6899 11901061
2676.3291 894.22333 4136.9526 10322032
2679.0996 887.02356 4103.644 8940379
2724.4731 893.93176 4135.6035 6506295
2705.4326 879.77014 4070.0876 6703678
2714.5017 874.91901 4047.6448 8874336
2734.824 873.74811 4042.2275 5454390
2754.354 872.34656 4035.7439 1378565
2779.0984 872.60645 4036.9463 11574160
2814.8508 876.28888 4053.9822 10849923
2858.0007 882.19232 4081.2932 10718334
2867.5493 877.71179 4060.5649 9993584
2876.1614 873.02167 4038.8669 10387827
2886.5193 868.93445 4019.9583 10387572
2930.0417 874.8161 4047.1685 10650744
2987.2954 884.66852 4092.749 10321521
3016.2769 886.05713 4099.1729 11308160
3035.967 884.71594 4092.9683 10716278
3037.9775 878.28479 4063.2158 12097929
3063.2708 878.633 4064.8264 12295824
3101.0991 882.54309 4082.9158 12295824
3122.8618 881.85583 4079.7366 12230288
3156.4241 884.48553 4091.9026 12625046
3156.2363 877.69006 4060.4644 12822425
3173.0215 875.68152 4051.1724 13085598
3202.8958 877.28827 4058.6057 12690583
3212.0391 873.23511 4039.8542 11769481
3214.6541 867.48022 4013.2305 11045503
3272.356 876.56604 4055.2644 8216147
3331.7585 885.97156 4098.7773 7953233
3332.0679 879.64081 4069.489 8348504
3336.009 874.35284 4045.0256 8874593
3343.0986 869.95978 4024.7017 8874337
3384.293 874.4408 4045.4326 8940900
3385.6934 868.64923 4018.6389 8414298
3412.1636 869.32568 4021.7681 8414557
3422.95 866.02466 4006.4966 8151384
3450.4092 866.95825 4010.8157 8019797
3465.1401 864.70294 4000.3818 8085334
3465.7085 858.96802 3973.8503 8282970
3502.2434 862.16455 3988.6387 8414299
3521.1519 861.00812 3983.2888 8348248
3599.5671 874.32117 4044.8789 8676957
3630.8657 876.08929 4053.0588 7821903
3769.9702 903.67566 4180.6816 7295559
3820.0474 909.70093 4208.5566 8743260
3815.1257 902.63568 4175.8706 10585209
3829.4009 900.17401 4164.4819 12756377
3802.551 888.13861 4108.8027 13283491
3812.7981 884.86566 4093.6611 13808807
3744.9868 863.63306 3995.4326 13085598
3803.5962 871.63806 4032.4663 11703944
3900.5532 888.276 4109.4385 9466985
3955.8474 895.2785 4141.834 8347992
0 0 0 0
0 0 0 0
0 0 0 0
0 0 0 0
0 0 0 0
-4354.1064 1067.6028 4807.2607 14
-4332.5361 1069.3104 4814.9502 15
-4305.5767 1069.7018 4816.7124 14
-4337.2451 1084.7612 4884.5229 16
-4245.666 1068.9913 4813.5137 16
-4232.7554 1072.9497 4831.3374 16
-4214.9165 1075.7042 4843.7402 16
-4594.6631 1180.6613 5316.3472 16
-4142.9077 1071.9268 4826.7314 16
-4193.7783 1092.6329 4919.9683 16
-4108.8486 1078.0004 4854.0801 16
-4072.6304 1076.0315 4845.2144 14
-4034.2119 1073.4492 4833.5864 14
-4023.0259 1078.1279 4854.6543 14
-3988.9338 1076.6914 4848.1855 14
-3966.03 1078.2758 4855.3198 14
-3940.4814 1079.1589 4859.2969 14
-3908.7583 1078.3518 4855.6621 14
-3879.7773 1078.2948 4855.4053 14
-3848.1785 1077.5038 4851.8438 14
-3828.5696 1080.0836 4863.46 14
-3802.2874 1080.8054 4866.7104 13
-3769.1294 1079.569 4861.1431 12
-3741.3818 1079.8751 4862.5215 13
-3713.1714 1080.0514 4863.3149 269
-3671.6943 1076.3413 4846.6089 269
-3643.0632 1076.3682 4846.73 269
-3619.5798 1077.9285 4853.7559 270
-3591.0894 1078.0106 4854.126 270
-3566.3784 1079.2379 4859.6523 270
-3545.5745 1081.6772 4870.6362 270
-3508.825 1079.252 4859.7153 14
-3475.4373 1077.8291 4853.3086 14
-3446.7444 1077.8506 4853.4053 14
-3423.1538 1079.4814 4860.7485 14
-3401.3035 1081.6934 4870.709 14
-3374.0188 1082.2002 4872.9912 14
-3349.3586 1083.5649 4879.1362 16
-3335.208 1088.3829 4900.8311 16
-3310.4038 1089.7784 4907.1147 18
-3280.6016 1089.5388 4906.0356 18
-3257.5686 1091.5631 4915.1509 18
-3240.2019 1095.5399 4933.0576 18
-3215.7173 1097.1604 4940.3545 19
-3185.7664 1096.9286 4939.3105 19
-3153.1465 1095.765 4934.0713 19
-3130.498 1098.0771 4944.4824 19
-3106.0515 1099.7964 4952.2241 19
-3081.5142 1101.516 4959.9673 19
-3054.7729 1102.4733 4964.2778 19
-3032.8711 1105.2128 4976.6133 19
-3009.7214 1107.5469 4987.1235 19
-2991.9634 1111.9309 5006.8643 18
-2968.3391 1114.2009 5017.0859 20
-2944.6675 1116.4989 5027.4331 19
-2916.0535 1116.9507 5029.4678 21
-2884.6333 1116.3259 5026.6543 21
-2866.7466 1120.9801 5047.6113 21
-2952.6321 1166.7383 5253.6533 21
-2825.3433 1128.3376 5080.7412 21
-2786.4275 1124.783 5064.7349 21
-2764.564 1128.109 5079.7119 21
-2731.5981 1126.9281 5074.3945 21
-2706.2561 1128.9012 5083.2788 21
-2675.3584 1128.5751 5081.8105 20
-2645.1675 1128.5431 5081.6665 18
-2622.6768 1131.8335 5096.4824 20
-2587.9072 1129.8397 5087.5049 21
-2553.0603 1127.7648 5078.1616 21
-2522.7715 1127.6779 5077.77 21
-2513.3301 1137.0199 5119.8364 21
-2615.2131 1197.5687 5392.4785 21
-2667.6401 1236.6882 5568.6279 21
-2541.2141 1192.8347 5371.1626 21
-2380.2673 1131.4595 5094.7983 21
-2345.3069 1129.1639 5084.4624 21
-2436.7085 1188.4386 5351.3672 21
-2285.8406 1129.5579 5086.2358 21
-2226.3301 1114.8513 5020.0146 21
-2213.8464 1123.6146 5059.4741 21
-2206.3845 1135.2021 5111.6514 21
-2315.3782 1207.8638 5438.8359 21
-2364.5488 1250.9283 5632.7495 21
-2136.8362 1146.6479 5163.1899 20
-2069.3655 1126.5745 5072.8018 21
-2038.8483 1126.3232 5071.6704 21
-1980.068 1110.2175 4999.1489 21
-1948.0381 1108.8491 4992.9873 21
-1922.7417 1111.3306 5004.1606 21
-1893.0505 1111.3097 5004.0669 21
-1860.0764 1109.3303 4995.1543 21
-1842.7014 1116.7405 5028.521 21
-1830.9838 1127.8793 5078.6772 21
-1809.002 1132.9619 5101.564 21
-1761.5029 1121.9646 5052.0444 21
-1731.3811 1121.8464 5051.5122 21
-1712.8513 1129.3673 5085.3779 21
-1685.1486 1131.0011 5092.7344 21
-1645.5852 1124.589 5063.8613 21
-1629.1777 1134.0573 5106.4956 21
-1602.7129 1136.7506 5118.6235 21
-1574.0382 1137.9502 5124.0249 19
-1547.9186 1141.0804 5138.1206 19
-1516.1985 1140.1251 5133.8188 19
-1489.8092 1143.2214 5147.7607 19
-1462.6747 1145.8633 5159.6562 19
-1430.4686 1144.5598 5153.7876 19
-1395.5417 1140.9752 5137.6465 19
-1369.3737 1144.5514 5153.7495 19
-1319.5607 1128.0771 5079.5679 19
-1317.1191 1152.2762 5188.5332 19
-1294.774 1159.8036 5222.4277 19
-1268.1357 1163.7595 5240.2412 20
-1240.7167 1167.1798 5255.6421 21
-1212.2069 1169.7239 5267.0972 21
-1184.056 1172.7576 5280.7578 21
-1156.0315 1176.0847 5295.7393 21
-1125.824 1177.3146 5301.2773 21
-1095.8989 1178.9189 5308.502 21
-1064.319 1178.7855 5307.9009 21
-1039.2227 1186.0435 5340.582 21
-1033.0623 1216.0472 5475.6851 21
-985.55573 1197.7491 5393.291 21
-963.81561 1210.5879 5451.1021 21
-931.52148 1210.6012 5451.1621 21
-905.76172 1219.4126 5490.8384 21
-873.55011 1219.871 5492.9028 20
-846.93115 1228.4772 5531.6548 19
-813.68799 1227.7809 5528.52 19
-775.90607 1219.8904 5492.9902 19
-749.54694 1230.0543 5538.7568 19
-717.21558 1230.8995 5542.563 19
-685.46417 1232.8689 5551.4307 21
-648.78436 1225.726 5519.2671 21
-614.03064 1221.6565 5500.9429 21
-579.10083 1216.761 5478.8984 21
-546.37146 1216.1815 5476.2896 21
-513.75647 1215.7999 5474.5708 21
-479.35834 1210.8623 5452.3379 21
-446.74008 1210.032 5448.5991 21
-414.96594 1211.5367 5455.375 21
-384.19952 1216.4867 5477.6636 21
-351.65262 1216.1924 5476.3384 21
-319.01416 1215.4894 5473.1729 21
-285.85364 1212.4128 5459.3198 21
-252.30135 1206.6776 5433.4946 21
-220.59421 1209.3799 5445.6631 21
-188.25441 1208.9454 5443.7065 21
-154.89314 1200.4152 5405.2959 21
-122.77455 1199.5782 5401.5273 21
-90.661324 1198.2219 5395.4199 21
-58.873692 1202.0353 5412.5913 21
-26.565472 1191.6265 5365.7217 19
5.1654186 1176.251 5296.4883 19
36.061832 1160.4285 5225.2417 19
66.883286 1157.9279 5213.9819 19
97.453255 1154.0295 5196.4282 19
127.84818 1150.4282 5180.2119 19
158.08755 1147.0929 5165.1934 19
188.14734 1143.7478 5150.1313 19
218.08615 1140.7039 5136.4248 19
246.75323 1132.5685 5099.792 19
272.26636 1113.3119 5013.082 19
300.09796 1106.3918 4981.9224 19
328.9418 1104.109 4971.6431 19
356.25311 1097.4803 4941.7954 19
384.85266 1095.526 4932.9951 19
411.82574 1089.5444 4906.061 19
437.14044 1080.2537 4864.2261 19
462.7092 1072.7013 4830.2188 19
487.95682 1065.3279 4797.0171 19
517.38568 1067.3925 4806.3135 19
545.21521 1066.1141 4800.5576 18
573.37543 1065.5773 4798.1401 18
595.24091 1053.9453 4745.7637 18
619.55597 1047.5049 4716.7627 18
651.47101 1053.9152 4745.6274 16
684.04291 1060.8136 4776.6904 65552
705.90283 1051.2118 4733.4546 65550
666.53906 954.6557 4298.6768 262151
672.92743 928.32538 4180.1147 1313291
690.72247 919.04175 4138.312 6114883
692.97089 890.41852 4009.4258 8482911
754.15698 936.91327 4218.7852 8350038
784.48859 943.32269 4247.6455 9402723
809.07153 942.6358 4244.5527 9534309
837.56451 946.40857 4261.541 9468260
854.70947 937.51306 4221.4858 9205345
885.46466 943.62781 4249.0195 9336931
916.57635 949.77362 4276.6934 9271394
933.82916 941.61444 4239.9536 9468262
952.60144 935.37482 4211.8574 9731179
986.29254 943.72864 4249.4736 9205090
1000.3162 933.31653 4202.5894 9665641
1021.1385 929.59943 4185.8516 9863277
1052.3822 935.3208 4211.6143 9468263
1072.6115 931.2146 4193.1245 9468263
1094.7681 928.92975 4182.8364 9468263
1117.7839 927.45905 4176.2139 9139298
1145.0996 929.54248 4185.5952 9139299
1160.6443 922.18488 4152.4653 9336679
1185.0856 922.05487 4151.8799 9336679
1208.6826 921.28668 4148.4209 9534055
1241.0702 927.11578 4174.6685 9336676
1244.827 911.74719 4105.4658 9270884
1276.0349 916.68835 4127.7148 9007711
1310.5906 923.80322 4159.7524 8941919
1334.0193 922.95721 4155.9429 9073505
1350.5493 917.45538 4131.1689 9073505
1366.6879 911.88831 4106.1011 9139298
1403.377 919.98792 4142.5728 9205091
1431.5035 922.29248 4152.9497 8876126
1452.8494 920.22412 4143.6362 8875869
1471.9288 916.81299 4128.2764 8941918
1492.6947 914.54657 4118.0708 8678491
1527.2675 920.67621 4145.6719 8744793
1547.4513 918.07513 4133.9595 8679000
1573.262 918.84131 4137.4097 8547415
1596.7159 918.22876 4134.6514 8481622
1617.8097 916.29791 4125.957 8613208
1633.1982 911.24133 4103.188 8547414
1670.9708 918.6391 4136.499 8481622
1690.1462 915.74664 4123.4746 8810587
1715.024 915.98236 4124.5361 8613209
1735.1112 913.68866 4114.208 8086609
1756.8832 912.33337 4108.1055 8020816
1779.1542 911.27094 4103.3213 8547161
1804.723 911.90338 4106.1689 8678490
1828.8461 911.79816 4105.6953 8415319
1857.5077 913.92877 4115.2891 8415318
1874.6605 910.41504 4099.4673 8744283
1903.8599 912.76672 4110.0566 8678490
1927.0393 912.20923 4107.5464 8612697
1952.17 912.57788 4109.2061 8940892
1977.0643 912.82825 4110.3335 8875357
2004.1207 914.05859 4115.8735 8875101
2036.1776 917.51263 4131.4268 8875356
2043.4963 909.86993 4097.0127 9072479
2089.9238 919.61548 4140.8955 9336421
2135.8279 928.90704 4182.7344 9139557
2111.3545 907.72833 4087.3696 8547164
2071.7893 880.6153 3965.2834 8941922
2102.3604 883.58765 3978.6672 8875869
2161.9648 898.56079 4046.0891 6967359
2131.7903 876.30072 3945.8555 4270880
2165.165 880.36298 3964.147 1114368
2182.1997 877.76532 3952.4504 1179648
2196.7561 874.23676 3936.5618 1376512
2209.3228 869.99878 3917.4785 3152142
2209.4087 860.98517 3876.8918 3085834
2209.4658 852.14624 3837.0911 1179904
2244.5215 856.84784 3858.262 1376512
2285.9707 863.87097 3889.886 7492933
2256.5154 844.22638 3801.4292 11900026
2278.2839 843.94501 3800.1624 12623488
2311.7275 847.95166 3818.2039 12753788
2351.3896 854.13934 3846.0662 12557182
2375.7405 854.70007 3848.5908 13347982
2437.6985 868.651 3911.4097 13545621
2472.7019 872.82446 3930.2021 13746599
2521.3235 881.68225 3970.0876 14208435
2549.8774 883.42365 3977.929 13808798
2566.6062 881.07373 3967.3477 10979960
2584.1277 879.03625 3958.1729 11374462
2638.521 889.46515 4005.1328 10256239
2636.1228 880.73383 3965.8171 9071708
2699.1045 893.8075 4024.6858 8282707
2748.1072 902.06348 4061.8611 8085329
2754.2273 896.22198 4035.5581 8151122
2762.179 891.07208 4012.3689 7756107
2787.459 891.55249 4014.532 9334885
2805.5369 889.74072 4006.3738 9005920
2839.6619 893.00568 4021.0754 9005919
2829.814 882.50299 3973.7832 10453364
2842.0132 878.99249 3957.9761 11506309
2896.967 888.65466 4001.4834 11637640
2911.7334 885.93231 3989.2251 9860973
2951.5896 890.82635 4011.262 9334885
2950.688 883.43915 3977.9985 9005920
2992.5498 888.87097 4002.4575 9860972
3018.4048 889.50037 4005.2913 10322035
3047.2634 890.99811 4012.0354 11703430
3060.8171 888.03223 3998.6807 12230031
3077.9626 886.146 3990.1873 12098702
3110.1924 888.59827 4001.2295 12230287
3136.5117 889.33746 4004.5581 12493716
3144.4609 884.89606 3984.5591 12558995
3169.7478 885.36346 3986.6638 12558995
3194.959 885.80304 3988.6428 12624787
3241.1367 892.00641 4016.5759 11637891
3310.8169 904.54034 4073.0142 10979450
3290.3262 892.43585 4018.5095 10716792
3294.6289 887.1817 3994.8511 9269092
3310.353 885.05603 3985.2795 9071713
3329.3262 883.82324 3979.728 8677214
3339.6074 880.31641 3963.9375 7361354
3358.6816 879.16022 3958.7314 6966599
3357.2039 872.6778 3929.5417 7625042
3362.8242 868.117 3909.0054 7690835
3365.8386 862.95062 3885.7417 7296075
3395.2583 864.57819 3893.0708 8479837
3402.0994 860.47327 3874.5867 8150871
3440.415 864.33063 3891.9558 7953234
3454.2756 862.03375 3881.6133 8348505
3455.6797 856.6792 3857.5024 8282714
3511.8711 864.88776 3894.4646 7888469
3630.5535 888.27869 3999.7905 7492941
3668.0627 891.63464 4014.9016 7493197
3779.8818 912.89404 4110.6299 8743263
3740.1958 897.52496 4041.4253 9927535
3753.0898 894.88873 4029.5547 11177343
3769.7698 893.18286 4021.8733 12360846
3838.7673 903.8161 4069.7534 13611167
3816.814 893.03662 4021.2148 13479068
3779.1292 878.73297 3956.8074 13084822
0 0 0 0
0 0 0 0
0 0 0 0
0 0 0 0
0 0 0 0
-4717.3013 1187.5214 5208.2554 14
-4747.4292 1202.9769 5276.0405 16
-4658.1611 1188.1821 5211.1533 15
-4190.5435 1076.0383 4719.3105 15
-4191.9185 1083.6234 4752.5776 16
-4392.6973 1143.2064 5013.8979 16
-4393.7632 1151.2712 5049.2686 16
-4536.0317 1196.699 5248.5068 16
-4529.4688 1203.218 5277.0981 16
-4054.9766 1084.6619 4757.1318 14
-4027.9048 1084.9635 4758.4551 14
-4007.5891 1087.1022 4767.8345 14
-3980.5073 1087.4227 4769.2407 14
-3953.8857 1087.8744 4771.2217 14
-3928.4268 1088.6548 4774.6445 14
-3892.1516 1086.4276 4764.876 14
-3861.1213 1085.6423 4761.4321 14
-3838.2634 1087.1603 4768.0898 14
-3814.5168 1088.4473 4773.7339 14
-3792.1724 1090.1565 4781.2305 14
-3764.4521 1090.3345 4782.0107 14
-3739.8843 1091.4351 4786.8379 14
-3710.4731 1091.1283 4785.4927 14
-3688.1299 1092.9111 4793.312 12
-3658.0132 1092.4004 4791.0718 268
-3626.1421 1091.3535 4786.4805 267
-3602.7383 1092.8588 4793.082 270
-3576.7371 1093.5936 4796.3052 270
-3548.4314 1093.63 4796.4648 270
-3528.3433 1096.2202 4807.8247 270
-3503.2197 1097.2754 4812.4526 14
-3471.8906 1096.3881 4808.561 14
-3446.0779 1097.2427 4812.3091 14
-3420.813 1098.2874 4816.8906 14
-3398.6389 1100.3503 4825.9385 14
-3370.2163 1100.4081 4826.1919 14
-3341.6172 1100.4087 4826.1948 14
-3322.0603 1103.4127 4839.3696 16
-3285.5088 1100.7753 4827.8022 17
-3272.5564 1106.0674 4851.0127 18
-3241.1724 1105.1685 4847.0703 18
-3219.2053 1107.4934 4857.2671 18
-3210.1611 1114.3462 4887.3218 18
-3172.0867 1111.1545 4873.3242 19
-3134.2532 1107.9895 4859.4429 19
-3113.5325 1110.8715 4872.0825 19
-3105.4216 1118.3485 4904.8755 19
-3057.022 1111.3206 4874.0522 19
-3022.6338 1109.3008 4865.1938 20
-2994.5547 1109.58 4866.418 20
-2961.3997 1107.9652 4859.3364 21
-2974.5969 1123.8313 4928.9219 20
-2946.7947 1124.3683 4931.2773 21
-2925.8037 1127.541 4945.1924 21
-2898.9624 1128.5006 4949.4009 21
-2884.5488 1134.3671 4975.1304 21
-3085.0723 1225.7528 5375.9316 21
-2841.8884 1140.9137 5003.8423 21
-2971.0486 1205.3441 5286.4224 21
-3037.0566 1245.2539 5461.46 21
-2754.5969 1141.6058 5006.8779 21
-2725.4087 1141.8083 5007.7666 21
-2697.3359 1142.488 5010.7471 21
-2671.4385 1144.1143 5017.8794 21
-2638.4424 1142.7028 5011.689 21
-2609.8242 1143.1768 5013.7681 21
-2593.6326 1149.1676 5040.0425 21
-2544.6421 1140.5964 5002.4507 21
-2521.9438 1143.7472 5016.2695 21
-2678.127 1229.0667 5390.4653 21
-2457.7346 1141.5391 5006.585 21
-2550.8579 1199.2694 5259.7803 21
-2593.5376 1234.4192 5413.9409 21
-2385.0652 1149.4139 5041.123 21
-2347.7979 1145.8062 5025.2998 21
-2315.1025 1144.3655 5018.9814 21
-2301.1687 1152.282 5053.7017 21
-2278.6941 1156.0743 5070.334 21
-2222.3579 1142.559 5011.0581 21
-2193.1165 1142.7961 5012.0986 21
-2167.5359 1144.9735 5021.6484 21
-2145.5654 1149.1454 5039.9448 21
-2237.4937 1215.299 5330.083 21
-2111.1753 1163.1089 5101.1865 21
-2044.6991 1142.85 5012.335 21
-2017.2242 1144.1145 5017.8804 21
-1984.0138 1142.1149 5009.1108 21
-1952.4513 1141.0177 5004.2988 21
-1917.774 1138.0385 4991.2319 21
-1892.7291 1140.7712 5003.2178 21
-1863.5265 1141.0452 5004.4189 21
-1839.236 1144.3845 5019.0645 21
-1793.7509 1134.4292 4975.4028 21
-1752.9487 1127.1525 4943.4878 21
-1764.8313 1154.0806 5061.5898 21
-1707.3055 1135.7668 4981.269 21
-1700.2622 1150.9823 5048.0015 21
-1651.0656 1137.6963 4989.7314 21
-1634.8448 1147.0626 5030.8105 21
-1616.1168 1154.9852 5065.5576 21
-1581.8538 1151.8951 5052.0049 21
-1551.1332 1151.3152 5049.4614 19
-1527.6642 1156.2008 5070.8887 19
-1496.7446 1155.5303 5067.9482 19
-1467.6279 1156.2528 5071.1172 19
-1437.7964 1156.4305 5071.8965 19
-1407.8301 1156.5052 5072.2241 19
-1380.4327 1158.7394 5082.0229 19
-1335.2667 1145.8257 5025.3853 19
-1324.9523 1162.912 5100.3228 19
-1387.0122 1245.8019 5463.8633 19
-1363.6262 1254.0734 5500.1406 19
-1253.7019 1181.2151 5180.5972 19
-1222.2062 1180.4479 5177.2324 21
-1193.1215 1182.0297 5184.1699 21
-1163.5117 1183.1611 5189.1323 21
-1134.9642 1185.4637 5199.231 21
-1106.7423 1188.2443 5211.4258 21
-1080.2086 1193.0492 5232.499 21
-1051.2434 1195.3729 5242.6909 21
-1023.03 1198.7192 5257.3672 21
-994.17786 1201.5039 5269.5801 21
-970.37335 1210.7673 5310.208 21
-961.61798 1240.0585 5438.6733 21
-932.89124 1244.7336 5459.1782 20
-896.72791 1239.4659 5436.0747 18
-861.34149 1234.9194 5416.1348 18
-834.02814 1242.0436 5447.3799 18
-799.8457 1239.1001 5434.4702 18
-766.61755 1237.4498 5427.2324 18
-735.36163 1238.9779 5433.9346 19
-703.01105 1238.7173 5432.7915 19
-672.25122 1241.3691 5444.4219 21
-638.69354 1238.8613 5433.4233 21
-604.93335 1235.6737 5419.4429 21
-568.21411 1225.7452 5375.8984 21
-531.80457 1215.3452 5330.2856 21
-502.86502 1221.781 5358.5117 21
-471.6731 1223.243 5364.9238 21
-441.16196 1226.8096 5380.5664 21
-407.45175 1221.3427 5356.5894 21
-374.62857 1217.8353 5341.207 21
-343.3255 1219.0784 5346.6587 21
-312.90674 1224.0334 5368.3906 21
-280.25055 1220.3671 5352.3105 21
-247.96774 1217.5981 5340.167 21
-214.68237 1208.3762 5299.7212 21
-183.79579 1211.8093 5314.7778 21
-152.22614 1211.2273 5312.2251 21
-119.6505 1200.2505 5264.083 21
-88.527771 1201.2458 5268.4482 21
-57.161308 1198.2166 5255.1621 21
-26.045788 1199.4918 5260.7554 19
5.0507851 1180.8385 5178.9458 19
35.574318 1175.2881 5154.6025 19
65.863968 1170.709 5134.519 19
95.835106 1165.1514 5110.1445 19
125.82119 1162.4009 5098.0815 19
155.50154 1158.4379 5080.7007 19
185.15987 1155.6232 5068.3555 19
214.20418 1150.297 5044.9956 19
243.37192 1146.8569 5029.9082 19
271.98492 1141.8387 5007.8999 19
295.58838 1118.8463 4907.0586 19
323.14319 1113.5892 4884.0024 19
351.38089 1111.3564 4874.21 19
378.20901 1105.3434 4847.8374 19
405.28516 1100.853 4828.1436 19
429.86923 1090.6321 4783.3164 19
455.45248 1084.0541 4754.4663 19
484.9985 1087.1249 4767.9346 19
506.55988 1072.9454 4705.7461 19
533.64307 1071.3312 4698.666 18
563.16803 1074.5361 4712.7222 18
590.37012 1073.2153 4706.9297 18
614.11621 1066.0148 4675.3491 18
636.97339 1057.9595 4640.02 18
669.00653 1065.1805 4671.6904 16
706.15594 1079.6503 4735.1519 16
731.62817 1075.8427 4718.4526 14
653.04315 924.93457 4056.5967 196615
0 0 0 0
702.31732 926.50928 4063.5032 6904657
743.883 948.81042 4161.312 8285529
767.58429 947.62585 4156.1167 9139812
793.34613 948.97961 4162.0542 9402982
814.2251 944.58728 4142.79 9139552
838.62787 944.42035 4142.0576 9139295
872.89563 955.05621 4188.7051 9073759
891.25134 948.17566 4158.5283 9534309
914.96368 947.21094 4154.2969 9534056
931.2522 938.81244 4117.4629 9534056
957.88605 941.0061 4127.0835 9402470
981.96808 940.64587 4125.5039 9336421
1004.1116 938.49152 4116.0552 9139298
1029.5477 939.44379 4120.2314 9205091
1052.5078 938.14471 4114.5342 9336676
1071.6926 933.61572 4094.6709 9204834
1092.9772 931.07605 4083.5322 9270883
1113.402 927.92981 4069.7332 9599592
1135.4928 926.27612 4062.4805 9336423
1159.9392 926.57263 4063.781 9533802
1182.2872 925.21503 4057.8269 9336677
1202.611 922.35907 4045.301 8876125
1215.1658 913.77252 4007.6423 9139298
1248.1104 920.55396 4037.3843 9007966
1276.702 923.93018 4052.1917 9139551
1299.4872 923.05725 4048.363 8876380
1322.7316 922.53619 4046.0779 9073505
1340.8856 918.54663 4028.5806 9007712
1367.3748 920.30658 4036.2993 9007712
1386.3501 917.03583 4021.9543 9007712
1416.1071 920.88684 4038.8445 9270884
1439.7697 920.71271 4038.0803 9139298
1457.5691 916.85602 4021.1658 9073503
1487.0259 920.33832 4036.4385 8679001
1510.5995 920.12683 4035.511 8613208
1534.3961 920.05573 4035.199 8678744
1554.8202 917.99554 4026.1636 8942172
1578.4712 917.87402 4025.6304 8350036
1592.41 912.19263 4000.7131 8546900
1635.2163 922.9718 4047.9883 7757641
1647.9067 916.68658 4020.4226 8415571
1664.5813 912.7652 4003.2239 8152400
1672.4561 904.19641 3965.6431 8020302
1694.6053 903.47565 3962.4817 8349782
