# .PCD v0.7 - Point Cloud Data file format
VERSION 0.7
FIELDS x y z rgb
SIZE 4 4 4 4
TYPE F F F U
COUNT 1 1 1 1
WIDTH 1350
HEIGHT 1
VIEWPOINT 0 0 0 1 0 0 0
POINTS 1350
DATA ascii
3101.6782 781.79449 5869.8521 10849654
3114.1824 776.2406 5828.1523 8941403
3121.5527 769.54285 5777.8643 8152148
3173.626 773.8913 5810.5132 8152406
3226.9773 778.45459 5844.7759 8481371
3155.7249 753.18176 5655.0225 8613725
3185.0999 752.20453 5647.6855 7758673
3200.9126 748.07806 5616.7031 11311495
3225.8826 746.15454 5602.2612 12954778
3211.7947 735.32812 5520.9746 13217180
3335.2483 755.89209 5675.3726 12954264
3359.2698 753.73547 5659.1802 8414545
3400.7307 755.49573 5672.3965 8217679
3438.282 756.36139 5678.896 8744536
3624.0598 789.50153 5927.7178 9271140
3608.7131 778.61096 5845.9497 12955548
3568.5903 762.63275 5725.9824 13876395
3664.731 775.80157 5824.8564 13284772
3693.6624 774.62976 5816.0581 11508359
3770.7498 783.48541 5882.5474 10783866
3755.0764 773.08148 5804.4331 9007456
3822.9946 779.91974 5855.7764 9533544
3828.8516 774.08801 5811.9902 9730666
3835.4441 768.50751 5770.0913 9270373
3877.0586 769.98114 5781.1553 9204579
3892.3193 766.24084 5753.0728 8810333
3878.2576 756.84332 5682.5142 5981237
3926.303 759.62335 5703.3872 6113081
3859.563 740.33795 5558.5894 655616
3788.0496 720.47113 5409.4253 786432
3840.6851 724.35211 5438.5645 1510668
3830.0369 716.33258 5378.3525 6509389
3819.334 708.43524 5319.0581 10917516
3969.0457 730.17853 5482.3101 11180677
3975.2871 725.38885 5446.3486 11378054
4004.5771 724.84839 5442.2905 12100747
4084.7666 733.45593 5506.9175 12560788
4108.519 731.87354 5495.0366 13415071
4175.1196 737.88892 5540.2012 13349534
4210.4243 738.32245 5543.4565 10388848
4348.2324 756.58466 5680.5723 10652021
4434.7178 765.70483 5749.0483 12230795
4464.5278 764.97491 5743.5679 12756883
4424.5073 752.38141 5649.0132 12559244
4302.48 726.13666 5451.9634 11308920
4191.3936 702.11584 5271.6108 8874064
4245.2178 705.87091 5299.8042 10518630
4226.9062 697.66461 5238.1899 11306861
4467.9175 732.06799 5496.4966 5914161
4622.231 751.87067 5645.1787 9664356
4620.6626 746.2146 5602.7119 12165512
4494.084 720.59473 5410.3535 13679006
4507.6719 717.65338 5388.2695 13285016
4511.7041 713.2428 5355.1538 13547416
4535.7285 712.03223 5346.0649 13086094
4564.6191 711.59711 5342.7979 12559237
4571.2837 707.72693 5313.7397 11835770
4637.9795 713.1402 5354.3833 11177843
4683.1265 715.1889 5369.7656 10782831
4743.8682 719.57562 5402.7017 10980725
4757.4316 716.79517 5381.8257 11046007
4900.0786 733.37103 5506.2803 10849400
4816.9785 716.16461 5377.0913 10651511
4821.749 712.16272 5347.0444 10322547
4911.9185 720.74396 5411.4741 10388599
4959.8955 723.06299 5428.8857 10126197
4807.5596 696.33832 5228.2319 10126197
4807.0327 691.80347 5194.1836 9994610
4735.0659 677.11053 5083.8662 9468266
4671.5361 663.80219 4983.9448 8942438
4659.8076 657.97552 4940.1973 8942954
4732.9014 664.12402 4986.3613 7956316
4713.917 657.3559 4935.5449 7628124
0 0 0 0
0 0 0 0
0 0 0 0
0 0 0 0
-5199.3481 793.39056 5703.1558 14
-5127.5698 787.55719 5661.2227 14
-4975.6191 769.25195 5529.6387 14
-5101.1016 793.88062 5706.6777 14
-5099.1357 798.87097 5742.5498 14
-4704.5176 741.99902 5333.7358 14
-4705.9434 747.24445 5371.4419 14
-4994.2734 798.42841 5739.3691 14
-4972.6367 800.42059 5753.689 14
-4939.7437 800.61578 5755.0923 14
-4922.9824 803.44647 5775.4404 12
-4919.0786 808.42993 5811.2632 12
-4883.1597 808.18494 5809.502 12
-5109.5454 851.65729 6121.9961 12
-4813.8696 808.11212 5808.979 12
-4791.2607 810.11011 5823.3408 268
-5109.1353 870.12396 6254.7402 268
-5265.6147 903.32721 6493.4165 268
-4987.2275 861.8678 6195.3926 268
-4915.9683 855.85382 6152.1621 267
-4855.6646 851.67145 6122.0981 270
-4816.7583 851.20758 6118.7632 270
-4784.0913 851.84747 6123.3633 270
-4749.2466 852.10651 6125.2251 270
-4700.0986 849.78351 6108.5264 16
-4661.5464 849.35498 6105.4463 18
-4608.1025 846.1853 6082.6611 19
-4574.9946 846.72919 6086.5713 21
-4534.5659 845.91608 6080.7266 278
-4487.1875 843.7832 6065.3945 281
-4455.4336 844.57764 6071.105 283
-4411.3638 843.03149 6059.9907 539
-4359.6182 839.98102 6038.0625 28
-4335.2783 842.20386 6054.0415 540
-4288.3599 840.04108 6038.4946 284
-4258.4429 841.20032 6046.8276 30
-4201.8169 837.05835 6017.0542 288
-4168.6611 837.56128 6020.6689 290
-4105.1758 831.92633 5980.1631 292
-4016.5513 821.0545 5902.0127 1320
-3956.2393 815.8299 5864.457 1321
-3903.5288 812.0943 5837.604 1063
-3868.1052 811.92041 5836.3535 1573
-3824.0464 809.91437 5821.9336 285
-3742.1733 799.7901 5749.1567 279
-3753.2041 809.51794 5819.084 20
-3711.6155 807.9715 5807.9678 274
-3715.5024 816.38831 5868.4707 18
-3679.9363 816.21344 5867.2139 15
-3650.043 817.30554 5875.064 272
-3632.2334 821.15045 5902.7026 16
-3592.9058 820.15808 5895.5693 16
-3577.3037 824.61542 5927.6099 16
-3554.4846 827.48096 5948.2085 15
-3521.2871 827.96368 5951.6782 17
-3496.6609 830.492 5969.8525 18
-3472.8608 833.27002 5989.8223 18
-3491.2322 846.32861 6083.6914 18
-3463.0601 848.25897 6097.5679 18
-3432.2649 849.58093 6107.0698 18
-3397.5383 849.94751 6109.7051 274
-3365.1567 850.91479 6116.6587 274
-3298.2529 843.07892 6060.3315 274
-3260.7646 842.67236 6057.4087 274
-3226.1787 843.01495 6059.8721 272
-3193.7334 843.93109 6066.4575 16
-3156.4297 843.56958 6063.8589 16
-3122.8562 844.20825 6068.4497 16
-3091.0972 845.35785 6076.7134 16
-3043.2969 842.09601 6053.2661 16
-3005.1165 841.44989 6048.6216 16
-2973.6802 842.6994 6057.6035 16
-2943.9504 844.46899 6070.3237 16
-2907.6553 844.37567 6069.6528 16
-2871.8452 844.42267 6069.9912 16
-2842.6335 846.43573 6084.4614 16
-2805.3755 846.07373 6081.8594 18
-2771.0286 846.5918 6085.583 18
-2734.9744 846.59485 6085.6055 18
-2699.9465 846.9201 6087.9438 18
-2661.6812 846.22491 6082.9458 18
-2623.9351 845.67786 6079.0137 19
-2587.3298 845.4884 6077.6519 19
-2550.3777 845.17865 6075.4253 19
-2512.1091 844.41754 6069.9541 19
-2473.0706 843.3717 6062.4365 21
-2440.0054 844.36212 6069.5557 21
-2389.1494 839.13354 6031.9712 21
-2363.5769 842.76129 6058.0483 21
-2332.7412 844.5954 6071.2324 21
-2290.1606 842.16797 6053.7832 21
-2243.6443 838.19287 6025.209 21
-2209.2412 838.68768 6028.7661 21
-2182.8323 842.28351 6054.6143 21
-2153.9961 845.04724 6074.481 21
-2127.0425 848.65613 6100.4224 21
-2103.8999 853.93658 6138.3804 21
-2066.7573 853.62054 6136.1084 21
-2022.7771 850.41852 6113.0913 21
-1988.4313 851.22394 6118.8809 21
-1949.1973 849.92798 6109.5649 21
-1912.3748 849.65436 6107.5981 20
-1876.0852 849.61145 6107.29 22
-1841.6503 850.42334 6113.126 21
-1805.2179 850.32697 6112.4331 21
-1769.3673 850.50623 6113.7217 21
-1734.3513 851.10254 6118.0083 21
-1700.7704 852.44373 6127.6489 21
-1671.4501 856.02539 6153.395 21
-1635.0013 856.03455 6153.4609 21
-1598.7971 856.17511 6154.4717 21
-1566.9697 858.72083 6172.771 21
-1530.3741 858.71277 6172.7129 21
-1493.5554 858.57599 6171.7295 21
-1457.8152 859.06787 6175.2656 21
-1428.5736 863.51324 6207.2207 21
-1398.6981 867.80029 6238.0376 21
-1376.7682 877.38373 6306.9263 21
-1341.902 879.02802 6318.7456 22
-1299.9366 875.98267 6296.855 23
-1259.9064 874.09985 6283.3208 23
-1225.3876 876.04266 6297.2861 23
-1186.3907 874.80554 6288.3936 23
-1155.6298 879.75793 6323.9927 23
-1122.7111 883.3446 6349.7749 23
-1087.4363 885.26221 6363.5591 23
-1051.5137 886.77094 6374.4048 23
-1014.859 887.75201 6381.4565 23
-977.64777 888.30322 6385.4189 23
-940.46307 888.92383 6389.8804 23
-904.22186 890.52576 6401.3955 23
-866.28125 890.52112 6401.3618 23
-827.51465 889.62805 6394.9419 23
-789.38281 889.3642 6393.0459 23
-752.15686 890.146 6398.666 21
-713.12115 888.75537 6388.6694 21
-676.21466 890.01123 6397.6963 21
-639.57172 891.78363 6410.437 21
-601.71191 891.97601 6411.8203 21
-567.14667 897.40747 6450.8633 21
-530.42902 899.97217 6469.2988 21
-496.05878 907.22943 6521.4668 23
-458.74829 909.88153 6540.5312 23
-420.63922 911.29297 6550.6772 23
-385.05014 919.00592 6606.1201 23
-347.01297 921.96063 6627.3599 23
-306.48431 918.20514 6600.3643 23
-282.20538 969.15625 6966.6172 23
-248.07573 997.94293 7173.5454 23
-204.30856 991.8493 7129.7427 22
-160.54446 982.59692 7063.2334 21
-117.27757 970.93469 6979.4014 21
-75.301018 963.06732 6922.8481 21
-32.781116 921.09863 6621.1636 21
6.6904597 954.35571 6860.2266 21
45.578876 918.74304 6604.2305 21
88.514641 959.92841 6900.2847 21
123.16971 913.65936 6567.6875 21
161.98361 913.0528 6563.3271 21
200.93449 913.30371 6565.1309 21
239.08167 910.41266 6544.3491 21
277.71204 909.91199 6540.75 18
315.52512 907.18396 6521.1401 19
353.22375 904.75824 6503.7031 19
391.18433 903.41479 6494.0459 19
425.58481 894.82642 6432.3101 19
461.51358 890.59937 6401.9248 19
496.24356 884.87695 6360.79 19
531.41742 880.69818 6330.751 19
569.83167 882.08649 6340.731 17
606.27826 880.44556 6328.9355 17
638.46008 873.16333 6276.5884 16
679.3468 877.93237 6310.8696 65552
715.56165 876.4812 6300.4385 131085
743.8797 865.98108 6224.96 327687
768.32562 852.17834 6125.7417 590595
766.98621 812.31195 5839.1689 6508873
819.41998 830.38007 5969.0483 9403499
863.96362 839.28802 6033.0815 9468776
898.11176 837.79059 6022.3179 9337192
934.56122 838.47241 6027.2188 9402985
968.99292 837.36029 6019.2246 9534314
1006.6705 839.03253 6031.2451 9665900
1051.6687 846.48254 6084.7979 9666156
1087.884 846.60352 6085.668 9796972
1116.5848 841.05658 6045.7944 9468006
1159.0699 845.91461 6080.7158 9468263
1199.0197 848.68494 6100.6299 9534056
1234.6384 848.3175 6097.9883 9534312
1265.2584 844.63403 6071.5103 9534056
1293.3676 839.52429 6034.7798 9599592
1325.1783 837.02771 6016.8335 9468263
1372.0052 843.89813 6066.2202 9204834
1385.9763 830.72455 5971.5244 9073505
1420.6687 830.31769 5968.5996 9534056
1461.1807 833.24927 5989.6729 9336677
1485.9573 827.28143 5946.7739 9271140
1530.0255 832.08142 5981.2783 9271141
1567.0719 832.93195 5987.3916 9205604
1599.1875 831.18195 5974.8125 8876639
1637.3573 832.58636 5984.9077 7889487
1681.1061 836.70789 6014.5347 8810846
1736.6401 846.40216 6084.2202 8810846
1743.3402 832.38556 5983.4639 8744796
1789.9757 837.61536 6021.0576 8284500
1810.9667 830.87512 5972.6064 7165763
1832.0244 824.42322 5926.228 7758157
1841.0859 812.9173 5843.5195 8218708
1924.5465 834.07996 5995.6445 8810846
1944.8678 827.60754 5949.1182 9008225
1949.3097 814.72864 5856.5405 8679260
1988.6108 816.61517 5870.1016 8811102
2014.1411 812.87915 5843.2456 9139043
2031.9402 806.20184 5795.2471 8876641
2060.8582 804.0849 5780.0298 8679262
2088.8076 801.66528 5762.6367 8679259
2099.0476 792.63623 5697.7329 8547416
2118.8069 787.43079 5660.3145 10257779
2163.1138 791.36829 5688.6187 9863021
2211.1108 796.51434 5725.6099 9994861
2224.9839 789.39801 5674.4551 10850169
2264.9827 791.62451 5690.46 9534309
2300.0535 792.08868 5693.7969 9336674
2360.1558 801.03516 5758.1069 9007966
2373.6104 794.12006 5708.3989 8613208
2449.864 808.1142 5808.9937 8612954
2476.1111 805.45386 5789.8701 8416089
2509.8877 805.2821 5788.6353 8481625
2534.8662 802.3302 5767.4165 8613210
2568.3611 802.11658 5765.8809 8415572
2597.9668 800.70984 5755.7686 8284243
2631.2859 800.4693 5754.0396 8415573
2616.3242 785.73523 5648.126 8810589
2639.0742 782.55579 5625.2715 9073761
2631.7634 770.6532 5539.7114 9797739
2649.1753 766.19403 5507.6577 10126704
2757.8777 787.92523 5663.8687 10126447
2852.6814 805.21069 5788.1221 10389873
2939.769 819.93317 5893.9526 8482132
2963.1729 816.75653 5871.1177 9600614
2977.385 811.14941 5830.812 11969931
2994.7556 806.52148 5797.5449 14010027
3013.968 802.48901 5768.5581 13549220
3075.8464 809.77972 5820.9658 13219484
3098.2773 806.63855 5798.3862 11968649
3048.1038 784.87091 5641.9131 10455156
3062.4639 780.01251 5606.9893 8547417
3078.324 775.63629 5575.5317 8086866
3097.1848 772.10114 5550.1196 7625284
3075.6646 758.67938 5453.6396 5654335
3108.6125 758.83282 5454.7427 8612700
3164.8608 764.61224 5496.2871 9139299
3235.0708 773.61279 5560.9858 11572867
3235.4761 765.90729 5505.5967 12625813
3294.7183 772.14478 5550.4331 12560280
3345.2192 776.23053 5579.8032 10915199
3453.699 793.55811 5704.3599 10060400
3474.2747 790.54785 5682.7207 11113086
3521.3584 793.56921 5704.4395 8744794
3481.2095 777.0614 5585.7754 9204835
3562.8845 787.80133 5662.978 9534314
3633.3521 795.88593 5721.0928 11442566
3655.6201 793.36047 5702.9395 12823964
3703.8667 796.46777 5725.2754 13218721
3735.9146 796.06696 5722.3936 12494227
3738.8931 789.53467 5675.438 11309696
3772.7136 789.57385 5675.7192 9730920
3859.9116 800.68457 5755.5869 8809818
3820.4504 785.55713 5646.8462 7230787
3749.4822 764.27026 5493.8291 7362375
3832.3369 774.43427 5566.8911 6507325
3862.6758 773.90302 5563.0723 6047802
3827.2896 760.32391 5465.4609 1576715
3820.5901 752.62366 5410.1094 2496013
3854.4529 752.97552 5412.6387 6179904
3856.9172 747.23859 5371.3994 7758934
3860.3545 741.78235 5332.1782 10653826
3932.1565 749.4447 5387.2578 10785664
3982.6797 752.96063 5412.5312 11969166
3985.3262 747.44116 5372.856 11968395
4006.2031 745.40131 5358.1924 12954265
4050.4016 747.69849 5374.7056 10322801
4068.7288 745.22144 5356.8994 9533029
4094.8584 744.20068 5349.562 9862250
4239.8135 764.62518 5496.3799 10059374
4281.21 766.20435 5507.7314 9664616
4258.6372 756.39764 5437.2378 9730407
4253.3164 749.7796 5389.665 9730149
4102.0879 717.73102 5159.2891 9795940
4160.3423 722.53815 5193.8442 10913902
4271.0957 736.32538 5292.9517 11111280
4389.2148 751.17218 5399.6753 11044970
4470.0928 759.47668 5459.3711 8675907
4413.7754 744.51959 5351.8545 10123610
4446.5117 744.69037 5353.082 8084797
4540.4712 755.03973 5427.4766 10058591
4495.4395 742.29291 5335.8486 13808792
4480.4937 734.65753 5280.9624 13480079
4486.7085 730.57349 5251.605 10519137
4434.564 717.10852 5154.8145 11308396
4544.4351 729.8479 5246.3896 11308655
4547.1709 725.32489 5213.8765 9138009
4601.0811 728.9707 5240.084 10191209
4691.0776 738.24677 5306.7632 10454127
4704.0708 735.36163 5286.0239 10388336
4733.6396 735.08875 5284.0625 10257266
4771.8745 736.15637 5291.7368 10520180
4810.2554 737.23242 5299.4717 10454390
4786.8911 728.89258 5239.5225 10192757
4806.2759 727.12769 5226.8359 10257783
4734.7676 711.72253 5116.0986 10322804
4699.7085 701.95752 5045.9043 10520186
4684.1099 695.20428 4997.3599 10059122
4736.7095 698.59412 5021.7271 6178885
4667.5205 684.09174 4917.479 3744802
4571.9375 665.92499 4786.8901 589824
0 0 0 0
0 0 0 0
0 0 0 0
0 0 0 0
-5132.1875 816.50385 5629.4873 14
-5063.0894 810.78113 5590.0312 14
-4868.6484 784.77905 5410.7568 14
-4980.9131 808.19788 5572.2207 14
-4953.6587 809.13995 5578.7163 14
-4643.5522 763.58276 5264.6162 14
-4756.5161 787.44922 5429.1665 14
-4938.1318 823.08362 5674.8521 14
-4875.7773 818.263 5641.6162 14
-4834.1206 816.87347 5632.0356 13
-4656.104 792.26221 5462.3501 12
-4755.1221 814.77527 5617.5693 12
-5107.6196 881.34497 6076.5425 12
-5063.5249 879.94006 6066.8564 12
-5107.1216 893.86322 6162.8516 12
-4993.9878 880.35797 6069.7373 268
-4843.8076 860.07861 5929.9189 268
-4823.3145 862.69867 5947.9834 12
-4784.0854 861.98151 5943.0386 12
-4750.293 862.2406 5944.8252 11
-4712.4258 861.75836 5941.5005 14
-4679.938 862.26013 5944.9595 14
-4650.8413 863.39886 5952.811 14
-4609.8032 862.32123 5945.3813 14
-4568.9702 861.26581 5938.1045 14
-4529.96 860.54022 5933.1016 16
-4489.7964 859.5824 5926.498 19
-4449.6177 858.60651 5919.7695 21
-4415.9839 858.88818 5921.7114 279
-4375.0693 857.74695 5913.8433 536
-4336.2578 857.00293 5908.7134 539
-4291.2295 855.008 5894.9595 795
-4257.1997 855.18982 5896.2124 539
-4208.2773 852.35828 5876.6899 540
-4173.8931 852.44855 5877.3125 540
-4144.3203 853.53137 5884.7783 541
-4095.364 850.60663 5864.6128 544
-4067.9182 852.13763 5875.1689 546
-4006.8916 846.60004 5836.9893 546
-3949.2256 841.68219 5803.0825 551
-3872.0967 832.49353 5739.73 1323
-3830.8887 830.93323 5728.9727 808
-3804.6152 832.6134 5740.5571 1318
-3769.6704 832.40924 5739.1489 286
-3731.0198 831.37549 5732.0215 537
-3698.4438 831.68872 5734.1816 278
-3672.4666 833.50549 5746.7075 275
-3657.9436 837.98022 5777.5591 274
-3605.8518 833.85181 5749.0952 273
-3584.4961 836.82013 5769.5605 272
-3566.7808 840.70361 5796.3359 16
-3561.6194 847.65051 5844.2319 16
-3539.1013 850.56232 5864.3081 16
-3505.7507 850.90289 5866.6558 16
-3475.207 851.93817 5873.7935 18
-3444.2595 852.89447 5880.3872 18
-3438.8933 860.26978 5931.2368 18
-3404.425 860.44202 5932.4243 18
-3348.072 855.02887 5895.103 18
-3364.7725 868.35468 5986.9795 18
-3328.7991 868.22607 5986.0928 274
-3295.739 868.86267 5990.4819 274
-3235.6035 862.29755 5945.2178 274
-3194.3057 860.66327 5933.9502 18
-3163.4976 861.85046 5942.1353 16
-3127.832 861.7262 5941.2783 16
-3094.3193 862.19891 5944.5381 16
-3060.1316 862.49225 5946.5605 16
-3028.2969 863.46344 5953.2559 16
-2991.8896 863.13831 5951.0146 16
-2963.6245 865.18231 5965.1074 16
-2931.0759 866.01025 5970.8154 16
-2895.5034 865.95404 5970.4277 16
-2853.4053 863.92059 5956.4077 16
-2820.5034 864.65533 5961.4741 17
-2787.2661 865.30475 5965.9512 18
-2753.7207 865.8739 5969.8755 18
-2718.874 866.0434 5971.0439 18
-2683.6042 866.08081 5971.3018 18
-2644.7227 864.93793 5963.4224 18
-2601.6433 862.37274 5945.7363 18
-2577.603 866.1347 5971.6733 19
-2542.3245 866.17255 5971.9341 19
-2508.7847 866.81213 5976.3438 19
-2475.7441 867.64496 5982.0859 19
-2440.9121 867.86511 5983.604 21
-2399.0818 865.56677 5967.7578 21
-2361.8225 864.87347 5962.978 21
-2318.4014 861.86865 5942.2603 21
-2283.1272 861.84625 5942.106 21
-2249.6145 862.4986 5946.6035 21
-2215.0867 862.77625 5948.5186 21
-2173.4824 860.26215 5931.1846 21
-2146.4519 863.5285 5953.7051 21
-2113.6479 864.54248 5960.6958 21
-2095.3091 871.60809 6009.4106 21
-2055.7458 869.93646 5997.8848 21
-2017.9218 868.9549 5991.1177 21
-1990.0656 872.3075 6014.2324 21
-1958.965 874.33435 6028.2065 21
-1920.2651 872.98157 6018.8804 21
-1881.3301 871.46875 6008.4497 20
-1842.916 870.14355 5999.313 21
-1807.9752 870.43848 6001.3462 21
-1773.2839 870.86761 6004.3052 21
-1739.6309 871.83478 6010.9731 21
-1705.566 872.63159 6016.4668 21
-1673.3302 874.41821 6028.7852 21
-1643.9515 877.80847 6052.1597 21
-1607.1902 877.31995 6048.7915 21
-1573.4213 878.4798 6056.7886 21
-1540.5544 880.20935 6068.7129 21
-1505.4258 880.69836 6072.0845 21
-1469.1757 880.53918 6070.9868 21
-1434.6575 881.43604 6077.1704 21
-1403.8837 884.73871 6099.9414 21
-1377.61 891.12708 6143.9868 21
-1345.1918 893.77979 6162.2759 20
-1319.3422 901.06653 6212.5156 22
-1280.8094 899.86096 6204.2031 22
-1241.9407 898.34094 6193.7236 21
-1204.7854 898.00568 6191.4116 21
-1165.3422 895.8902 6176.8267 23
-1130.5085 897.29639 6186.5215 23
-1096.3373 899.33997 6200.6113 23
-1066.6848 905.36084 6242.123 23
-1030.9556 906.47137 6249.7793 23
-993.34778 905.95123 6246.1934 23
-958.02777 907.55804 6257.272 23
-922.69855 909.2854 6269.1812 23
-886.77838 910.55072 6277.9053 23
-850.60181 911.65216 6285.499 23
-813.86206 912.22308 6289.436 23
-778.56866 914.54797 6305.4648 23
-741.65924 915.11316 6309.3618 21
-703.75079 914.44037 6304.7227 21
-664.16461 911.38983 6283.6904 21
-627.99194 912.93927 6294.373 21
-591.6593 914.43713 6304.7007 21
-556.17242 917.53229 6326.04 21
-518.9043 917.92377 6328.7393 21
-485.0943 924.97021 6377.3223 21
-448.89499 928.2666 6400.0493 20
-411.88403 930.33795 6414.3311 20
-374.66422 932.31104 6427.9341 20
-339.39209 940.12567 6481.8135 20
-327.3432 1022.4743 7049.5762 21
-285.89407 1023.6492 7057.6768 23
-244.01849 1023.4384 7056.2231 23
-201.11916 1017.9585 7018.4419 20
-159.02835 1014.7806 6996.5308 21
-116.36988 1004.4612 6925.3828 21
-75.137611 1001.9147 6907.8252 21
-34.198292 1001.8539 6907.4067 21
6.7824135 1008.6864 6954.5137 21
48.337879 1015.8641 7004.001 21
89.349503 1010.2606 6965.3677 21
128.97012 997.44067 6876.979 21
158.9913 934.36328 6442.0835 21
195.96783 928.67352 6402.855 21
233.19096 925.80878 6383.104 21
270.51038 924.07275 6371.1348 18
307.6059 922.09082 6357.4697 19
344.67615 920.47382 6346.3213 19
381.33954 918.19537 6330.6123 19
414.02322 907.60095 6257.5679 19
449.04111 903.44482 6228.9126 19
487.34213 906.02362 6246.6929 19
523.75189 904.97064 6239.4326 19
560.92871 905.29437 6241.6646 18
598.15283 905.64966 6244.1143 18
631.3244 900.18524 6206.439 18
665.42297 896.57141 6181.5229 18
705.52716 901.00433 6212.0864 17
740.16516 898.3631 6193.876 16
773.70129 894.69714 6168.6011 65547
770.89276 851.22986 5868.9102 196612
750.32062 792.74731 5465.6953 2760993
838.12683 848.87329 5852.6626 8220261
875.33301 851.32617 5869.5742 10127224
907.12378 848.52606 5850.2681 9665902
940.90479 847.7251 5844.7461 9600107
983.51361 854.65216 5892.5059 9666157
1016.5958 853.10968 5881.8711 9731949
1040.1981 843.97797 5818.9111 9863021
1084.6549 851.80969 5872.9082 9731435
1122.1392 853.84906 5886.9688 9731435
1139.9943 841.27979 5800.3081 9468263
1194.4115 855.63824 5899.3042 9599849
1222.4413 850.81451 5866.0464 9928557
1256.4598 850.3103 5862.5703 9731434
1296.2892 853.6601 5885.6655 9665385
1325.9888 850.33807 5862.7617 9599592
1368.5283 855.20959 5896.3491 9797485
1393.4838 849.12366 5854.3887 9731691
1420.0815 844.30981 5821.1992 9336677
1453.4159 843.63458 5816.5439 9336933
1484.2463 841.57086 5802.3154 9007968
1520.6338 842.68018 5809.9634 9073761
1561.4896 846.16174 5833.9673 9205347
1562.9451 828.60406 5712.9136 9337190
1637.0942 849.51288 5857.0718 9534569
1643.6656 835.21436 5758.4893 8876639
1691.4868 842.03192 5805.4937 8810846
1712.2603 835.38141 5759.6411 8876638
1757.0048 840.45758 5794.6392 8284501
1786.5864 838.22491 5779.2456 7363142
1817.3593 836.62463 5768.2124 8218451
1839.8605 831.34589 5731.8174 8810332
1870.0665 829.67682 5720.3101 9074018
1899.606 827.77679 5707.21 9008224
1925.0079 824.17181 5682.355 9139555
1956.0259 823.05377 5674.647 8876128
1983.2452 820.40228 5656.3652 8613469
2025.7699 824.06494 5681.6182 8547676
2039.6033 816.12732 5626.8916 8547931
2059.9023 810.99072 5591.4761 8810334
2079.7307 805.83423 5555.9243 8810077
2134.3254 814.09955 5612.9106 8941919
2143.0063 804.86688 5549.2549 8942173
2232.3447 825.74866 5693.2271 9337188
2237.8025 815.44305 5622.1733 9402724
2247.0627 806.80511 5562.6182 9007966
2287.9353 809.60315 5581.9097 9139295
2321.3406 809.71674 5582.6929 8679258
2348.6997 807.74786 5569.1182 8679258
2416.9922 819.71594 5651.6333 8350036
2432.2185 813.60547 5609.5044 8415829
2468.1653 814.4978 5615.6562 7626569
2448.4973 797.25745 5496.7905 8416086
2501.8125 803.92206 5542.7402 8613208
2509.3901 795.9071 5487.4805 8942430
2530.7356 792.4082 5463.3569 8745051
2528.7812 781.79437 5390.1787 8284243
2548.21 777.97363 5363.8359 8481622
2552.3413 769.63428 5306.3394 10389876
2612.1804 778.09161 5364.6494 10192496
2682.1782 789.33514 5442.1689 9731944
2773.7124 806.5741 5561.0254 11377024
2784.5535 800.21881 5517.208 11508609
2833.9758 804.96967 5549.9639 9995371
2844.8171 798.77875 5507.2793 10653045
2981.2314 827.58716 5705.9028 12758677
3055.9187 838.80615 5783.2534 13022363
2960.1677 803.51227 5539.9155 13087643
3011.4248 808.45911 5574.022 13679779
3022.8782 802.72864 5534.5127 12955800
2979.8418 782.80676 5397.1587 10718583
2955.9465 768.28296 5297.0225 8941922
2967.1001 763.07819 5261.1377 7363149
3010.5967 766.21313 5282.752 6771271
3122.8455 786.60138 5423.3208 3810331
3156.5544 786.99261 5426.0186 9796461
3200.8308 789.98401 5446.6431 10191730
3175.6516 775.94489 5349.8486 11046524
3224.6697 780.13348 5378.7275 11309956
3282.032 786.23914 5420.8232 12296851
3377.4023 801.24323 5524.271 10717561
3381.8677 794.60028 5478.4702 9402215
3362.845 782.61749 5395.8535 9336678
3348.5508 771.9505 5322.3086 8678749
3446.2712 787.06458 5426.5146 8283991
3496.4243 791.13611 5454.5864 8349781
3599.8538 807.07758 5564.4966 11376770
3523.4375 782.7746 5396.937 12823700
3538.4431 779.03674 5371.166 13480858
3519.3699 767.9295 5294.5854 13480859
3599.6877 778.51416 5367.5625 12559758
3664.5276 785.59509 5416.3833 12165257
3710.9326 788.63544 5437.3452 11375741
3685.5098 776.4903 5353.6089 10586998
3690.7537 770.95831 5315.4678 9863018
3747.7146 776.23169 5351.8262 9007712
3783.8005 777.12915 5358.0137 8547418
3908.8557 796.13251 5489.0342 7626316
3838.3293 775.31592 5345.5122 8283991
3803.0837 761.90833 5253.0718 8152662
3916.6426 778.28784 5366.0024 8415830
3961.7498 780.91089 5384.0874 9073760
3977.0117 777.65613 5361.647 9270369
3981.3264 772.32928 5324.9204 9204064
3995.25 768.93555 5301.522 9796200
4023.3728 768.30634 5297.1836 10256750
4021.6414 762.02997 5253.9106 10388337
4075.186 766.24347 5282.9609 10651509
4112.792 767.41858 5291.063 10716788
4106.8613 760.51379 5243.457 10190188
4197.7451 771.50629 5319.2461 10189930
4181.5352 762.79889 5259.2119 10387309
4208.0117 761.94952 5253.356 10716274
4270.9028 767.65784 5292.7124 11308668
4306.1191 768.34491 5297.4497 11506303
4386.7954 777.07483 5357.6387 12032390
4343.459 763.86951 5266.5933 12032388
4390.979 766.71729 5286.2275 11703679
4471.8408 775.3053 5345.439 11046004
4473.9502 770.2149 5310.3423 9927006
4468.8813 763.96844 5267.2754 11045488
4433.1807 752.60828 5188.9517 9861474
4461.5649 752.20929 5186.2007 8611408
4464.5044 747.55518 5154.1123 8940376
4519.9595 751.698 5182.6753 8874585
4495.5063 742.58533 5119.8472 8743000
4508.4536 739.73145 5100.1704 8546132
4509.0503 734.90253 5066.877 8612183
4480.0894 725.35199 5001.0293 9928042
4601.8481 740.16888 5103.1865 10717560
4673.8926 746.84857 5149.2402 10585975
4684.2334 743.64569 5127.1577 10454646
4607.2856 726.71594 5010.4336 10520184
4679.4663 733.37469 5056.3433 10388344
4638.6162 722.34711 4980.312 10257529
4667.769 722.2912 4979.9263 9994099
4694.5244 721.86725 4977.0034 9928563
4676.9702 714.6778 4927.4351 10257015
4633.5483 703.64923 4851.3975 9533038
0 0 0 0
0 0 0 0
0 0 0 0
0 0 0 0
-5069.1826 839.43207 5560.3774 14
-5006.7344 834.51575 5527.8115 14
-4789.1826 803.51184 5322.4424 14
-4893.2095 826.40796 5474.1055 14
-4838.2773 822.58405 5448.7764 14
-4574.6714 782.99249 5186.5229 14
-4690.8735 808.31232 5354.2412 14
-4858.73 842.93854 5583.604 14
-4821.585 842.2301 5578.9116 14
-4782.1802 841.1145 5571.5215 13
-4610.7798 816.6059 5409.1772 11
-4684.5488 835.47955 5534.1963 13
-4670.6377 838.87152 5556.6641 12
-4704.5073 850.95428 5636.7002 12
-4687.0151 853.85309 5655.9014 12
-4863.4868 892.38324 5911.125 12
-4790.5366 885.37512 5864.7031 12
-4765.7339 887.22803 5876.9766 12
-4720.9941 885.3692 5864.6636 12
-4695.4233 887.10449 5876.1582 12
-4648.7588 884.85046 5861.228 14
-4594.7119 881.14709 5836.6963 14
-4560.8408 881.28577 5837.6152 14
-4523.4429 880.74011 5834.0005 14
-4484.1157 879.80737 5827.8223 16
-4444.9639 878.8949 5821.7783 16
-4410.6455 878.93134 5822.019 274
-4374.2622 878.55353 5819.5171 19
-4319.5884 874.46704 5792.4478 532
-4289.2422 875.27936 5797.8291 280
-4249.6992 874.21295 5790.7651 283
-4208.2686 872.73779 5780.9937 539
-4169.75 871.84729 5775.0947 539
-4150.3511 874.97278 5795.7983 539
-4108.5347 873.38501 5785.2808 542
-4052.562 868.73584 5754.4849 544
-4002.5496 865.29633 5731.7012 545
-3968.5117 865.28082 5731.5991 546
-3939.271 866.32025 5738.4839 547
-3907.728 866.86694 5742.105 293
-3835.54 858.32751 5685.5405 551
-3755.9229 847.95966 5616.8638 806
-3718.2788 846.9671 5610.2891 1061
-3702.0984 850.88983 5636.2734 30
-3688.3525 855.44867 5666.4712 537
-3645.4771 853.27319 5652.0605 278
-3605.6704 851.7821 5642.1841 275
-3582.8784 854.3205 5658.9976 274
-3562.0791 857.38617 5679.3047 274
-3539.6482 860.11401 5697.374 274
-3527.1118 865.32178 5731.8701 18
-3505.3726 868.3512 5751.937 18
-3475.9082 869.50763 5759.5972 18
-3454.4019 872.69751 5780.7266 18
-3427.075 874.46594 5792.4409 18
-3413.2214 879.74304 5827.396 18
-3392.4292 883.32117 5851.0977 18
-3361.3684 884.27197 5857.3955 18
-3311.791 880.32043 5831.2212 18
-3299.1833 886.21649 5870.2759 18
-3264.6172 886.27686 5870.6763 274
-3234.251 887.49097 5878.7183 274
-3186.4519 883.89581 5854.9043 274
-3141.1611 880.92505 5835.2256 274
-3108.7092 881.52875 5839.2246 272
-3074.4922 881.63989 5839.9604 272
-3038.1855 881.14746 5836.6987 272
-3005.0845 881.58411 5839.5913 272
-2980.0205 884.41614 5858.3506 16
-2949.4399 885.65851 5866.5801 16
-2903.7329 882.33405 5844.5591 16
-2872.2112 883.29187 5850.9038 17
-2840.5261 884.22223 5857.0664 18
-2807.6008 884.78467 5860.792 18
-2775.9568 885.77008 5867.3193 19
-2737.4778 884.57196 5859.3828 19
-2695.8767 882.32123 5844.4736 19
-2662.6597 882.7915 5847.5889 19
-2628.7222 883.03217 5849.1831 19
-2597.3665 884.15826 5856.6421 19
-2565.4692 885.12781 5863.0649 19
-2530.0063 884.87708 5861.4038 21
-2496.9602 885.47626 5865.373 21
-2464.4446 886.28326 5870.7183 21
-2431.7585 887.05115 5875.8047 21
-2397.6829 887.32703 5877.6323 21
-2359.6484 886.12445 5869.6665 21
-2325.7732 886.47113 5871.9629 21
-2294.9634 888.01453 5882.186 21
-2245.8428 882.41113 5845.0693 21
-2210.6575 882.19305 5843.625 21
-2183.228 885.11255 5862.9639 21
-2152.3284 886.6969 5873.458 21
-2118.3616 887.04877 5875.7891 21
-2082.9775 886.80908 5874.2017 21
-2049.2661 887.28552 5877.3574 21
-2015.0854 887.57184 5879.2539 21
-1982.1221 888.41364 5884.8301 21
-1953.2117 891.13489 5902.8555 21
-1919.6528 891.79584 5907.2334 21
-1885.3726 892.13989 5909.5127 21
-1848.177 891.09143 5902.5679 21
-1807.9 888.48828 5885.3242 21
-1771.5875 887.76935 5880.562 21
-1738.1072 888.46912 5885.1973 21
-1706.5667 890.20947 5896.7256 20
-1674.4751 891.72919 5906.792 21
-1639.6565 891.83063 5907.4639 21
-1610.692 895.18988 5929.7158 21
-1579.282 897.30951 5943.7563 21
-1544.9879 897.85004 5947.3364 21
-1513.4432 900.05078 5961.9141 21
-1480.9738 901.79352 5973.458 21
-1452.9833 906.41577 6004.0757 21
-1421.0178 908.72821 6019.3931 21
-1388.0269 910.48694 6031.043 21
-1355.7781 912.83844 6046.6191 21
-1321.6942 914.04846 6054.6343 21
-1288.9734 916.29504 6069.5156 21
-1256.4164 918.79028 6086.0439 21
-1221.6344 919.75793 6092.4536 20
-1185.1245 919.44385 6090.3735 22
-1145.426 916.55872 6071.2622 23
-1110.1869 917.17047 6075.3145 23
-1074.4696 917.41486 6076.9336 23
-1042.1956 920.71826 6098.8149 23
-1009.3867 923.76953 6119.0264 23
-975.50879 926.0332 6134.0215 23
-939.32471 926.19843 6135.1152 23
-904.6048 927.8786 6146.2446 23
-869.60992 929.40588 6156.3618 23
-833.5946 929.92859 6159.8242 23
-799.93677 933.24969 6181.8228 23
-765.59937 936.05859 6200.4292 21
-730.46851 938.13171 6214.1611 21
-692.39587 936.44635 6202.9971 21
-654.93719 935.44867 6196.3892 21
-616.67566 933.11792 6180.9502 21
-580.56818 933.95789 6186.5137 21
-544.86401 935.60358 6197.415 21
-510.77866 940.4679 6229.6362 21
-474.85968 942.45099 6242.772 21
-438.69867 944.24817 6254.6768 21
-402.61078 946.54895 6269.917 21
-368.26596 953.83234 6318.1621 21
-361.07178 1041.0454 6895.8589 22
-320.99896 1043.6254 6912.9482 22
-278.83096 1039.1516 6883.3145 22
-236.78717 1033.687 6847.1172 20
-198.01773 1043.2122 6910.2114 21
-155.77339 1034.6245 6853.3271 21
-114.31421 1027.0337 6803.0459 21
-74.343758 1031.8339 6834.8418 21
-33.657585 1026.3013 6798.1938 21
6.6000457 1021.6703 6767.5186 21
48.451973 1059.8669 7020.5327 21
88.433846 1040.7627 6893.9863 21
132.30803 1065.0648 7054.9629 21
168.01936 1027.7644 6807.8862 21
206.71307 1019.6195 6753.9346 21
227.70912 940.98328 6233.0503 21
263.78442 937.91455 6212.7227 18
300.39703 937.27405 6208.48 19
335.75534 933.28662 6182.0679 19
371.92114 932.1076 6174.2578 19
407.52795 929.86426 6159.3979 19
442.16617 925.96136 6133.5454 19
477.20703 923.43066 6116.7822 19
515.64453 927.36597 6142.8496 19
549.633 923.30847 6115.9727 18
587.07538 925.19623 6128.4771 18
623.74524 925.71741 6131.9292 18
648.34009 909.24695 6022.8296 18
690.78265 918.21942 6082.2627 15
724.35541 915.09637 6061.5757 65552
760.00922 914.77332 6059.436 65552
791.04694 909.17407 6022.3467 131085
795.04144 874.31842 5791.4634 196618
845.58795 891.42291 5904.7637 262150
838.03174 848.34991 5619.4492 656131
870.1424 847.18994 5611.7656 6903627
899.90881 843.91705 5590.0854 9337192
951.21936 860.36279 5699.022 9074021
978.1626 854.39673 5659.5024 9468778
1018.7394 860.33984 5698.8701 9731436
1046.406 855.34857 5665.8081 9731435
1086.9841 860.8938 5702.5391 9665641
1112.131 854.25122 5658.5391 9994607
1149.2018 856.88867 5676.0093 9994863
1186.1696 859.30139 5691.9912 9863278
1219.7955 859.22687 5691.4971 9863534
1255.6461 860.68097 5701.1294 9665898
1289.0632 860.43469 5699.498 9533799
1320.6074 858.98273 5689.8804 9534056
1360.8472 863.11823 5717.2739 9731178
1386.2988 857.90125 5682.7168 8810333
1405.0055 848.85669 5622.8062 8942432
1443.2147 851.74109 5641.9121 8547674
1472.4636 849.32635 5625.917 8876639
1514.5839 854.27856 5658.7202 9139811
1541.407 850.57495 5634.1875 9205604
1559.9819 842.57343 5581.1855 9271397
1615.5544 854.47223 5660.0029 9008225
1640.3151 849.92206 5629.8628 9139811
1661.2511 843.61096 5588.0586 9402983
1684.1201 838.50916 5554.2642 9402983
1749.385 854.3067 5658.9067 9402983
1758.9658 842.82837 5582.8745 9205604
1793.2717 843.40234 5586.6768 8744284
1815.8073 838.52026 5554.3379 8612954
1834.4021 832.02448 5511.3101 8942175
1871.9154 834.18683 5525.6328 9271140
1906.2783 834.89502 5530.3237 9534058
1949.9279 839.57764 5561.3418 9073505
1959.7357 829.77576 5496.4141 9007455
2002.3578 833.96118 5524.1382 8744283
2017.1176 826.59418 5475.3394 8547416
2051.5291 827.38605 5480.5845 8810586
2082.6855 826.8609 5477.1064 8744794
2128.4109 832.0473 5511.4604 8547414
2146.6218 826.48334 5474.605 9007966
2162.1973 820.08551 5432.2261 8942173
2195.4834 820.49414 5434.9331 8810587
2235.1223 823.23083 5453.061 8613208
2255.1741 818.77814 5423.5659 9008222
2278.3586 815.57196 5402.3286 8877151
2268.9912 800.96362 5305.5635 8416604
2310.7849 804.56799 5329.4385 9469293
2314.9468 795.14911 5267.0483 9206377
2366.5818 802.07019 5312.8931 9469036
2363.792 790.60638 5236.957 8679520
2429.2031 801.9549 5312.1294 8152661
2438.6418 794.77112 5264.5444 8284247
2481.8855 798.64716 5290.2188 8350297
2497.2341 793.56189 5256.5347 8415831
2528.3965 793.56543 5256.5576 7758157
2557.5854 792.95697 5252.5273 9402980
2581.3269 790.69446 5237.5405 9732457
2612.488 790.73157 5237.7861 10719090
2643.751 790.79803 5238.2271 11902839
2689.9133 795.26819 5267.8369 11968635
2711.9526 792.58557 5250.0669 10718317
2819.8948 814.78461 5397.1133 9139031
2919.0117 833.96448 5524.1602 10653043
2909.3323 821.98029 5444.7773 11048060
2976.1013 831.6214 5508.6396 12101517
2977.0364 822.85663 5450.582 14141613
2936.0332 802.81274 5317.8115 14075821
2865.97 775.33276 5135.7852 11902856
2863.3789 766.49182 5077.2231 9536119
2976.7227 788.54645 5223.3125 14209738
3086.9468 809.32922 5360.9771 14012360
3127.5569 811.62323 5376.1724 14143945
3098.9058 796.07849 5273.2041 14010817
3068.063 780.28662 5168.5996 10586496
3143.3298 791.52673 5243.0532 8151637
3172.0486 790.94012 5239.1675 9270371
3194.4456 788.80377 5225.0166 9072992
3224.7192 788.63483 5223.8975 8612441
3271.4631 792.45868 5249.2266 8678234
3406.8599 817.48303 5414.9873 8020821
3250.3293 772.64526 5117.9834 1509638
3256.0771 766.85577 5079.6338 1704960
3326.0916 776.16943 5141.3271 4599854
3398.7327 785.92133 5205.9238 2957083
3120.156 715.01306 4736.229 9995897
3434.4905 780.02893 5166.8921 13482145
3447.7861 776.12891 5141.0586 12692371
3520.2937 785.50977 5203.1973 13020822
3588.1013 793.68799 5257.3701 13283738
3615.8308 792.93658 5252.3926 12165004
3598.8159 782.46942 5183.0581 10192240
3695.8203 796.76019 5277.7197 10389621
3659.489 782.30719 5181.9834 10126193
3669.5837 777.93695 5153.0352 9271143
3675.7493 772.81268 5119.0923 8679008
3628.1697 756.56519 5011.4692 7757905
3724.1414 770.27252 5102.2661 11442310
3816.0879 782.93323 5186.1304 9994865
3840.6606 781.6792 5177.8237 9928046
3814.948 770.29175 5102.3936 8545624
3874.7815 776.22052 5141.6655 8217172
3853.8 765.99377 5073.9238 8349015
3852.8823 759.88245 5033.4424 9006430
3954.7373 773.97852 5126.8145 8677209
3979.9729 772.97888 5120.1929 9861993
4067.8442 784.06726 5193.6421 10322288
4078.2463 780.16919 5167.8213 10848887
4109.1841 780.22845 5168.2139 10519665
4160.0356 784.04004 5193.4619 10584945
4186.3257 783.20056 5187.9009 10519409
4239.6646 787.39667 5215.6963 10387823
4236.793 781.16833 5174.4395 10453616
4291.8726 785.63745 5204.043 10322030
4377.4048 795.57745 5269.8857 10519662
4388.7446 791.98804 5246.1094 11177593
4420.0312 792.02338 5246.3433 11966339
4440.9062 790.20551 5234.3018 11703167
4468.1431 789.53717 5229.8745 10913653
4459.8208 782.63776 5184.1733 9795430
4438.4473 773.55817 5124.0303 7887436
4479.8677 775.47168 5136.7051 7887439
4440.6611 763.49695 5057.3848 8545625
4393.8086 750.37695 4970.4785 7953745
4424.7183 750.6236 4972.1118 10125167
4399.0732 741.33624 4910.5928 9993580
4444.1333 744.00793 4928.29 10651767
4492.9321 747.2666 4949.8755 10849400
4496.23 742.96436 4921.3774 11179134
4541.7866 745.6554 4939.2031 10915962
4595.8574 749.70105 4966.001 11244927
4577.2446 741.91394 4914.4194 12100494
4668.375 751.90082 4980.5723 11639687
4676.8398 748.53162 4958.2549 11639433
4680.4854 744.43787 4931.1382 10191990
4739.0068 749.06891 4961.814 9731440
0 0 0 0
0 0 0 0
0 0 0 0
0 0 0 0
-4924.6318 847.50757 5401.8203 14
-4891.3633 847.28998 5400.4331 14
-4723.7466 823.6441 5249.7202 14
-4808.9683 844.06274 5379.8638 14
-4802.6255 848.57532 5408.6255 14
-4500.6426 800.56085 5102.5928 14
-4782.23 856.40283 5458.5166 14
-4765.3081 859.18427 5476.2446 14
-4734.6055 859.50201 5478.2705 14
-4698.936 858.91638 5474.5376 12
-4578.0571 842.63892 5370.7886 12
-4638.2422 859.69354 5479.4907 12
-4606.6587 859.85944 5480.5483 12
-4553.9014 856.04755 5456.252 12
-4613.3076 873.41644 5566.9575 12
-4699.106 896.06824 5711.335 12
-4748.2134 912.00146 5812.8896 12
-4758.5698 920.67017 5868.1421 12
-4710.333 918.04657 5851.4194 12
-4584.542 900.15668 5737.3936 11
-4540.6753 898.20502 5724.9546 14
-4498.3628 896.53394 5714.3032 14
-4459.7036 895.57098 5708.1655 14
-4434.4663 897.30933 5719.2451 14
-4406.2964 898.47644 5726.6841 13
-4355.4043 894.99237 5704.4775 16
-4312.7188 893.15338 5692.7563 18
-4285.8599 894.58899 5701.9067 19
-4263.7734 897.05145 5717.6016 277
-4228.0044 896.65161 5715.0532 280
-4161.626 889.70154 5670.7549 283
-4117.4946 887.43292 5656.2954 539
-4082.2498 887.05829 5653.9072 539
-4056.9082 888.84705 5665.3091 540
-4021.4648 888.43408 5662.6768 541
-3994.1892 889.8338 5671.5977 541
-3948.1836 887.04901 5653.8486 544
-3919.551 888.15332 5660.8872 546
-3867.3767 883.89612 5633.7524 803
-3821.4819 881.01251 5615.373 803
-3759.0166 874.22449 5572.1079 548
-3697.8301 867.61615 5529.9878 543
-3672.9907 869.49402 5541.9565 541
-3654.8135 872.99707 5564.2847 539
-3624.8062 873.71234 5568.8438 279
-3584.9792 872.05231 5558.2627 276
-3563.9646 874.97992 5576.9229 275
-3531.783 875.19513 5578.2944 275
-3519.9844 880.51306 5612.1899 530
-3510.9421 886.62866 5651.1689 530
-3473.7161 885.67609 5645.0977 274
-3429.666 882.94818 5627.7104 18
-3410.1924 886.55597 5650.7056 19
-3382.4578 888.06628 5660.3325 18
-3355.3552 889.7746 5671.2207 18
-3348.145 896.8457 5716.2905 18
-3297.1584 892.21558 5686.7788 18
-3299.4133 902.04578 5749.4346 18
-3275.2278 904.77704 5766.8428 18
-3238.7051 904.12189 5762.667 18
-3186.6868 899.08069 5730.5356 274
-3169.1262 903.75751 5760.3447 274
-3132.0479 902.90948 5754.9399 274
-3084.2476 898.91809 5729.4995 274
-3051.1782 899.17889 5731.1611 273
-3017.3394 899.21606 5731.3989 273
-2989.8975 901.18237 5743.9316 272
-2963.001 903.36029 5757.813 272
-2930.9607 904.00232 5761.9053 16
-2896.5005 903.90436 5761.2808 16
-2861.5488 903.64893 5759.6523 16
-2822.5581 902.09631 5749.7568 18
-2794.4973 904.04181 5762.1562 18
-2754.9192 902.26331 5750.8208 19
-2721.1929 902.38068 5751.5693 19
-2688.6353 902.89362 5754.8384 19
-2655.6812 903.28491 5757.3325 19
-2620.0166 902.75244 5753.9385 19
-2587.4788 903.29749 5757.4126 19
-2552.0527 902.83533 5754.4668 19
-2519.1775 903.27527 5757.271 19
-2483.2375 902.61328 5753.0518 21
-2447.5886 902.04022 5749.3989 21
-2419.3062 904.2041 5763.1909 21
-2386.2048 904.60309 5765.7344 21
-2353.5671 905.19214 5769.4883 21
-2320.3635 905.57751 5771.9448 21
-2290.1077 907.14203 5781.917 21
-2258.1653 908.07599 5787.8696 21
-2223.0818 907.75616 5785.8311 21
-2182.9912 905.34961 5770.4927 21
-2141.2388 902.16644 5750.2036 21
-2106.9263 902.06561 5749.5605 21
-2088.3286 908.80023 5792.4858 21
-2055.825 909.60718 5797.6289 21
-2014.8088 906.61115 5778.5332 21
-1972.8999 903.10297 5756.1724 21
-1938.0345 902.75208 5753.9365 21
-1913.2393 907.16351 5782.0537 21
-1879.4331 907.38538 5783.4678 21
-1847.0081 908.29462 5789.2632 21
-1813.2572 908.57404 5791.0439 21
-1780.285 909.26184 5795.4282 21
-1744.9722 908.75775 5792.2153 21
-1707.7787 907.23444 5782.5059 21
-1677.3011 909.28943 5795.604 21
-1645.0535 910.45081 5803.0063 21
-1612.5074 911.4931 5809.6494 21
-1580.2618 912.75427 5817.688 21
-1547.9733 914.04645 5825.9238 21
-1516.8622 916.10864 5839.0684 21
-1486.0337 918.44183 5853.9395 21
-1455.1281 920.83771 5869.21 21
-1427.2688 925.32605 5897.8174 21
-1396.7396 928.26526 5916.5513 21
-1365.9762 931.19604 5935.2319 21
-1333.295 932.94006 5946.3472 21
-1299.6792 934.10687 5953.7847 21
-1267.8839 936.68372 5970.209 21
-1234.796 938.42621 5981.3154 21
-1198.2076 937.53284 5975.6211 21
-1169.0651 942.5885 6007.8442 21
-1132.2766 941.60327 6001.5649 23
-1095.6001 940.65033 5995.4907 23
-1060.4999 941.0321 5997.9243 23
-1025.3998 941.44055 6000.5278 23
-992.27014 943.75244 6015.2632 23
-957.91284 945.02551 6023.3774 23
-924.17468 947.03168 6036.1641 23
-887.18799 945.73633 6027.9082 21
-853.48511 947.97974 6042.207 21
-820.66174 951.43939 6064.2578 20
-786.78729 953.94141 6080.2056 20
-752.57587 956.25543 6094.9541 21
-717.52734 957.68549 6104.0693 21
-682.46301 959.24518 6114.0107 21
-644.15668 956.16754 6094.3945 21
-607.42902 955.20679 6088.2705 21
-571.14392 954.8645 6086.0894 21
-533.97101 952.89185 6073.5156 21
-501.10101 958.86761 6111.604 21
-465.75421 960.66595 6123.0659 21
-429.88293 961.59503 6128.9878 21
-423.97751 1035.9116 6602.6646 21
-351.11896 945.11987 6023.979 21
-320.66147 960.82678 6124.0908 21
-285.22525 963.72052 6142.5352 21
-273.07956 1057.6678 6741.334 21
-233.27156 1058.3147 6745.457 21
-192.84755 1055.8564 6729.7886 21
-152.74165 1054.312 6719.9448 21
-113.13139 1056.306 6732.6543 21
-73.28286 1057.0361 6737.3076 21
-33.373035 1057.5715 6740.7202 21
6.558918 1055.1597 6725.3477 21
46.408195 1055.0104 6724.396 21
86.028496 1052.1985 6706.4736 21
125.22319 1047.6031 6677.1836 21
166.04553 1055.5618 6727.9102 21
201.50545 1032.9495 6583.7852 21
223.10483 958.14801 6107.0176 21
258.84335 956.4743 6096.3496 18
294.24384 954.11432 6081.3076 19
330.55176 954.89081 6086.2568 19
364.54642 949.48956 6051.8301 19
398.09323 943.99371 6016.8013 19
433.66394 943.80634 6015.6064 19
467.0838 939.3219 5987.0239 19
502.93576 940.01642 5991.4507 19
538.19232 939.57983 5988.6675 19
572.20093 937.15338 5973.2026 19
599.6947 924.96143 5895.4932 19
632.51404 921.87347 5875.8115 19
668.70441 923.76477 5887.8662 18
697.43817 915.67847 5836.3262 18
726.19995 908.39136 5789.8799 18
757.99048 905.37964 5770.6836 18
787.51697 900.04022 5736.6514 17
835.88855 915.78931 5837.0327 65549
860.86804 905.67694 5772.5786 262151
0 0 0 0
880.80371 858.42529 5471.4077 7628638
912.13959 857.40186 5464.8843 9271918
951.3374 863.58527 5504.2959 9665645
984.85052 864.36938 5509.2939 9665643
1022.4194 868.54871 5535.9316 9468262
1051.0358 865.09937 5513.9463 9534055
1090.8182 870.77167 5550.1001 9534056
1119.3221 867.37195 5528.4312 9665385
1155.201 869.71808 5543.3853 9731434
1185.2452 867.66309 5530.2871 9534055
1222.6792 870.98285 5551.4468 9402470
1253.4139 869.48157 5541.8774 9271140
1291.028 872.70715 5562.4365 8810845
1321.7025 871.19788 5552.8169 9139810
1351.3523 869.10297 5539.4644 9140067
1383.5688 868.71899 5537.0171 9140324
1404.1562 861.22028 5489.2217 9140324
1437.2454 861.5553 5491.3569 9140324
1467.9574 860.48199 5484.5161 9074018
1491.1053 855.11737 5450.3237 9139811
1517.8417 851.99457 5430.4189 9337190
1539.4879 846.20355 5393.5083 9468776
1583.4486 852.664 5434.6865 9600361
1617.3595 853.56323 5440.4175 9600105
1634.3463 845.67004 5390.1084 9402983
1672.9886 849.07013 5411.7798 9337189
1710.146 851.60284 5427.9229 9534568
1733.9362 847.5083 5401.8252 9468776
1762.189 845.70416 5390.3257 9402983
1788.2389 842.92578 5372.6167 9468776
1823.4786 844.50055 5382.6543 9731691
1856.317 844.92828 5385.3804 9863020
1880.2402 841.35217 5362.5874 9270884
1936.6407 852.18616 5431.6401 8349524
1930.1038 835.42401 5324.8022 7494215
1964.2043 836.50769 5331.7095 6046513
2000.1061 838.31201 5343.21 6507317
2009.2568 829.02258 5284.0015 7889484
2039.3073 828.50922 5280.729 8481622
2075.207 830.35181 5292.4736 8547416
2102.2742 828.65796 5281.6772 8744794
2148.2051 834.34033 5317.8955 8547415
2172.1799 831.45422 5299.4995 7823692
2185.8862 824.7757 5256.9326 7889483
2161.4749 804.10474 5125.1802 8351319
2211.3845 811.27191 5170.8628 852480
2154.9292 779.75537 4969.9834 3352866
2150.3047 767.59076 4892.4487 10193527
2192.198 772.13422 4921.4077 9799024
2232.9465 776.16052 4947.0703 11180165
2251.9729 772.6297 4924.5659 11180164
2279.5547 772.08704 4921.1069 9731948
2386.0867 797.96082 5086.0205 8941664
2443.8276 807.07581 5144.1172 8678751
2485.5005 810.72498 5167.3765 3548954
2443.0076 787.16614 5017.2178 3285013
2481.0962 789.82605 5034.1714 10125925
2484.5269 781.52094 4981.2363 11047281
2501.571 777.6427 4956.5176 10257501
2559.5132 786.42053 5012.4653 11047017
2654.501 806.24878 5138.8462 10718057
2677.5686 804.03082 5124.7095 10915439
2721.408 808.03009 5150.1997 10060905
2770.7715 813.56256 5185.4629 10521201
2840.5232 824.89453 5257.6899 11508608
2867.6646 823.74078 5250.3359 11639678
2890.5713 821.40833 5235.4697 11902338
2821.3015 793.20996 5055.7397 6704956
2819.8169 784.46185 4999.981 6706755
2964.7139 816.19495 5202.2407 6575681
3051.6323 831.47742 5299.6479 11115929
3009.7437 811.71008 5173.6553 13880515
2951.8867 788.07831 5023.0317 13946823
2951.5779 780.12872 4972.3633 13946823
2990.7461 782.66748 4988.5444 13615027
3113.2803 806.75958 5142.1016 11902607
3087.0212 792.20074 5049.3071 8745055
3176.3442 807.29773 5145.5322 9007460
3141.9124 790.95325 5041.356 8744544
3204.3193 799.06561 5093.062 8086871
3247.7656 802.34222 5113.9468 7363920
3280.6746 802.97919 5118.0068 2692624
3293.4583 798.72382 5090.8838 3482656
3259.2439 783.25122 4992.2651 3812391
3233.8997 770.16949 4908.8853 6114113
3345.8267 789.72144 5033.5049 7627347
3289.7354 769.62067 4905.3867 12956571
3336.4128 773.70361 4931.4106 13613732
3445.2559 792.00665 5048.0698 12889750
3515.1602 801.12006 5106.1567 13349273
3586.0061 810.29077 5164.6089 13349529
3608.259 808.41931 5152.6802 11770498
3594.3594 798.54712 5089.7578 11507328
3622.762 798.15924 5087.2852 10783349
3612.6741 789.36761 5031.2495 9994090
3631.1716 786.91479 5015.6157 8349267
3775.1689 811.47803 5172.1763 7888461
3801.5613 810.56995 5166.3882 9139298
3846.3247 813.56213 5185.4595 9665641
3837.9805 805.36273 5133.1987 10059630
3832.6802 797.92609 5085.7993 10323059
3811.8774 787.40308 5018.728 9599079
3821.009 783.17859 4991.8022 9796200
3853.7334 783.81775 4995.876 9993580
3875.0691 782.14832 4985.2349 9664615
3951.0508 791.4505 5044.5254 9533029
3948.2695 784.95416 5003.1191 7887947
4042.7083 797.73883 5084.606 9861992
4042.5488 791.80573 5046.7891 10058859
4051.7346 787.77655 5021.1084 10190700
4099.98 791.34521 5043.854 10190442
4134.1113 792.15778 5049.0332 10058857
4172.5161 793.77155 5059.3188 9795686
4178.8311 789.30121 5030.8262 9664353
4284.7827 803.58032 5121.8379 9861219
4328.6353 806.09424 5137.8613 10519406
4307.7476 796.60114 5077.354 11046007
4302.2046 790.0575 5035.6465 11243132
4383.4731 799.43646 5095.4258 11769220
4390.8701 795.3067 5069.104 11177086
4283.7769 770.63684 4911.8638 9335139
4331.2505 773.91827 4932.7788 8545368
4365.1841 774.75262 4938.0967 8479830
4410.9521 777.66235 4956.6426 8479827
4375.9175 766.38196 4884.7441 9795941
4334.1401 754.07684 4806.314 9927526
4428.4961 765.46289 4878.8862 11046262
4380.6934 752.28857 4794.916 10849653
4476.5283 763.79169 4868.2344 10783858
4497.0522 762.38019 4859.2378 10454894
4574.7446 770.6167 4911.7354 10520941
4593.2178 768.83661 4900.3892 11309945
