# .PCD v0.7 - Point Cloud Data file format
VERSION 0.7
FIELDS x y z rgb
SIZE 4 4 4 4
TYPE F F F U
COUNT 1 1 1 1
WIDTH 1377
HEIGHT 1
VIEWPOINT 0 0 0 1 0 0 0
POINTS 1377
DATA ascii
-4534.0547 1019.7489 5140.4736 12
-4223.3989 956.30499 4820.6577 12
-4018.3103 916.06323 4617.8022 12
-4032.2156 925.53644 4665.5562 12
-3905.4985 902.63989 4550.1362 11
-3925.2737 913.51752 4604.9697 11
-4253.0176 996.72205 5024.397 267
-4237.5684 1000.1033 5041.4414 267
-4207.3975 1000.0333 5041.0889 267
-4205.0254 1006.6169 5074.2764 267
-3773.397 909.7981 4586.2202 267
-4089.7463 993.22668 5006.7769 267
-4105.4258 1004.3208 5062.7017 267
-4071.9106 1003.4553 5058.3389 267
-4039.9817 1002.9706 5055.8955 11
-4004.6448 1001.6263 5049.1191 12
-3972.7827 1001.1375 5046.6548 12
-3956.9985 1004.7235 5064.7319 12
-3935.1375 1006.8098 5075.248 12
-3917.5869 1010.0392 5091.5278 12
-3883.8628 1009.1167 5086.8774 13
-3851.5881 1008.5594 5084.0679 14
-3811.5352 1005.9402 5070.8652 14
-3783.3289 1006.4309 5073.3389 14
-3752.9133 1006.3372 5072.8662 13
-3717.4331 1004.8728 5065.4844 16
-3688.9685 1005.2964 5067.6196 16
-3648.4753 1002.4222 5053.1309 18
-3617.2595 1002.0703 5051.3569 18
-3591.4519 1003.2234 5057.1699 18
-3552.3701 1000.6567 5044.231 19
-3525.2524 1001.4451 5048.2056 19
-3504.8015 1004.1571 5061.8765 19
-3493.8716 1009.6675 5089.6538 19
-3470.8823 1011.7585 5100.1943 19
-3446.2937 1013.4158 5108.5488 274
-3422.8203 1015.4334 5118.7192 274
-3394.4934 1016.0344 5121.749 274
-3364.6331 1016.183 5122.498 274
-3305.0757 1007.2836 5077.6372 274
-3271.8176 1006.3096 5072.7271 271
-3247.8538 1008.2026 5082.2695 272
-3230.7144 1012.2693 5102.7695 272
-3209.7178 1015.1929 5117.5073 272
-3195.04 1020.19 5142.6973 272
-3169.6504 1021.8299 5150.9639 16
-3142.6794 1022.9871 5156.7969 16
-3107.3352 1021.4145 5148.8696 16
-3076.6353 1021.3526 5148.5576 16
-3044.5303 1020.8183 5145.8643 272
-3018.7942 1022.4302 5153.9897 272
-3001.4116 1026.9333 5176.6895 272
-2977.8367 1029.3888 5189.0674 272
-2945.4138 1028.8049 5186.1245 272
-2920.3667 1030.8123 5196.2432 16
-2897.6572 1033.6964 5210.7817 16
-2884.7764 1040.1865 5243.498 16
-2858.7634 1042.0314 5252.7974 16
-2834.3796 1044.5171 5265.3281 16
-2799.7329 1043.2341 5258.8608 16
-2773.2546 1045.0002 5267.7632 16
-2744.9507 1046.1107 5273.3613 16
-2713.9209 1046.1959 5273.791 18
-2681.9109 1045.901 5272.3042 18
-2690.282 1061.5327 5351.1021 18
-2619.1431 1045.7899 5271.7441 18
-2595.3062 1048.7822 5286.8281 19
-2567.6013 1050.2654 5294.3047 19
-2542.8979 1053.0282 5308.2319 19
-2518.8826 1056.1488 5323.9624 19
-2488.3762 1056.5923 5326.1978 19
-2542.3599 1093.3834 5511.6597 20
-2425.3838 1056.6515 5326.4966 21
-2392.7927 1056.199 5324.2153 21
-2370.5408 1060.3591 5345.1865 18
-2341.0049 1061.3297 5350.0791 19
-2309.2544 1061.3091 5349.9756 19
-2279.498 1062.2173 5354.5532 19
-2249.1919 1062.8911 5357.9502 19
-2217.5664 1062.952 5358.2568 19
-2185.3533 1062.7288 5357.1313 19
-2156.7429 1064.2769 5364.9355 19
-2130.3274 1066.9706 5378.5142 20
-2098.4033 1066.9452 5378.3862 20
-2067.1975 1067.2898 5380.1235 21
-2036.4852 1067.9042 5383.2207 21
-2001.7786 1066.4102 5375.689 21
-1971.5824 1067.3096 5380.2227 21
-1942.9478 1069.0975 5389.2363 21
-1910.8112 1068.9863 5388.6758 21
-1881.9911 1070.7583 5397.6079 21
-1851.0259 1071.3499 5400.5898 21
-1817.5466 1070.4816 5396.2134 21
-1790.4961 1073.4364 5411.1079 21
-1760.9266 1074.9613 5418.7949 21
-1725.3553 1072.8108 5407.9546 21
-1689.4517 1070.3685 5395.6431 21
-1657.6187 1070.4608 5396.1079 21
-1627.2565 1071.5251 5401.4731 21
-1595.8708 1071.9447 5403.5884 21
-1564.1536 1072.1541 5404.644 21
-1533.0564 1072.8062 5407.9312 21
-1502.0637 1073.5608 5411.7354 21
-1471.4286 1074.6095 5417.0215 21
-1441.1129 1075.9436 5423.7461 21
-1410.5016 1077.1125 5429.6392 21
-1383.261 1080.9705 5449.0864 21
-1352.5233 1082.2144 5455.3574 21
-1321.968 1083.6688 5462.689 21
-1290.7482 1084.6379 5467.5742 21
-1260.7626 1086.7208 5478.0737 21
-1229.6685 1087.9331 5484.1846 21
-1199.3472 1089.9135 5494.167 21
-1169.0421 1092.0193 5504.7832 21
-1139.2581 1094.7468 5518.5322 21
-1111.2393 1099.3822 5541.8984 21
-1082.2946 1103.3558 5561.9292 21
-1053.885 1108.1417 5586.0547 21
-1024.1265 1111.7737 5604.3628 21
-994.77386 1116.1045 5626.1943 21
-962.90253 1117.8118 5634.8008 21
-931.98016 1120.783 5649.7783 21
-900.737 1123.5754 5663.855 21
-870.45782 1127.8331 5685.3174 21
-838.27185 1129.8635 5695.5522 21
-806.27631 1132.3318 5707.9946 21
-774.48151 1135.3105 5723.0103 21
-741.67065 1137.0043 5731.5488 21
-708.83777 1138.8254 5740.729 21
-675.98737 1140.8005 5750.6851 21
-642.36261 1141.6093 5754.7617 21
-612.40851 1149.3979 5794.0239 21
-577.00763 1147.2819 5783.3569 21
-544.52283 1151.0627 5802.416 21
-510.35229 1151.5497 5804.8706 21
-476.12299 1151.9648 5806.9634 21
-442.43381 1153.8533 5816.4829 21
-407.90662 1153.6908 5815.6641 21
-374.05859 1155.5964 5825.27 21
-340.61105 1159.2524 5843.7002 21
-306.78873 1162.3164 5859.145 21
-272.10129 1162.4663 5859.9009 21
-237.07724 1161.0117 5852.5684 21
-202.935 1164.1171 5868.2222 21
-169.57294 1173.9076 5917.5752 21
-133.63661 1166.3363 5879.4092 21
-101.62173 1199.72 6047.6938 21
-65.772224 1199.545 6046.812 21
-30.29534 1213.8823 6119.0845 19
5.9888062 1218.184 6140.769 19
43.054794 1237.5714 6238.4995 19
80.126717 1239.137 6246.3916 19
117.78574 1245.9236 6280.6025 19
155.70071 1251.5081 6308.7534 19
192.17703 1245.6055 6278.9985 19
227.77309 1236.8378 6234.8013 19
262.98355 1228.7161 6193.8604 21
300.68353 1232.7908 6214.4009 21
335.6402 1225.9561 6179.9478 21
373.0423 1228.5195 6192.8701 20
413.57779 1240.0186 6250.8354 19
427.17761 1175.5056 5925.6309 19
471.17316 1198.0829 6039.4409 19
488.9812 1155.5846 5825.2104 19
524.09027 1156.8816 5831.749 19
558.34778 1156.2549 5828.5894 19
589.87878 1150.3839 5798.9941 19
623.64618 1149.2808 5793.4331 19
654.95752 1144.0026 5766.8267 19
685.36676 1137.7504 5735.3096 19
715.63055 1131.859 5705.6118 19
748.0343 1129.7312 5694.8857 19
778.93677 1125.6176 5674.1489 18
809.88049 1121.9015 5655.417 18
842.35211 1120.5134 5648.4194 18
870.03448 1113.1041 5611.0698 18
882.91058 1087.9948 5484.4956 18
909.28485 1080.7114 5447.7808 18
947.20294 1087.1772 5480.3745 18
979.54718 1087.0291 5479.6274 17
990.73212 1064.1626 5364.3594 16
1031.6143 1073.6248 5412.0571 65552
1060.653 1070.562 5396.6182 65550
1091.3143 1069.2686 5390.0986 131082
1069.104 1017.7181 5130.2368 393220
0 0 0 0
1096.2728 987.42108 4977.5117 8943206
1148.4061 1007.275 5077.5933 9600103
1186.2886 1013.9344 5111.1631 9665896
1218.3901 1015.4444 5118.7749 9271138
1249.6866 1016.2264 5122.7168 9271138
1282.3593 1018.0636 5131.978 9468263
1313.7419 1018.8154 5135.7681 9205088
1342.0043 1017.1682 5127.4644 9336931
1369.4305 1014.9742 5116.4048 9402467
1400.7047 1015.6655 5119.8892 9271138
1431.6138 1016.0682 5121.9194 9336931
1462.33 1016.3203 5123.1899 9271138
1482.1666 1009.1545 5087.0679 8810587
1516.3428 1011.8431 5100.6211 9073759
1553.41 1016.3181 5123.1792 9139552
1582.9719 1015.8052 5120.5938 8942429
1618.1477 1018.8464 5135.9243 9205602
1643.7238 1015.8426 5120.7822 9205602
1679.5492 1019.1671 5137.5405 9073759
1710.4535 1019.4402 5138.917 9073759
1747.3755 1023.2274 5158.0083 9074016
1768.8085 1017.9705 5131.5088 9402981
1794.5698 1015.34 5118.2485 9402724
1830.8323 1018.6398 5134.8823 9468517
1854.0253 1014.6788 5114.9155 9534567
1878.6201 1011.6002 5099.3965 9534053
1911.8726 1013.2072 5107.4971 9271137
1949.858 1017.2333 5127.7925 9336931
1982.6726 1018.4797 5134.0752 9205345
2009.1541 1016.4841 5124.0161 9073758
2046.1505 1019.7887 5140.6743 9271138
2059.2729 1011.2723 5097.7437 9205345
2078.6902 1006.0487 5071.4116 9600103
2094.3611 999.1864 5036.8198 9534310
2106.0132 990.62689 4993.6719 9139552
2132.259 989.07397 4985.8438 8547415
2189.3904 1001.6944 5049.4624 8613208
2219.1538 1001.6218 5049.0962 8481621
2255.6367 1004.5438 5063.8257 8547415
2280.1758 1002.1395 5051.7061 8679001
2313.8513 1003.7612 5059.8804 9007966
2358.5161 1010.0475 5091.5693 8810587
2377.9199 1005.4935 5068.6128 8810587
2420.188 1010.6005 5094.3569 8745051
2452.2334 1011.3657 5098.2144 8481879
2462.2236 1003.1267 5056.6821 8613464
2483.7483 999.72858 5039.5527 8942429
2503.7844 995.81921 5019.8457 8745309
2526.5688 993.08197 5006.0474 8482394
2519.5352 978.82391 4934.1738 9140322
2568.2156 986.28937 4971.8066 8942432
2576.645 978.30298 4931.5479 9008482
2606.3835 978.49561 4932.519 8745308
2658.2993 986.91754 4974.9731 8152914
2681.5786 984.63959 4963.4902 7692363
2711.9329 984.9809 4965.2109 8152914
2728.3579 980.30994 4941.665 8021326
2748.3594 977.0097 4925.0283 8284498
2799.7849 984.83228 4964.4614 9008220
2847.0117 991.03052 4995.7065 9929066
2845.2949 980.23956 4941.3101 9665637
2922.2549 996.49738 5023.2646 9731683
2974.4756 1004.0763 5061.4692 10850164
2943.9626 983.8548 4959.5342 10521455
2972.6023 983.60614 4958.2808 11047543
3002.6416 983.82092 4959.3633 10389356
3171.6287 1029.1167 5187.6958 10653042
3248.2297 1043.8535 5261.9829 11048057
3223.7292 1026.129 5172.6353 12101002
3249.999 1024.7466 5165.6665 14010026
3291.5247 1028.1554 5182.8501 14207405
3220.7043 996.7326 5024.4502 12298382
3169.2664 971.82904 4898.9136 10520946
3178.1245 965.69916 4868.0127 8679001
3253.02 979.56482 4937.9087 7560267
3287.0781 980.99597 4945.123 6310457
3329.4436 984.85895 4964.5962 4731171
3321.0605 973.77435 4908.7192 9336166
3345.1499 972.32074 4901.3921 10058856
3407.0559 981.78955 4949.1235 10980215
3443.1221 983.71429 4958.8257 11046268
3572.4387 1012.0229 5101.5278 11901578
3591.9949 1009.0238 5086.4092 11968142
3591.0437 1000.3618 5042.7446 10652539
3623.2927 1001.0151 5046.0381 10323317
3599.9463 986.42401 4972.4854 10191985
3614.179 982.2832 4951.6118 8677974
3761.1294 1013.9895 5111.4409 9007708
3885.9131 1039.2609 5238.8315 10191980
3879.3733 1029.2882 5188.5605 13086613
3879.3511 1021.1882 5147.729 13415320
3896.5566 1017.7144 5130.2173 13612444
3987.2678 1033.3438 5209.0044 13283480
3902.4521 1003.5931 5059.0332 12296585
3895.6526 994.20642 5011.7158 11441277
3951.0266 1000.709 5044.4946 10915192
3902.0984 980.89478 4944.6128 9336420
3900.9937 973.30792 4906.3682 8876640
3930.0757 973.30939 4906.3755 7099974
3976.6592 977.61334 4928.0713 6903110
3917.0828 955.94672 4818.8516 3942689
4013.0146 972.27002 4901.1362 3021329
3979.8425 957.30438 4825.6958 4666154
4012.949 958.38116 4831.1235 8219484
4144.4956 982.78558 4954.1445 8416863
4188.9814 986.34735 4972.0991 10653558
4152.7227 970.97986 4894.6328 10784889
4184.0464 971.51782 4897.3447 11904140
4194.3506 967.20142 4875.5859 11968908
4191.8623 960.01453 4839.3569 12561044
4223.2563 960.63196 4842.4697 9599846
4150.248 937.65387 4726.6392 9269600
4291.5356 963.07446 4854.7822 9335393
4314.8843 961.86591 4848.6899 9993068
4480.2446 992.12085 5001.2026 9861992
4335.9487 953.85742 4808.3198 9401184
4468.6709 976.63635 4923.1465 9269596
4320.1343 938.04901 4728.6309 8216651
4258.3726 918.67944 4630.9902 7822151
4387.5513 940.48651 4740.918 9861727
4366.3716 929.99127 4688.0127 10848109
4393.6626 929.88739 4687.4888 9466201
4461.0664 938.22095 4729.4976 7557691
4521.7275 945.04126 4763.8784 7754812
4581.9604 951.68811 4797.3843 9992032
0 0 0 0
0 0 0 0
0 0 0 0
0 0 0 0
0 0 0 0
0 0 0 0
-4540.1055 1030.8359 5045.6318 12
-4517.958 1032.6082 5054.3062 12
-4490.2612 1033.1274 5056.8472 12
-4452.4683 1031.3149 5047.9756 12
-4016.7532 936.68469 4584.7891 12
-3994.7632 937.90082 4590.7422 12
-3962.9456 936.81061 4585.4058 12
-4298.1675 1023.0699 5007.6187 267
-3963.4307 949.953 4649.7339 267
-4203.085 1014.446 4965.4077 267
-4188.8081 1018.1282 4983.4307 267
-4159.1162 1018.0894 4983.2407 267
-4129.2393 1018.0042 4982.8237 267
-3757.6389 933.06403 4567.0674 11
-4067.9617 1017.4492 4980.1074 12
-4046.4817 1019.4731 4990.0137 12
-4015.1277 1019.0208 4987.7998 12
-3980.7041 1017.7769 4981.7114 12
-3948.614 1017.1156 4978.4746 13
-3913.9604 1015.7791 4971.9326 13
-3907.2993 1021.7421 5001.1201 13
-3882.3115 1022.9673 5007.1167 13
-3873.9346 1028.6219 5034.7944 13
-3840.6313 1027.6946 5030.2554 12
-3798.0151 1024.2411 5013.3516 12
-3756.0576 1020.9122 4997.0576 14
-3729.8206 1021.8372 5001.5854 14
-3699.1267 1021.5464 5000.1616 13
-3661.6396 1019.3597 4989.4585 16
-3638.373 1021.1284 4998.1157 16
-3604.53 1019.9332 4992.2661 18
-3572.845 1019.3344 4989.3345 18
-3537.1892 1017.5828 4980.7617 18
-3508.979 1017.9619 4982.6172 18
-3477.8093 1017.4818 4980.2666 19
-3460.2192 1021.0001 4997.4883 18
-3440.8867 1024.0608 5012.4688 274
-3422.6606 1027.5068 5029.3364 19
-3394.8901 1028.1228 5032.3516 274
-3373.915 1030.826 5045.583 274
-3345.4963 1031.2831 5047.8198 273
-3312.9446 1030.4628 5043.8052 273
-3249.9956 1020.0867 4993.0171 273
-3217.1631 1019.0594 4987.9888 15
-3194.7 1021.3283 4999.0942 16
-3187.0923 1028.4332 5033.8706 16
-3166.3047 1031.3792 5048.2905 16
-3157.3159 1038.2615 5081.9771 16
-3126.2856 1037.9581 5080.4922 16
-3104.0293 1040.5902 5093.376 272
-3067.5093 1038.4456 5082.8779 16
-3027.8843 1035.1968 5066.9761 16
-3010.5242 1039.571 5088.3872 16
-2993.3276 1044.0909 5110.5107 16
-2958.0635 1042.3368 5101.9248 16
-2933.363 1044.3071 5111.5688 16
-2906.9199 1045.6918 5118.3462 16
-2878.3875 1046.3462 5121.5493 16
-2856.1567 1049.3296 5136.1523 16
-2840.6099 1054.8594 5163.2188 15
-2821.001 1058.9847 5183.4116 16
-2800.1675 1062.7362 5201.7734 17
-2761.7971 1059.8413 5187.604 18
-2733.1526 1060.6556 5191.5898 18
-2703.7322 1061.184 5194.1758 18
-2674.6797 1061.8705 5197.5361 18
-2642.5222 1061.326 5194.8711 19
-2608.0757 1059.8384 5187.5898 19
-2583.813 1062.5032 5200.6328 19
-2562.7593 1066.5676 5220.5273 19
-2537.9663 1069.1564 5233.1982 18
-2507.8442 1069.5364 5235.0586 18
-2545.8052 1099.3254 5380.8667 18
-2466.5518 1078.6128 5279.4844 20
-2437.8101 1079.7402 5285.0029 21
-2436.6882 1093.2894 5351.3228 20
-2371.9446 1078.2739 5277.8262 19
-2341.0232 1078.438 5278.6294 19
-2311.5542 1079.2847 5282.7729 19
-2283.3369 1080.7469 5289.9307 19
-2254.4053 1081.9072 5295.6099 19
-2223.4937 1082.1366 5296.7324 19
-2194.052 1083.0984 5301.4399 19
-2166.0142 1084.7908 5309.7241 19
-2137.1252 1086.1008 5316.1362 18
-2107.283 1086.9583 5320.333 19
-2071.405 1084.6812 5309.1875 20
-2039.1576 1084.2642 5307.1465 21
-2010.9894 1086.0372 5315.8252 21
-1977.6638 1085.0372 5310.9302 21
-1947.9548 1086.021 5315.7456 21
-1916.894 1086.2712 5316.9702 21
-1886.9843 1087.1927 5321.4814 21
-1856.0726 1087.5588 5323.2729 21
-1824.2115 1087.3716 5322.3564 21
-1792.9558 1087.5448 5323.2041 21
-1764.3352 1089.3513 5332.0464 21
-1732.137 1088.9745 5330.2021 21
-1700.6021 1089.0084 5330.3682 21
-1666.3589 1087.2765 5321.8911 21
-1637.7192 1089.2047 5331.3286 21
-1605.561 1088.8224 5329.4575 21
-1573.2412 1088.313 5326.9644 21
-1541.4714 1088.1711 5326.27 21
-1510.7393 1088.771 5329.2061 21
-1480.9242 1090.0717 5335.5723 21
-1449.293 1090.063 5335.5298 21
-1418.749 1090.8899 5339.5776 21
-1391.3835 1094.2544 5356.0459 21
-1361.8844 1096.0588 5364.8774 21
-1332.8054 1098.2957 5375.8262 21
-1301.7169 1098.9454 5379.0068 21
-1271.5289 1100.4072 5386.1621 21
-1237.9064 1098.8956 5378.7627 21
-1207.0527 1099.8268 5383.3208 21
-1177.1018 1101.6534 5392.2617 20
-1146.7961 1103.2408 5400.0312 20
-1125.0319 1113.3721 5449.6211 20
-1095.3114 1115.996 5462.4639 21
-1067.8085 1121.1077 5487.4844 21
-1038.2006 1124.2612 5502.9204 21
-1007.6777 1126.5963 5514.3496 21
-979.51166 1131.8113 5539.875 21
-948.00928 1133.399 5547.647 21
-917.46283 1136.2848 5561.772 21
-887.15588 1139.6936 5578.4565 21
-856.21033 1142.5138 5592.2607 21
-824.36719 1144.3153 5601.0786 21
-793.95905 1148.3434 5620.7949 21
-762.1593 1150.6235 5631.9556 21
-730.3576 1153.1094 5644.1226 21
-697.52069 1154.1208 5649.0737 21
-665.47247 1156.6052 5661.2344 21
-634.513 1161.3461 5684.4395 21
-603.20575 1165.9463 5706.9556 21
-570.72894 1168.6981 5720.4253 21
-537.13501 1169.3654 5723.6914 21
-503.19675 1169.3226 5723.4819 21
-468.59045 1167.6089 5715.0938 21
-435.59543 1169.9559 5726.582 21
-401.51633 1169.5419 5724.5552 21
-369.08994 1174.3097 5747.8921 21
-336.03674 1177.85 5765.2207 21
-302.96902 1182.135 5786.1948 21
-268.70532 1182.2517 5786.7661 21
-234.08098 1180.5837 5778.6016 21
-199.64853 1179.4775 5773.1875 21
-165.57368 1180.4637 5778.0142 21
-138.93768 1248.8271 6112.6323 21
-96.691628 1175.6176 5754.2939 21
-64.677132 1214.8112 5946.1343 21
-30.234774 1247.6459 6106.8506 19
5.9485312 1246.1383 6099.4717 19
42.101952 1246.3352 6100.4355 19
78.958199 1257.5438 6155.2983 19
115.58727 1259.194 6163.375 19
152.13893 1259.4106 6164.436 19
188.28197 1256.8158 6151.7349 19
222.19666 1242.6013 6082.1587 19
258.21344 1242.4695 6081.5137 19
289.53433 1222.5419 5983.9741 19
315.21017 1185.728 5803.7817 19
347.86682 1179.8341 5774.9321 19
401.68582 1240.3419 6071.1001 19
419.94485 1190.1245 5825.3008 19
460.98898 1207.2042 5908.9009 19
490.21732 1193.1146 5839.9365 19
514.77283 1170.26 5728.0703 19
548.19238 1169.1379 5722.5776 19
581.08551 1167.089 5712.5488 19
611.64325 1160.8335 5681.9302 19
642.25189 1155.3223 5654.9546 19
674.11737 1152.5065 5641.1724 19
706.65924 1151.0586 5634.085 19
735.66541 1144.2419 5600.7197 19
767.6767 1142.4861 5592.1255 19
798.05603 1138.5474 5572.8467 19
826.8645 1132.7699 5544.5674 19
855.72174 1127.498 5518.7632 19
874.32111 1109.5962 5431.1392 18
900.422 1102.1476 5394.6807 18
926.41132 1095.0781 5360.0771 18
961.8924 1099.3252 5380.8652 18
983.20905 1087.6309 5323.6255 18
1031.6222 1105.7063 5412.0991 18
1064.6569 1106.7056 5416.9907 16
1091.0079 1100.9022 5388.585 15
1088.3201 1066.96 5222.4478 196615
0 0 0 0
1078.1038 1000.0651 4895.0171 5522744
1122.6735 1014.1212 4963.8179 8877151
1160.3472 1021.3895 4999.394 9271138
1176.2045 1009.5703 4941.542 9007966
1210.064 1013.4014 4960.2949 9073502
1241.8544 1015.3594 4969.8784 8942172
1274.4508 1017.8703 4982.1685 9205345
1307.967 1020.9855 4997.4165 9139552
1343.7938 1025.7264 5020.6221 9008222
1369.545 1022.7378 5005.9937 8810330
1389.6635 1015.7588 4971.833 8679257
1421.9592 1017.7855 4981.7534 9205345
1456.9653 1021.6304 5000.5728 8876380
1487.089 1021.9665 5002.2183 8810844
1518.8937 1023.4222 5009.3433 9139809
1541.2908 1018.6049 4985.7642 9074016
1566.2085 1015.6032 4971.0718 9073759
1605.4791 1021.8477 5001.6367 9008223
1633.1935 1020.6437 4995.7437 8942173
1660.0402 1018.9501 4987.4541 8547415
1682.8741 1014.8959 4967.6099 8810587
1715.376 1016.7111 4976.4946 9270881
1747.8425 1018.4445 4984.979 9336931
1781.126 1020.5884 4995.4727 9205344
1808.7559 1019.4755 4990.0254 9336930
1837.4889 1019.0103 4987.7485 9271138
1866.3876 1018.6502 4985.9858 9468517
1895.2667 1018.2908 4984.2266 9336931
1915.0225 1013.1158 4958.897 9534310
1946.6857 1014.3016 4964.7007 9534310
1972.1436 1012.267 4954.7422 9402724
1994.101 1008.5217 4936.4097 9534053
2020.5509 1007.1238 4929.5679 9534309
2054.1265 1009.2671 4940.0581 9731689
2072.6721 1004.069 4914.6152 9337188
2098.9292 1002.6989 4907.9092 9599846
2139.3501 1008.0402 4934.0527 8152143
2162.022 1004.9869 4919.1079 6112303
2194.4043 1006.4686 4926.3608 5454373
2240.7307 1014.223 4964.3159 7296833
2247.0237 1003.8908 4913.7432 8020813
2330.8423 1028.0156 5031.8267 8284243
2315.6865 1008.4299 4935.9604 8415571
2351.8936 1011.421 4950.6011 8547671
2388.5461 1014.5277 4965.8076 8481621
2415.6948 1013.5712 4961.1255 8086608
2433.1958 1008.6384 4936.981 8021325
2426.8457 994.05316 4865.5908 8087375
2428.2659 982.95599 4811.2734 8087119
2277.1296 911.07849 4459.4551 786945
2395.3054 947.36572 4637.0698 8811878
2427.4895 949.20508 4646.0728 9732978
2463.6338 952.53424 4662.3682 9469803
2491.8767 952.76862 4663.5151 10127476
2528.5637 956.1908 4680.2661 9535340
2570.6589 961.56189 4706.5557 8942175
2633.7905 974.60181 4770.3823 8350294
2640.0063 966.52753 4730.8608 8810843
2650.1545 960.04749 4699.1431 9468774
2663.7812 954.94916 4674.1885 1708300
2739.6042 972.02332 4757.7612 9007963
2796.9138 982.2478 4807.8071 8613202
2807.5183 976.02924 4777.3691 11113065
2750.0581 946.50848 4632.874 11771505
2844.2876 969.26337 4744.2524 11573871
2853.6848 962.94727 4713.3364 11244398
2919.5337 975.61774 4775.355 9468248
2998.7534 992.47034 4857.8433 9008214
3115.2129 1021.21 4998.5151 10850931
3166.761 1028.3298 5033.3647 10983034
3223.0737 1036.8497 5075.0669 12497042
3214.7693 1024.6169 5015.1914 14076075
3208.6531 1013.2995 4959.7959 13680037
3094.4221 968.35455 4739.8037 11311491
3088.0984 957.68243 4687.5669 9732988
3243.3228 996.85321 4879.2964 14538954
3250.0715 990.1004 4846.2432 14078409
3231.4084 975.79211 4776.2085 13945798
3198.5288 957.4765 4686.5591 13745851
3294.8796 977.82831 4786.1753 10848900
3349.2671 985.48553 4823.6548 7362375
3405.7983 993.63855 4863.5615 9138016
3443.8848 996.3186 4876.6792 9072479
3438.2344 986.40625 4828.1616 8941405
3514.876 1000.0717 4895.0498 8611928
3522.927 994.15747 4866.1011 8677971
3592.2849 1005.4992 4921.6157 8612436
3597.376 998.8147 4888.897 7230275
3661.7583 1008.5676 4936.6348 3349525
3735.1467 1020.6269 4995.6611 1707528
3828.3274 1037.8623 5080.0229 4536111
3768.7302 1013.7336 4961.9204 11376258
3736.7063 997.33795 4881.6689 12429199
3745.6167 992.03577 4855.7163 13416094
3758.781 987.93243 4835.6318 12691600
3790.0251 988.60736 4838.9351 12033924
3829.8394 991.49072 4853.0483 11968133
3801.0266 976.6969 4780.6372 11113338
3882.3816 990.22095 4846.8335 10652532
3993.7346 1011.1414 4949.2324 9928811
3939.0054 990.0141 4845.8208 9073505
3935.843 982.05957 4806.8857 8415575
3973.2412 984.26715 4817.6914 7823440
3885.3081 955.61725 4677.4585 7823697
3956.4377 966.21863 4729.3491 7363400
4089.1003 991.59235 4853.5459 8415830
4110.2861 989.76764 4844.6143 8941916
4093.3267 978.84662 4791.1592 9533281
4130.8701 981.01953 4801.7949 8677973
4203.8525 991.52148 4853.1992 9204062
4173.2734 977.62054 4785.1582 9796199
4224.6885 982.98553 4811.418 10256237
4210.6152 973.14301 4763.2417 10650994
4224.5684 969.86572 4747.2007 10783095
4277.999 975.63519 4775.4404 10651253
4289.0933 971.737 4756.3599 10388337
4268.063 960.65906 4702.1367 9664613
4328.77 968.00311 4738.0835 10059371
4379.6255 973.06354 4762.853 10059114
4404.603 972.3465 4759.3433 10125418
4465.792 979.58154 4794.7568 11178107
4501.9048 981.25952 4802.9697 11375740
4486.7148 971.80432 4756.6895 11178361
4490.4634 966.5437 4730.9404 11243382
4457.5127 953.49799 4667.0854 10387561
0 0 0 0
0 0 0 0
0 0 0 0
0 0 0 0
0 0 0 0
0 0 0 0
-4483.71 1047.5614 4982.9565 13
-4462.1494 1049.4357 4991.8721 11
-4432.5029 1049.4207 4991.8008 12
-4375.0669 1042.7819 4960.2217 12
-4010.1292 962.26556 4577.228 12
-3939.7178 951.80798 4527.4844 12
-3890.6873 946.4079 4501.7979 12
-4681.7432 1146.6948 5454.5068 267
-4005.2849 987.83093 4698.8354 267
-4175.4819 1037.0167 4932.7988 267
-4145.6196 1036.8594 4932.0498 267
-4140.1543 1042.8448 4960.5215 267
-4069.0764 1032.271 4910.2246 267
-4047.9636 1034.3116 4919.9312 11
-4016.8735 1033.814 4917.564 12
-3986.8584 1033.5876 4916.4878 12
-3957.6016 1033.5563 4916.3379 12
-3925.5525 1032.7896 4912.6914 12
-3899.3921 1033.5724 4916.4146 12
-3867.0178 1032.7075 4912.3008 12
-3857.9133 1038.0909 4937.9087 12
-3843.7756 1042.192 4957.416 12
-3854.7739 1053.2241 5009.8926 13
-3773.5479 1039.0336 4942.3926 14
-3747.9468 1040.0573 4947.2617 14
-3710.5532 1037.7987 4936.5186 14
-3669.8635 1034.5752 4921.1851 14
-3640.4531 1034.5052 4920.8521 14
-3613.137 1035.0339 4923.3672 16
-3584.7546 1035.2634 4924.4585 16
-3551.0039 1033.9336 4918.1333 16
-3520.1055 1033.4191 4915.6855 16
-3490.8538 1033.3834 4915.5161 16
-3460.6199 1033.0541 4913.9492 16
-3430.2773 1032.6864 4912.2002 16
-3401.0493 1032.6508 4912.0308 16
-3392.3179 1038.8915 4941.7163 16
-3381.3347 1044.5454 4968.6108 16
-3352.0967 1044.61 4968.9175 271
-3327.9587 1046.2791 4976.8569 272
-3300.6682 1046.9779 4980.1812 272
-3248.5364 1039.7388 4945.7466 272
-3214.3669 1038.1691 4938.2798 16
-3190.9221 1040.0663 4947.3042 271
-3166.6936 1041.7407 4955.2695 271
-3130.4541 1039.4585 4944.4131 270
-3128.1594 1048.5106 4987.4722 16
-3113.3894 1053.5143 5011.2729 16
-3087.0281 1054.6542 5016.6953 16
-3060.9775 1055.9235 5022.7329 16
-3029.3494 1055.2748 5019.647 16
-2994.3052 1053.4114 5010.7832 16
-2981.3059 1059.3439 5039.0024 16
-2955.3784 1060.7561 5045.7202 16
-2921.7319 1059.3983 5039.2617 16
-2889.595 1058.5656 5035.3003 16
-2867.7283 1061.517 5049.3398 16
-2848.7681 1065.618 5068.8472 16
-2821.2512 1066.5717 5073.3828 16
-2804.979 1071.8424 5098.4546 16
-2782.8257 1074.9563 5113.2666 17
-2758.259 1077.1964 5123.9219 18
-2732.2178 1078.9039 5132.0439 18
-2693.7456 1075.6859 5116.7368 18
-2665.6682 1076.5927 5121.0503 18
-2637.4763 1077.4738 5125.2412 18
-2604.4263 1076.3674 5119.979 19
-2574.0925 1076.371 5119.9956 19
-2556.4622 1081.7499 5145.5815 19
-2530.1631 1083.5463 5154.1265 19
-2499.1445 1083.3408 5153.1489 18
-2471.2546 1084.5032 5158.6782 19
-2443.0828 1085.5695 5163.7505 19
-2422.1582 1089.9238 5184.4629 19
-2392.6038 1090.457 5186.999 21
-2394.8784 1105.6993 5259.5024 19
-2349.6497 1099.1223 5228.2178 20
-2317.8975 1098.7579 5226.4844 18
-2285.3206 1097.9875 5222.8198 19
-2251.6025 1096.64 5216.4102 19
-2220.0593 1096.3292 5214.9312 19
-2192.2327 1097.8707 5222.2642 19
-2163.8044 1099.1508 5228.353 19
-2134.7957 1100.1689 5233.1958 19
-2107.7664 1102.2521 5243.105 18
-2078.2708 1103.0887 5247.085 18
-2048.2988 1103.6941 5249.9639 20
-2018.8794 1104.6204 5254.3701 21
-1985.6737 1103.4716 5248.9058 21
-1951.0563 1101.4894 5239.4766 21
-1920.3618 1101.6934 5240.4473 21
-1889.7168 1101.9331 5241.5874 21
-1862.3392 1104.1179 5251.98 21
-1832.3594 1104.808 5255.2627 21
-1800.0242 1104.0771 5251.7861 21
-1771.818 1105.8978 5260.4468 21
-1741.5 1106.442 5263.0356 21
-1710.6187 1106.6416 5263.9849 21
-1679.3529 1106.5953 5263.7646 21
-1649.8502 1107.7311 5269.167 21
-1615.8059 1105.8025 5259.9932 21
-1584.7493 1105.8828 5260.3755 21
-1553.3834 1105.7463 5259.7261 21
-1525.2887 1107.9803 5270.353 21
-1495.0515 1108.7191 5273.8667 21
-1465.4536 1109.9735 5279.834 21
-1435.1923 1110.7692 5283.6187 21
-1405.2006 1111.8137 5288.5869 21
-1376.7517 1114.1544 5299.7212 21
-1345.2396 1114.0677 5299.3086 21
-1313.8966 1114.1201 5299.5581 21
-1284.9857 1116.288 5309.8696 21
-1247.6768 1111.0859 5285.125 21
-1218.33 1112.8889 5293.7017 21
-1169.7571 1096.7612 5216.9863 21
-1140.1178 1097.9917 5222.8394 21
-1134.25 1122.8228 5340.9541 18
-1111.556 1131.9448 5384.3447 19
-1081.7583 1134.1581 5394.8726 19
-1052.2458 1136.8143 5407.5083 20
-1022.6887 1139.5879 5420.7007 20
-992.92511 1142.3035 5433.6187 20
-964.27026 1146.5198 5453.6738 20
-933.99445 1149.0341 5465.6338 21
-904.54498 1152.7822 5483.4629 21
-875.39893 1157.2108 5504.5283 21
-842.91522 1157.3993 5505.4253 21
-811.78674 1159.5389 5515.6025 21
-781.18854 1162.647 5530.3867 21
-750.23932 1165.4823 5543.873 21
-718.92108 1167.9775 5555.7427 21
-690.43164 1175.5288 5591.6616 21
-658.56073 1177.7937 5602.4351 21
-626.00006 1179.0001 5608.1738 21
-593.70459 1180.8694 5617.0654 21
-562.17932 1184.5834 5634.7319 21
-529.92114 1187.1248 5646.8208 21
-495.59866 1185.0726 5637.0591 21
-462.63281 1186.2023 5642.4326 21
-429.63846 1187.4292 5648.2686 21
-396.75739 1189.2029 5656.7056 21
-365.18845 1195.5997 5687.1338 21
-331.28363 1194.8724 5683.6743 21
-297.83032 1195.7933 5688.0547 21
-264.25049 1196.3765 5690.8281 21
-230.6095 1196.8126 5692.9033 21
-197.19923 1198.8013 5702.3623 21
-166.70197 1222.9828 5817.3872 21
-132.1091 1221.8936 5812.2056 21
-101.66563 1271.9492 6050.3066 21
-62.712196 1212.0718 5765.4868 21
-29.425159 1249.4584 5943.3242 19
5.8900709 1269.6832 6039.5283 19
41.698891 1270.2098 6042.0332 19
77.182732 1264.924 6016.8896 19
112.8327 1264.8408 6016.4941 19
148.60939 1265.8773 6021.4243 19
183.31439 1259.151 5989.4292 19
219.58646 1263.6248 6010.71 19
252.06641 1248.0736 5936.7368 19
281.71072 1224.0111 5822.2788 19
311.3403 1205.1428 5732.5278 19
318.97656 1113.2303 5295.3257 19
386.41745 1227.8066 5840.333 19
409.89703 1195.345 5685.9219 19
438.98828 1182.9365 5626.8984 19
473.43707 1185.698 5640.0337 19
503.5144 1177.869 5602.7939 19
538.01587 1180.7179 5616.3447 19
568.76477 1175.4792 5591.4258 19
600.39386 1172.5364 5577.4277 19
631.84015 1169.5621 5563.2803 19
662.60931 1165.6918 5544.8701 19
690.60962 1157.5463 5506.124 19
725.91241 1161.8234 5526.4688 19
754.65302 1155.6818 5497.2549 18
782.23987 1148.3547 5462.4023 18
810.16614 1142.0885 5432.5957 18
830.50214 1126.0101 5356.1152 18
859.94196 1123.0044 5341.8184 18
880.97955 1109.6292 5278.1958 18
917.71515 1116.2654 5309.7627 18
946.12793 1112.6738 5292.6782 18
962.03638 1095.0791 5208.9854 18
986.54248 1088.0608 5175.6011 17
1034.2354 1106.2675 5262.2051 16
1072.0791 1113.1816 5295.0938 15
1089.0624 1098.6582 5226.0098 65548
1066.2123 1045.8647 4974.8862 262147
1063.6792 1015.3054 4829.5239 2563097
1083.1078 1006.7611 4788.8813 7430480
1119.3368 1013.8706 4822.6992 8680028
1153.649 1018.9333 4846.7808 9140064
1172.3536 1010.2996 4805.7129 9140063
1204.8523 1013.681 4821.7969 8942171
1235.5259 1015.4057 4830.001 9468515
1275.2747 1024.3416 4872.5068 9402721
1304.9747 1024.9894 4875.5879 9600101
1335.8652 1026.5237 4882.8862 9600103
1368.4265 1029.2498 4895.853 9271395
1388.8353 1022.9118 4865.7056 8613465
1421.9467 1025.9973 4880.3823 8547672
1456.6724 1030.1013 4899.9038 9074016
1485.7184 1030.1069 4899.9307 9271395
1509.6193 1026.6134 4883.313 9139808
1543.9847 1030.2339 4900.5347 9402981
1564.3323 1024.5398 4873.4497 9139809
1589.6541 1022.251 4862.562 9008222
1612.5275 1018.4971 4844.7061 8942173
1632.0439 1012.7915 4817.5659 8679001
1646.9838 1004.4907 4778.0815 8218450
1704.4641 1021.9774 4861.2607 8876380
1726.8488 1018.1895 4843.2427 9073758
1762.3962 1022.1597 4862.1279 9205345
1791.2972 1022.2094 4862.3643 9271138
1822.8083 1023.7233 4869.5654 9139552
1852.8943 1024.4021 4872.7944 9007709
1869.5762 1017.7632 4841.2153 8942173
1896.6954 1016.9211 4837.209 9007709
1922.9246 1015.6338 4831.0859 9073759
1942.8605 1011.1091 4809.5635 9007966
1989.9906 1020.6632 4855.0093 8613208
2020.027 1021.3026 4858.0508 9007965
2039.6626 1016.7393 4836.3447 9073757
2052.9119 1009.1632 4800.3071 8547156
2115.5029 1025.7179 4879.0532 9139293
2142.728 1024.9099 4875.21 9205343
2150.1982 1014.8 4827.1201 7823433
2180.1553 1015.429 4830.1118 7888456
2198.7661 1010.8255 4808.2144 9138779
2234.9429 1014.3121 4824.7988 7230782
2258.6899 1012.1406 4814.4702 6967866
2286.2554 1011.7131 4812.4365 6836537
2356.2285 1029.8312 4898.6191 6047280
2343.2046 1011.6743 4812.252 7955020
2336.8279 996.78961 4741.4497 8415573
2345.1326 988.44659 4701.7642 7955284
2361.1104 983.49567 4678.2139 3811102
2325.2844 957.33179 4553.7598 851968
2279.3848 927.6684 4412.6592 721410
2325.675 935.77203 4451.2061 10062457
2409.394 958.58496 4559.7207 10786172
2448.5046 963.34113 4582.3447 12429457
2430.4368 945.74347 4498.6372 12627349
2487.1963 957.32892 4553.7461 9337699
2552.7422 972.01129 4623.5859 9600357
2585.6667 974.09241 4633.4854 9468514
2618.8835 976.23865 4643.6943 720896
2628.7627 969.73126 4612.7407 1114112
2709.8604 989.35938 4706.106 4469803
2706.8896 978.20734 4653.0586 10060387
2702.4602 966.75824 4598.5986 9994588
2662.8118 943.0647 4485.895 10191704
2746.1428 962.96344 4580.5479 10981219
2765.0037 960.08685 4566.8647 11047016
2815.9229 968.28973 4605.8833 10191453
2888.5547 983.72943 4679.3262 11310452
2981.532 1005.7386 4784.0176 10060386
2992.8237 1000.0384 4756.9028 10981235
3094.6392 1024.4103 4872.833 11836801
3173.7668 1040.8906 4951.2256 11573628
3183.0339 1034.3669 4920.1948 12428684
3168.4277 1020.2743 4853.1597 10981495
3021.97 964.35925 4587.1875 5258292
3058.8613 967.42932 4601.7905 5259823
3153.178 988.44641 4701.7632 12694177
3187.2671 990.38086 4710.9648 13881281
3195.0376 984.17468 4681.4438 13750470
3215.7234 982.01947 4671.1919 13750471
3212.0823 972.53546 4626.0796 14012615
3252.572 976.46069 4644.7505 12890021
3302.4724 983.12134 4676.4336 8612703
3330.4285 983.19305 4676.7744 8875615
3426.2546 1003.1344 4771.6299 8480857
3441.5217 999.35632 4753.6587 8218200
3509.0635 1010.6959 4807.5981 8152407
3518.5295 1005.2605 4781.7432 5915447
3468.9834 983.18652 4676.7437 3021590
3488.3862 980.84924 4665.6255 2231563
3501.4954 976.79303 4646.3311 4337969
3595.6548 995.23383 4734.0488 2036241
3481.7378 956.24182 4548.5752 3482398
3626.3276 988.30127 4701.0728 10653564
3619.1018 978.81219 4655.936 12627091
3648.208 979.21857 4657.8691 12692114
3668.3303 977.22559 4648.3892 13021080
3731.2112 986.56818 4692.8291 12889751
3751.1792 984.50989 4683.0381 11705478
3755.5825 978.4267 4654.1021 10192239
3823.3032 988.80786 4703.4824 10389107
3873.0593 994.42627 4730.2075 9994608
3819.9297 973.7373 4631.7959 9402215
3850.2478 974.46344 4635.25 8547676
3885.4553 976.40796 4644.5 8087380
3916.2612 977.22693 4648.395 7758927
3929.5754 973.70001 4631.6187 10060913
3978.2607 978.9259 4656.4766 10125679
4075.5103 995.94757 4737.4438 9335650
4105.7061 996.46228 4739.8926 8414549
4120.0601 993.15131 4724.1431 8677208
4148.8076 993.33105 4724.998 8743003
4164.1499 990.32062 4710.6782 8084815
4202.334 992.74609 4722.2158 8347985
4206.0586 987.05286 4695.1343 8545876
4255.5132 992.09558 4719.1216 10256493
4322.4272 1001.1162 4762.0298 10585715
4262.2046 980.76459 4665.2231 10322542
4314.9961 986.51337 4692.5684 10387566
4380.4858 995.07294 4733.2837 10256492
4387.1025 990.23492 4710.271 10519663
4412.6489 989.70392 4707.7446 10585456
4419.0659 984.91602 4684.9702 10782834
4472.3242 990.56262 4711.8296 11177592
4527.2012 996.49542 4740.0503 11835006
0 0 0 0
0 0 0 0
0 0 0 0
0 0 0 0
0 0 0 0
0 0 0 0
-4431.8462 1064.6326 4925.3179 12
-4406.2993 1065.5132 4929.3916 12
-4364.584 1062.4696 4915.3115 12
-4340.2207 1063.6376 4920.7148 12
-3873.9634 955.7959 4421.8062 12
-3881.4697 964.1698 4460.5464 12
-3819.5908 955.30481 4419.5342 12
-4620.4614 1163.5865 5383.1099 12
-4079.1426 1034.4064 4785.4824 12
-4185.333 1068.765 4944.436 12
-4110.4849 1057.0524 4890.2495 12
-4058.1104 1050.9938 4862.2207 12
-4058.1018 1058.5076 4896.9814 12
-3999.8633 1050.8313 4861.4692 12
-3956.4197 1046.959 4843.5547 12
-3929.6243 1047.4678 4845.9082 12
-3901.3965 1047.5994 4846.5171 12
-3877.0806 1048.791 4852.0303 12
-3847.5627 1048.583 4851.0679 12
-3814.9409 1047.5193 4846.147 12
-3794.8428 1049.9047 4857.1821 12
-3768.4187 1050.5626 4860.2261 12
-3740.4995 1050.8108 4861.3745 14
-3714.2764 1051.5431 4864.7622 14
-3686.855 1051.9449 4866.6211 14
-3657.4041 1051.7694 4865.8091 14
-3626.8782 1051.2795 4863.5425 14
-3589.2285 1048.7003 4851.6108 14
-3563.7302 1049.6587 4856.0439 16
-3534.4585 1049.512 4855.3657 16
-3502.2676 1048.489 4850.6333 16
-3470.3257 1047.5243 4846.1699 270
-3441.2402 1047.413 4845.6548 270
-3413.1228 1047.5968 4846.5054 16
-3389.3005 1049.1133 4853.521 16
-3363.8879 1050.1593 4858.3599 16
-3346.4175 1053.724 4874.8516 16
-3317.7568 1053.7968 4875.188 16
-3295.5071 1055.9248 4885.0332 16
-3268.2551 1056.4735 4887.5718 16
-3233.2083 1054.4899 4878.395 16
-3201.5903 1053.599 4874.2729 15
-3173.3616 1053.8173 4875.2827 16
-3151.2976 1056.1055 4885.8691 16
-3135.3032 1060.4891 4906.1494 16
-3105.3389 1060.1855 4904.7446 16
-3092.7305 1065.8575 4930.9854 16
-3069.4563 1067.927 4940.5591 15
-3039.4609 1067.6753 4939.3945 16
-3009.0818 1067.2826 4937.5776 16
-2985.1995 1069.2091 4946.4902 16
-2956.699 1069.5033 4947.8516 16
-2936.9524 1073.0017 4964.0361 16
-2908.4929 1073.3553 4965.6724 16
-2881.7739 1074.3652 4970.3442 16
-2853.2346 1074.7102 4971.9404 16
-2832.7454 1078.1262 4987.7441 16
-2813.655 1082.1523 5006.3701 17
-2787.0388 1083.3389 5011.8594 18
-2764.446 1086.1318 5024.7803 18
-2745.1462 1090.2935 5044.0332 18
-2715.8369 1090.5275 5045.1157 19
-2693.4768 1093.588 5059.2749 19
-2662.6829 1093.2549 5057.7334 19
-2627.9097 1091.2616 5048.5122 19
-2604.9673 1094.1919 5062.0688 19
-2575.4729 1094.4062 5063.0601 19
-2551.1577 1096.8525 5074.3774 19
-2529.3726 1100.4576 5091.0562 21
-2502.897 1102.085 5098.584 22
-2472.3494 1101.9366 5097.8984 21
-2444.0095 1102.7811 5101.8052 21
-2418.2014 1104.8032 5111.1602 21
-2395.3823 1108.2599 5127.1514 21
-2366.1768 1108.8123 5129.707 21
-2335.7974 1108.8219 5129.7515 21
-2315.9985 1113.9208 5153.3403 21
-2288.8887 1115.5927 5161.0747 21
-2254.0388 1113.486 5151.3286 21
-2227.8086 1115.6382 5161.2856 20
-2198.2891 1116.1801 5163.7925 19
-2164.4448 1114.5104 5156.0684 20
-2131.2107 1113.1117 5149.5977 19
-2102.1106 1113.8628 5153.0723 19
-2073.6797 1114.9958 5158.314 19
-2048.6921 1118.042 5172.4062 20
-2019.3375 1118.7612 5175.7339 19
-1988.9507 1118.922 5176.4775 21
-1958.6407 1119.1316 5177.4473 21
-1931.4064 1121.1333 5186.7075 21
-1901.4536 1121.5962 5188.8491 21
-1872.5583 1122.7084 5193.9946 21
-1835.6456 1118.9705 5176.7017 21
-1804.099 1118.432 5174.2109 21
-1774.0558 1118.8232 5176.0205 21
-1747.4825 1121.455 5188.1963 21
-1714.7161 1120.1354 5182.0913 21
-1684.2861 1120.3218 5182.9536 21
-1654.295 1120.8124 5185.2231 21
-1630.5953 1125.6649 5207.6724 21
-1599.3268 1125.3787 5206.3481 21
-1563.2588 1121.6376 5189.0405 21
-1530.7054 1120.3187 5182.939 21
-1500.5358 1120.7262 5184.8242 21
-1471.1997 1121.7863 5189.7285 21
-1440.3406 1121.7054 5189.355 21
-1374.1547 1093.5093 5058.9106 21
-1386.3888 1127.8513 5217.7876 21
-1353.7157 1126.3942 5211.0459 21
-1326.7123 1129.6965 5226.3237 21
-1296.4686 1130.3318 5229.2627 21
-1266.0042 1130.8009 5231.4331 21
-1236.4938 1132.1672 5237.7544 19
-1206.3502 1133.0092 5241.6494 19
-1176.5095 1134.1877 5247.1016 19
-1149.0569 1137.7948 5263.7891 19
-1123.8524 1143.8915 5291.9941 19
-1094.2479 1145.7311 5300.5049 19
-1066.0312 1149.1755 5316.4399 19
-1037.2426 1152.1945 5330.4062 19
-1008.0967 1154.9937 5343.3564 19
-978.68848 1157.6642 5355.7109 18
-949.87958 1161.2463 5372.2832 18
-921.1062 1165.1221 5390.2134 19
-893.16699 1170.3693 5414.4883 21
-861.65472 1171.1509 5418.1045 21
-831.98114 1174.589 5434.0103 21
-801.08807 1176.5129 5442.9111 21
-769.69611 1177.8348 5449.0269 21
-739.08679 1180.5228 5461.4619 21
-707.88464 1182.4666 5470.4541 21
-678.47363 1187.7324 5494.8159 21
-649.95001 1195.1611 5529.1831 21
-618.55219 1197.8127 5541.4502 21
-586.5047 1199.4331 5548.9468 21
-554.36475 1201.0457 5556.4067 21
-522.95172 1204.5361 5572.5547 21
-492.07382 1209.8129 5596.9668 21
-458.7702 1209.4575 5595.3228 21
-424.25275 1205.5974 5577.4648 21
-392.92615 1210.9186 5602.082 21
-367.07068 1235.639 5716.4463 21
-328.79465 1219.3247 5640.9717 21
-293.67389 1212.3434 5608.6738 21
-259.91302 1209.9103 5597.4175 21
-227.81262 1215.6257 5623.8589 21
-195.55759 1222.3334 5654.8906 21
-163.73579 1235.0836 5713.8774 21
-131.58908 1251.3926 5789.3271 21
-98.023003 1260.9465 5833.5269 21
-65.095284 1293.5969 5984.5776 21
-28.853094 1259.7039 5827.7778 20
5.5776629 1236.2328 5719.1934 20
40.70911 1275.0161 5898.6172 20
75.031815 1264.3368 5849.2114 20
109.67751 1264.1298 5848.2534 20
144.20586 1262.9941 5843 18
180.25278 1273.0233 5889.3975 20
215.02013 1272.2275 5885.7163 19
246.07167 1252.7371 5795.5474 19
270.58682 1208.8203 5592.3745 19
302.87381 1205.4189 5576.6392 19
334.27417 1199.5052 5549.2808 20
371.05133 1212.2168 5608.0884 21
399.51526 1197.9121 5541.9102 19
432.3992 1198.0267 5542.4409 19
464.85452 1197.0216 5537.7905 19
496.58838 1194.4137 5525.7251 19
530.04175 1196.0083 5533.103 19
561.46924 1193.1124 5519.7051 19
591.30554 1187.3402 5493.001 19
620.92023 1181.7484 5467.1318 19
651.72546 1178.8649 5453.7915 19
683.03271 1177.1189 5445.7144 19
713.55579 1174.2401 5432.396 19
742.23981 1168.7141 5406.8311 19
769.91406 1162.1213 5376.3311 19
796.2746 1154.1483 5339.4453 18
815.88269 1137.3717 5261.8315 18
842.58698 1131.3583 5234.0117 18
871.85687 1129.0946 5223.5396 18
897.97522 1123.0447 5195.5503 18
916.85687 1108.6454 5128.9351 18
956.32281 1119.2617 5178.0493 18
960.56573 1089.2751 5039.3223 18
1014.8837 1116.1694 5163.7437 18
1049.4663 1120.4198 5183.4067 18
1070.9243 1110.8149 5138.9722 65549
1074.9259 1084.1353 5015.5435 196618
1071.5574 1051.6581 4865.2939 393218
1037.5835 991.63281 4587.5986 3220253
1094.1661 1019.0093 4714.251 8022361
1123.8972 1020.638 4721.7856 8482649
1139.4104 1009.5895 4670.6719 8810843
1173.9069 1015.4866 4697.9536 9205346
1205.998 1019.078 4714.5688 9599846
1243.3563 1026.8567 4750.5552 9468516
1275.3052 1029.9224 4764.7378 9007966
1307.3683 1032.9454 4778.7236 9271138
1336.1989 1033.3405 4780.5513 9205602
1371.4476 1038.5796 4804.7891 9205602
1399.4163 1038.2045 4803.0537 9468774
1409.3248 1024.713 4740.6377 8416086
1434.6636 1022.7488 4731.5508 9271138
1460.0184 1020.8712 4722.8643 9270881
1494.7045 1025.4659 4744.1211 9468517
1517.0072 1021.5522 4726.0151 9205601
1547.7283 1023.3464 4734.3159 9073758
1574.1256 1022.269 4729.3311 8679000
1585.4939 1011.6397 4680.1567 7889740
1605.7988 1006.9799 4658.5991 8283730
1646.4749 1015.0363 4695.8706 8678487
1682.6559 1020.0999 4719.2964 8810587
1713.6757 1021.9201 4727.7168 8547415
1746.42 1024.6936 4740.5479 9007966
1772.6794 1023.6345 4735.6479 9336931
1806.4607 1026.8842 4750.6821 9402467
1827.8914 1023.1212 4733.2734 9139552
1858.9244 1024.7654 4740.8804 8876380
1882.7222 1022.4315 4730.083 7691593
1918.2902 1026.4644 4748.7397 7823178
1936.6487 1021.3049 4724.8706 9007966
1981.7899 1030.2152 4766.0928 9139551
1986.0408 1017.9174 4709.1992 9007965
2011.4507 1016.6549 4703.3589 9073757
2046.9935 1020.4786 4721.0479 9007964
2070.0007 1018.0339 4709.7383 8810585
2092.7737 1015.5406 4698.2036 8809815
2099.9246 1005.6317 4652.3613 9270111
2152.8193 1017.6018 4707.7393 9073502
2161.824 1008.785 4666.9502 8941915
2209.4216 1017.9723 4709.4531 8876122
2228.2495 1013.8403 4690.3374 8942172
2280.1665 1024.6801 4740.4854 8942173
2291.6611 1017.3116 4706.397 8285269
2316.3179 1015.8931 4699.8345 7824205
2369.1018 1026.6978 4749.8198 8350555
2266.0627 970.51263 4489.8901 589824
2305.0652 975.75934 4514.1631 655360
2314.1553 968.36871 4479.9717 458752
2287.4626 946.3421 4378.0698 6905166
2382.731 974.69983 4509.2617 9008735
2413.6799 976.40948 4517.1709 9206369
2429.3232 971.95789 4496.5762 10455408
2436.2549 964.15515 4460.4785 10323566
2504.01 980.3327 4535.3208 10060393
2556.6855 990.3255 4581.5508 9731431
2588.6394 992.16632 4590.0669 9534059
2567.4446 973.80988 4505.1445 983040
2628.8103 986.82361 4565.3496 3415828
2653.5278 985.95496 4561.3311 6507575
2641.7285 971.6723 4495.2554 7362112
2679.4531 975.70886 4513.9297 12098910
2694.7139 971.56628 4494.7646 12032598
2731.7693 975.28589 4511.9727 12427100
2746.0427 970.87866 4491.5835 11506778
2808.1641 983.31055 4549.0972 10848605
2885.9939 1000.9542 4630.7222 11375216
2910.3108 999.88025 4625.7539 10389352
2966.9856 1009.8396 4671.8291 9007703
3100.5596 1045.5464 4837.019 11113336
3003.4607 1003.5256 4642.6182 9665637
3006.7612 995.50903 4605.5312 1705985
3026.7004 993.09613 4594.3682 8548181
3083.6846 1002.7726 4639.1348 8087882
3091.2332 996.34442 4609.396 5323552
3132.8467 1000.9123 4630.5283 8415065
3159.0713 1000.5269 4628.7451 8613739
3129.2261 982.54285 4545.5454 13879490
3214.4062 1000.6741 4629.4263 14143432
3213.6155 991.96161 4589.1196 13946304
3246.9897 993.85254 4597.8677 13283747
3288.218 998.09619 4617.5 10783355
3299.8591 993.36298 4595.603 8941920
3365.8533 1004.9353 4649.1401 8941921
3424.7654 1014.2225 4692.1055 8678748
3423.2637 1005.613 4652.2754 8020822
3486.0327 1015.8702 4699.7285 6443073
3439.5249 994.37286 4600.2749 1706249
3488.3672 1000.5626 4628.9106 2890523
3472.2275 988.1626 4571.5444 3153179
3483.7336 983.76141 4551.1831 3877668
3465.9407 971.21753 4493.1514 6178871
3470.4297 965.06134 4464.6709 9139553
3539.5527 976.83575 4519.1431 12889492
3568.4578 977.41748 4521.834 13416092
3636.2871 988.57257 4573.4409 12955541
3656.2273 986.63959 4564.4985 12823954
3734.9143 1000.4716 4628.4893 12757906
3752.575 997.87384 4616.4717 11704704
3805.2175 1004.5487 4647.3516 10652019
3779.0955 990.48383 4582.2832 10454640
3848.1487 1001.3867 4632.7231 9862761
3727.1799 963.0368 4455.3047 8086350
3813.0315 978.28912 4525.8667 5915695
3922.5654 999.36206 4623.3564 8284243
3958.3826 1001.4919 4633.21 9402727
3949.167 992.27734 4590.5806 9139298
4015.6958 1002.0903 4635.9785 9335650
3987.7773 988.36151 4572.4648 9269857
4039.8374 994.50665 4600.894 9204064
4008.9172 980.27881 4535.0718 8677977
4084.5188 992.11414 4589.8252 9269858
4052.7661 977.88947 4524.0176 10848889
4153.5356 995.61761 4606.0337 10520178
4207.126 1001.8794 4635.0024 9796199
4190.9946 991.56403 4587.2803 8940890
4212.7759 990.29364 4581.4033 10322543
4275.8462 998.68335 4620.2163 9927784
4322.3247 1003.1155 4640.7212 10059368
4346.2598 1002.293 4636.9155 9861735
4333.439 993.0578 4594.1909 9993576
4435.2212 1010.0364 4672.7397 10190697
4393.8989 994.41736 4600.481 9861733
0 0 0 0
0 0 0 0
0 0 0 0
0 0 0 0
0 0 0 0
0 0 0 0
-4428.4111 1092.9733 4921.5005 12
-4426.3682 1099.7118 4951.8428 12
-4413.6074 1103.8597 4970.5205 12
-4248.9243 1069.8119 4817.208 12
-3822.3044 968.90558 4362.8418 12
-3780.8591 964.92676 4344.9258 12
-3751.0188 963.87555 4340.1919 12
-4447.5 1150.7365 5181.5996 12
-4097.8081 1067.6292 4807.3799 12
-4021.105 1054.9799 4750.4219 12
-3993.2803 1055.0663 4750.811 12
-3982.2454 1059.6216 4771.3228 12
-3932.4399 1053.8519 4745.3428 12
-3870.1279 1044.6234 4703.7881 11
-3902.0344 1060.8768 4776.9746 11
-3872.4966 1060.5404 4775.46 11
-3847.4414 1061.4357 4779.4912 12
-3815.5347 1060.4399 4775.0078 11
-3784.5149 1059.6779 4771.5762 11
-3769.5708 1063.4392 4788.5132 11
-3754.0232 1067.0863 4804.9351 12
-3716.6667 1064.5425 4793.4805 13
-3687.5652 1064.3419 4792.5781 14
-3659.9482 1064.5702 4793.606 14
-3633.4873 1065.1411 4796.1763 14
-3607.3005 1065.8018 4799.1514 14
-3577.1953 1065.306 4796.9194 14
-3540.5354 1062.8348 4785.7915 14
-3512.5032 1062.9346 4786.2407 270
-3483.0232 1062.5942 4784.708 270
-3452.0361 1061.7847 4781.063 270
-3422.0293 1061.2657 4778.7261 270
-3392.2771 1060.8177 4776.709 270
-3373.9702 1063.9716 4790.9102 270
-3343.6233 1063.3497 4788.1104 270
-3324.1555 1066.2069 4800.9756 270
-3300.0315 1067.6069 4807.2798 270
-3274.5188 1068.5781 4811.6528 14
-3245.01 1068.251 4810.1797 269
-3217.0718 1068.4397 4811.0293 270
-3189.731 1068.8318 4812.7949 270
-3156.2241 1067.1462 4805.2051 270
-3132.103 1068.6323 4811.8965 270
-3109.3325 1070.6107 4820.8052 269
-3087.8911 1073.0876 4831.9585 269
-3067.2837 1075.9036 4844.6382 16
-3041.5898 1076.9717 4849.4478 271
-3020.4697 1079.6951 4861.7109 271
-2995.061 1080.9231 4867.2407 16
-2967.1426 1081.2606 4868.7598 16
-2944.9578 1083.7145 4879.8096 16
-2916.9731 1084.0618 4881.373 16
-2894.5378 1086.4987 4892.3467 16
-2869.7456 1088.0916 4899.519 16
-2843.5078 1089.1632 4904.3447 16
-2816.0007 1089.7659 4907.0581 17
-2785.3347 1089.1456 4904.2656 18
-2771.3406 1095.1005 4931.0791 18
-2743.9233 1095.8215 4934.3262 18
-2728.2605 1101.303 4959.0078 18
-2706.0657 1104.2383 4972.2251 18
-2680.137 1105.6976 4978.7969 19
-2657.3884 1108.5164 4991.4888 19
-2632.7329 1110.594 5000.8442 19
-2598.2344 1108.5195 4991.5029 18
-2572.7397 1110.2828 4999.4429 19
-2547.5359 1112.2142 5008.1396 20
-2525.3098 1115.5065 5022.9644 20
-2496.1411 1115.774 5024.1689 21
-2468.7085 1116.8334 5028.9395 21
-2441.0989 1117.8376 5033.4609 21
-2418.4019 1121.144 5048.3496 21
-2389.6465 1121.6897 5050.8062 21
-2365.6287 1124.501 5063.4653 21
-2332.4934 1122.995 5056.6841 21
-2306.2302 1124.8014 5064.8179 21
-2282.5269 1127.9205 5078.8628 21
-2267.2927 1135.3638 5112.3789 20
-2225.7607 1129.6615 5086.7026 20
-2197.5466 1130.655 5091.1758 20
-2168.4973 1131.2404 5093.812 21
-2138.7854 1131.4917 5094.9434 21
-2111.1045 1132.8401 5101.0151 21
-2083.0869 1134.0444 5106.438 21
-2050.8433 1132.9497 5101.5083 21
-2020.1094 1132.6686 5100.2427 21
-1991.3605 1133.5088 5104.0264 22
-1961.2279 1133.5753 5104.3257 21
-1931.484 1133.8719 5105.6616 21
-1902.6365 1134.7126 5109.4473 21
-1873.4028 1135.3466 5112.3018 21
-1846.0437 1137.1561 5120.4497 21
-1814.2125 1136.2253 5116.2583 21
-1783.7532 1136.1365 5115.8584 21
-1753.1211 1135.9329 5114.9414 21
-1719.8352 1133.9722 5106.1128 21
-1689.8805 1134.1769 5107.0347 21
-1660.0389 1134.4667 5108.3394 21
-1634.3667 1137.6692 5122.7598 21
-1603.64 1137.4082 5121.5845 21
