# .PCD v0.7 - Point Cloud Data file format
VERSION 0.7
FIELDS x y z rgb
SIZE 4 4 4 4
TYPE F F F U
COUNT 1 1 1 1
WIDTH 1388
HEIGHT 1
VIEWPOINT 0 0 0 1 0 0 0
POINTS 1388
DATA ascii
2417.5583 854.37299 2974.115 2231046
2424.948 850.7818 2961.614 5059628
2439.9756 849.90289 2958.5544 4139037
2432.2771 841.17682 2928.1785 1114112
2448.1533 840.66962 2926.4131 2230272
2481.323 846.06628 2945.199 2297606
2400.406 812.75873 2829.2537 11704702
2466.5791 829.37134 2887.083 12426370
2482.8899 829.10461 2886.1545 12426625
2501.2048 829.50623 2887.5525 12359803
2535.8079 835.26752 2907.6079 12227963
2559.7258 837.4552 2915.2234 12162940
2605.5127 846.72034 2947.4758 12492421
2635.2974 850.69641 2961.3169 13216403
2664.5513 854.44977 2974.3823 14073255
2737.6213 872.11212 3035.8657 13150873
2798.5605 885.70453 3083.1816 11373693
2846.9253 895.16681 3116.1204 10650743
2915.3291 910.76752 3170.427 9860714
2949.3411 915.49292 3186.8765 8742746
2928.1082 903.1189 3143.802 8348503
2949.8254 904.06482 3147.095 6967107
2897.7844 882.53546 3072.1499 7428173
2893.8213 875.82581 3048.7935 8217433
2915.0613 876.77991 3052.1147 6770246
0 0 0 0
0 0 0 0
0 0 0 0
0 0 0 0
0 0 0 0
0 0 0 0
-3589.7847 1169.7036 3989.4958 14
-3564.627 1169.2065 3987.8005 14
-3509.7173 1158.8792 3952.5767 14
-3511.4783 1167.251 3981.1304 14
-3490.7666 1168.2152 3984.4189 14
-3476.3525 1171.3145 3994.9897 14
-3441.6155 1167.5616 3982.1902 270
-3430.8618 1171.9497 3997.1562 270
-3397.4187 1168.5942 3985.7119 270
-3171.7441 1098.608 3747.0105 15
-3350.842 1168.8257 3986.5015 16
-3330.0859 1169.8336 3989.9387 16
-3308.8093 1170.6715 3992.7971 16
-3287.7791 1171.6095 3995.9958 16
-3272.8093 1174.7363 4006.6606 17
-3240.2048 1171.5328 3995.7344 18
-3211.2383 1169.6072 3989.1667 18
-3180.2183 1166.8995 3979.9316 18
-3037.6218 1122.9053 3829.8811 18
-3132.0085 1166.5129 3978.6133 19
-2968.3154 1113.9314 3799.2739 19
-3088.6765 1167.959 3983.5454 20
-3066.5454 1168.5216 3985.4639 21
-2940.0547 1129.0175 3850.7275 21
-2925.8586 1132.3552 3862.1116 21
-2883.1113 1124.6085 3835.6902 21
-2813.5376 1106.1917 3772.8757 21
-2781.0876 1102.1923 3759.2354 21
-2775.3157 1108.7867 3781.7271 21
-2773.1562 1116.9436 3809.5476 21
-2756.6028 1119.3893 3817.8892 21
-2733.4739 1119.1831 3817.186 21
-2714.9709 1120.8835 3822.9858 21
-2692.1816 1120.828 3822.7959 21
-2685.3035 1127.4519 3845.3882 21
-2663.5835 1127.9044 3846.9316 21
-2703.9441 1154.88 3938.9368 21
-2703.9551 1164.9415 3973.2537 21
-2702.0706 1174.356 4005.3633 21
-2648.7739 1161.3951 3961.1577 21
-2626.2615 1161.8206 3962.6091 21
-2613.425 1166.5731 3978.8186 21
-2590.022 1166.6526 3979.0894 21
-2552.5979 1160.3597 3957.6267 21
-2534.8765 1162.9896 3966.5964 21
-2662.2341 1232.8535 4204.8804 21
-2683.7744 1254.5717 4278.9541 21
-2600.9873 1227.4695 4186.5171 21
-2454.9961 1169.7305 3989.5869 21
-2429.2983 1168.7421 3986.2158 21
-2439.9553 1185.3961 4043.0181 21
-2423.7678 1189.2097 4056.0247 21
-2367.3853 1173.1805 4001.354 21
-2334.5073 1168.5925 3985.7063 21
-2320.1196 1173.2614 4001.6299 21
-2315.6941 1183.1163 4035.2422 21
-2365.6699 1221.2612 4165.3428 21
-2360.011 1231.1868 4199.1958 21
-2339.6377 1233.5657 4207.3096 21
-2334.0955 1243.8998 4242.5557 21
-2331.4001 1255.9927 4283.8008 21
-2294.0417 1249.4723 4261.5615 21
-2226.3625 1226.1082 4181.874 21
-2246.4365 1251.0898 4267.0786 21
-2149.7397 1210.8677 4129.8936 21
-2127.436 1212.1045 4134.1118 21
-2083.7986 1201.0739 4096.4897 21
-2036.0995 1187.4142 4049.9011 21
-2003.9109 1182.5822 4033.4204 21
-1979.808 1182.4628 4033.0132 21
-1914.8871 1157.6635 3948.4304 21
-1889.7766 1156.6162 3944.8584 21
-1855.4919 1149.8573 3921.8062 21
-1839.2896 1154.2749 3936.8728 21
-1801.5438 1145.1122 3905.6218 19
-1792.2109 1154.0062 3935.9568 19
-1763.2 1150.2969 3923.3052 19
-1748.1405 1155.7119 3941.7744 19
-1846.7817 1237.4603 4220.5928 19
-1698.6932 1153.8591 3935.4553 19
-1674.1622 1153.0267 3932.616 19
-1646.7736 1150.1749 3922.8894 19
-1638.6515 1160.8907 3959.4375 21
-1616.7986 1162.0491 3963.3882 21
-1580.2599 1152.5306 3930.9241 21
-1549.6786 1147.1373 3912.5293 21
-1531.1572 1150.6431 3924.4861 21
-1516.0588 1156.869 3945.7209 19
-1494.6821 1158.4241 3951.0247 20
-1463.8711 1152.6005 3931.1619 20
-1447.9755 1158.5222 3951.3594 21
-1405.7323 1143.2114 3899.1392 21
-1359.0409 1123.7111 3832.6292 21
-1357.4976 1141.5125 3893.3445 21
-1332.0236 1139.4584 3886.3386 21
-1316.9607 1146.3948 3909.9963 20
-1305.3048 1156.5984 3944.7979 18
-1284.9291 1159.3069 3954.0356 18
-1361.6991 1251.3923 4268.1104 19
-1236.1989 1157.5603 3948.0786 19
-1214.9385 1159.5999 3955.0347 19
-1191.5554 1159.6536 3955.2178 19
-1175.6663 1167.1492 3980.7832 19
-1135.8981 1150.7604 3924.8862 19
-1120.9331 1159.3391 3954.1458 19
-1101.4702 1163.5332 3968.4502 19
-1082.8667 1168.8376 3986.5422 19
-1064.7239 1174.8872 4007.1753 19
-1034.7491 1167.8589 3983.2036 19
-1009.9626 1166.4945 3978.5503 19
-989.34711 1169.9976 3990.4983 19
-968.71161 1173.6479 4002.9487 20
-976.11444 1212.3046 4134.7944 21
-959.73132 1222.6498 4170.0786 21
-974.28845 1273.9999 4345.2178 21
-941.67566 1264.7832 4313.7827 21
-907.33221 1252.6631 4272.4443 21
-859.3537 1220.4818 4162.6841 21
-803.72675 1175.2146 4008.2922 21
-823.76593 1241.1996 4233.3462 21
-811.08337 1260.478 4299.0991 21
-793.7373 1273.5244 4343.5962 21
-767.83508 1273.2573 4342.6851 21
-737.38818 1265.174 4315.1152 21
-713.69934 1268.5217 4326.5332 21
-688.1181 1268.6299 4326.9023 21
-662.2182 1268.1362 4325.2188 21
-637.69678 1270.349 4332.7656 20
-611.974 1270.2537 4332.4409 19
-588.3869 1274.7772 4347.8691 19
-563.80273 1277.4559 4357.0054 18
-544.4873 1292.9023 4409.6885 18
-512.05255 1277.1837 4356.0771 18
-486.24271 1277.1974 4356.1235 18
-459.76328 1275.3551 4349.8403 18
-432.78329 1271.8232 4337.7939 19
-407.54025 1273.2717 4342.7344 19
-380.01096 1267.2914 4322.3369 19
-354.86761 1268.9781 4328.0903 19
-328.95944 1267.9799 4324.6855 21
-304.13568 1271.3459 4336.166 21
-277.43637 1266.7697 4320.5576 21
-253.51688 1275.2458 4349.4673 21
-228.08875 1277.193 4356.1084 21
-201.12035 1269.9117 4331.2744 21
-175.01836 1266.771 4320.562 21
-149.31331 1265.9189 4317.6562 21
-124.02378 1268.9663 4328.0498 21
-98.059074 1264.8931 4314.1572 21
-72.366997 1262.7041 4306.6914 21
-46.775127 1260.8307 4300.3018 21
-21.170197 1253.6992 4275.9785 21
4.1704154 1253.7751 4276.2373 21
29.586105 1256.9102 4286.9302 21
54.720058 1250.709 4265.7798 21
79.767365 1247.0724 4253.3765 21
104.75127 1244.429 4244.3604 21
130.1048 1246.3501 4250.9131 21
154.66367 1241.2703 4233.5874 21
179.01147 1236.151 4216.127 18
203.57838 1233.6136 4207.4727 19
228.46048 1233.3313 4206.5098 19
254.50484 1238.7617 4225.0312 19
278.56152 1234.4111 4210.1929 19
303.54749 1234.5554 4210.6851 19
327.4776 1230.7097 4197.5684 19
350.86606 1225.515 4179.8511 19
375.42313 1224.8181 4177.4741 19
399.06857 1221.4172 4165.8745 19
420.73004 1212.6941 4136.1226 19
441.08759 1201.3799 4097.5337 19
464.50232 1199.1388 4089.8899 19
484.91595 1189.7567 4057.8906 19
507.35623 1185.9987 4045.073 19
516.31281 1152.4823 3930.7588 19
547.77228 1169.9207 3990.2361 19
574.07324 1175.3545 4008.769 19
592.01245 1163.9169 3969.7588 19
614.99335 1162.8868 3966.2456 19
634.80029 1156.1519 3943.2749 19
650.58826 1142.8354 3897.8567 19
671.42242 1138.9926 3884.7498 19
690.02875 1131.7504 3860.0491 19
712.84436 1131.6554 3859.7251 19
735.99622 1132.0835 3861.1851 19
754.24274 1125.168 3837.5984 19
770.50439 1115.7831 3805.5894 19
785.73438 1105.4805 3770.4504 19
805.30505 1101.6858 3757.5081 19
831.2262 1106.5492 3774.0955 19
854.15399 1107.2773 3776.5789 19
878.54724 1109.8196 3785.2495 18
894.58844 1101.9471 3758.3994 18
912.30536 1096.4713 3739.7229 18
921.40594 1081.145 3687.4497 19
961.09436 1101.588 3757.1746 18
974.37335 1091.5208 3722.8381 18
993.08173 1087.8468 3710.3074 65552
845.84534 906.4895 3091.7542 196619
879.34668 922.41187 3146.0603 327684
884.66388 908.72241 3099.3696 2496279
931.98608 937.85944 3198.7473 6508872
956.70404 943.54175 3218.1277 8415835
964.46576 932.60565 3180.8284 9007713
984.34467 933.5813 3184.1558 8875869
998.40942 929.10968 3168.9043 9007712
1021.2665 932.83405 3181.6072 8941919
1038.8103 931.65814 3177.5964 8546904
1050.8568 925.6817 3157.2129 8546904
1075.4213 930.74829 3174.4932 8876126
1094.8602 931.28101 3176.3101 8941919
1114.5499 932.00525 3178.7805 9007969
1127.5529 927.20697 3162.415 9073505
1150.7496 930.81097 3174.707 9205091
1167.9705 929.54303 3170.3826 9205091
1182.8611 926.49017 3159.9702 8744285
1202.1697 926.93884 3161.5002 8744285
1216.8812 923.88361 3151.0798 8678492
1233.8246 922.58948 3146.666 9007201
1248.8087 919.89081 3137.4617 9072993
1267.1859 919.73401 3136.927 8810334
1273.8575 911.20862 3107.8494 8875871
1293.2692 911.9093 3110.2393 8876128
1315.9828 914.88605 3120.3918 8876127
1336.6241 916.3595 3125.4175 8810335
1345.3431 909.73065 3102.8086 9139299
1369.1801 913.36566 3115.2065 9073507
1392.1373 916.32489 3125.2996 9007714
1417.5037 920.77142 3140.4651 8481370
1414.3555 906.82025 3092.8821 8810335
1455.3629 921.17456 3141.8403 8744285
1482.6178 926.57147 3160.2476 9073506
1496.3412 923.48273 3149.7126 8678749
1515.3401 923.68573 3150.405 8547163
1531.1039 921.93573 3144.4363 8612956
1540.7611 916.59509 3126.2212 8876128
1564.3387 919.56433 3136.3481 8481370
1586.4867 921.63312 3143.4043 8481370
1599.7317 918.54193 3132.8613 8481370
1622.2346 920.77649 3140.4827 8218198
1645.745 923.5257 3149.8594 8941662
1649.0337 914.99304 3120.7571 8415575
1647.4633 903.98328 3083.2061 8283732
1670.3606 906.49359 3091.7681 8547161
1701.7175 913.49048 3115.6323 8612954
1717.7358 912.19189 3111.2031 8349782
1734.6791 911.40668 3108.5251 8087123
1754.6636 912.21912 3111.2959 8021330
1774.0826 912.72369 3113.0171 8021330
1807.8767 920.53741 3139.6672 8087123
1814.4591 914.47742 3118.9983 8547675
1839.809 917.90302 3130.6819 8745055
1860.67 919.04297 3134.5701 8415833
1878.5192 918.68738 3133.3574 8152917
1908.8485 924.38251 3152.7815 8679260
1920.1849 920.85883 3140.7634 8283991
1930.1522 916.75256 3126.7583 8218198
1949.5773 917.17371 3128.1946 8152404
1973.2233 919.55396 3136.3127 8086611
1996.5742 921.7536 3143.8149 7955023
2012.6533 920.5863 3139.834 8020817
2034.1523 921.89691 3144.304 8152403
2052.1938 921.63086 3143.3967 7888976
2074.7827 923.39355 3149.4084 7955026
2094.8562 924.01514 3151.5286 8415576
2122.3184 927.85608 3164.6289 7691854
2122.8262 919.94885 3137.6597 7888976
2116.5598 909.26862 3101.2329 8283478
2164.8381 922.00293 3144.6655 7822926
2183.7976 922.13959 3145.1318 7691340
2205.7117 923.51086 3149.8088 7889233
2219.8948 921.6496 3143.4604 7757391
2241.9004 923.03986 3148.2021 8086356
2251.5205 919.34991 3135.6169 8086614
2276.603 921.9823 3144.5952 8283993
2288.1807 919.14722 3134.9258 8547423
2315.2175 922.51776 3146.4214 7166280
2317.0183 915.85895 3123.7104 8415577
2337.7585 916.73297 3126.6912 8349526
2367.1255 920.94934 3141.072 8151890
2387.1194 921.48169 3142.8879 7691338
2410.2336 923.20117 3148.7522 7690829
2406.8354 914.81696 3120.1562 6572610
2422.1707 913.62671 3116.0967 3941152
2396.0601 896.9397 3059.1826 721153
2402.7583 892.69275 3044.6975 917504
2405.4043 887.01477 3025.3318 917504
2408.335 881.52496 3006.6077 1639684
2413.5149 876.93304 2990.9463 3020817
2424.3035 874.43109 2982.4128 3086865
2437.5623 872.84998 2977.02 2757389
2413.6689 858.08362 2926.6567 1049088
2430.6587 857.95862 2926.2302 1048576
2448.1143 857.99854 2926.3665 1048576
2461.9009 856.76117 2922.146 2560263
2470.009 853.57867 2911.2917 7625280
2443.5662 838.58313 2860.1467 11769211
2462.9321 839.40662 2862.9553 12096889
2487.4375 841.95844 2871.6584 13017475
2515.5046 845.67291 2884.3276 12359547
2537.0452 847.15802 2889.3928 12162426
2560.3406 849.20514 2896.375 13084042
2612.3169 860.67462 2935.4937 13479575
2630.957 861.08167 2936.8818 13810853
2661.0132 865.19519 2950.9119 14140845
2714.1206 876.70081 2990.1541 14140593
2800.156 898.62439 3064.9287 11833730
2830.4778 902.50116 3078.1511 10386799
2814.793 891.75287 3041.4919 11373951
2821.6167 888.22693 3029.4661 9399904
2871.2729 898.14374 3063.2893 9005661
2870.3669 892.2193 3043.0828 7032898
2871.03 886.85345 3024.7815 7164229
2874.7505 882.4928 3009.9087 7756623
0 0 0 0
0 0 0 0
0 0 0 0
0 0 0 0
0 0 0 0
0 0 0 0
-3532.4312 1174.2803 3925.7559 14
-3507.2222 1173.6296 3923.5811 14
-3486.5737 1174.5068 3926.5134 14
-3460.5876 1173.5854 3923.4331 14
-3427.5188 1170.2334 3912.2268 14
-3421.3582 1176.0853 3931.7905 14
-3400.2893 1176.8578 3934.373 14
-3373.7288 1175.7271 3930.5928 14
-3336.4578 1170.8221 3914.1948 14
-3326.0728 1175.3494 3929.3301 14
-3123.6082 1111.5857 3716.1609 16
-3294.0352 1180.5585 3946.7449 16
-3270.855 1180.6339 3946.9968 15
-3253.7222 1182.9091 3954.6028 16
-3227.1338 1181.7546 3950.7437 18
-3187.0293 1175.5975 3930.1597 18
-3015.2292 1120.4138 3745.6743 18
-2968.8489 1111.3613 3715.4104 19
-2976.792 1122.6609 3753.1863 19
-2949.0979 1120.5894 3746.2607 19
-2924.1648 1119.5433 3742.7639 19
-2909.322 1122.374 3752.2273 21
-2887.4536 1122.5172 3752.7058 21
-2863.8328 1121.9758 3750.8962 21
-2829.9111 1117.359 3735.4614 21
-2810.3906 1118.4003 3738.9426 21
-2785.8909 1117.4609 3735.8022 21
-2764.9089 1117.929 3737.3667 21
-2747.6763 1119.9325 3744.0649 21
-2731.6619 1122.4694 3752.5459 21
-2720.1045 1126.8943 3767.3389 21
-2703.0078 1129.0786 3774.6416 21
-2680.2463 1128.9136 3774.0896 21
-2744.8145 1165.8381 3897.5327 21
-2730.2891 1169.5099 3909.8081 21
-2707.6848 1169.7545 3910.6257 21
-2684.3523 1169.6859 3910.3965 21
-2659.0872 1168.7667 3907.3235 21
-2635.7366 1168.6803 3907.0344 21
-2615.3293 1169.9091 3911.1423 21
-2600.2861 1173.5806 3923.4165 21
-2576.3379 1173.2631 3922.3552 21
-2556.2607 1174.7188 3927.2217 21
-2533.7007 1175.0496 3928.3279 21
-2517.45 1178.3398 3939.3276 21
-2655.0217 1254.3651 4193.4888 21
-2556.8191 1219.3829 4076.5393 21
-2441.3298 1175.4105 3929.5344 21
-2419.6572 1176.1953 3932.1582 21
-2403.6731 1179.7876 3944.1675 21
-2375.238 1177.2791 3935.781 21
-2353.8342 1178.2404 3938.9951 21
-2331.8052 1178.9048 3941.2161 21
-2311.6758 1180.5527 3946.7258 21
-2297.7795 1185.4503 3963.0989 21
-2342.4683 1220.9858 4081.8982 21
-2345.6067 1235.3792 4130.0166 21
-2339.3367 1245.0686 4162.4097 21
-2300.8811 1237.6517 4137.6143 21
-2296.8557 1248.795 4174.8672 21
-2252.7771 1238.1667 4139.3359 21
-2175.4402 1208.824 4041.2395 21
-2128.104 1195.6838 3997.3108 21
-2145.8193 1219.2089 4075.9575 21
-2207.7683 1268.6884 4241.373 21
-2172.9526 1263.0615 4222.562 21
-2072.1465 1218.4987 4073.583 21
-2009.9791 1195.8741 3997.9465 21
-1986.9354 1196.2648 3999.2527 21
-1913.3553 1165.8715 3897.6443 21
-1940.0311 1196.571 4000.2766 21
-1916.2698 1196.5367 4000.1621 21
-1890.8713 1195.4667 3996.5845 21
-1812.7889 1160.6385 3880.1499 21
-1790.4429 1161.0592 3881.5562 20
-1779.2681 1168.8292 3907.5322 20
-1750.3191 1164.9741 3894.6443 19
-1732.7667 1168.7026 3907.1094 19
-1699.624 1161.8745 3884.282 20
-1689.1729 1170.584 3913.3989 20
-1654.8324 1162.7505 3887.2104 20
-1632.7716 1163.4456 3889.5344 19
-1660.2334 1199.9537 4011.5854 20
-1584.9637 1162.1936 3885.3486 21
-1563.092 1163.052 3888.2188 21
-1542.6638 1165.0262 3894.8188 21
-1519.14 1164.6873 3893.6851 21
-1495.7671 1164.4552 3892.9094 20
-1470.5436 1162.7524 3887.2173 20
-1449.5151 1164.3655 3892.6096 19
-1425.7756 1163.8177 3890.7783 19
-1375.96 1141.6168 3816.5583 20
-1375.9993 1160.7292 3880.4534 21
-1362.2554 1168.667 3906.99 21
-1338.2506 1167.9242 3904.5068 21
-1315.0541 1167.873 3904.3357 20
-1293.6967 1169.4825 3909.7166 19
-1400.4255 1289.0505 4309.4463 19
-1262.1512 1183.3531 3956.0874 19
-1313.0295 1254.3549 4193.4546 19
-1199.7124 1168.2118 3905.4685 19
-1158.6536 1150.4249 3846.0046 19
-1157.942 1172.7886 3920.769 20
-1136.9519 1175.1091 3928.5271 20
-1102.2351 1163.0428 3888.188 20
-1164.3889 1254.8583 4195.1377 19
-1065.4523 1173.2859 3922.4316 19
-1047.131 1178.8292 3940.9634 19
-1026.2104 1181.6322 3950.3342 19
-1005.3253 1184.608 3960.2827 19
-978.26825 1180.2795 3945.8123 19
-955.47565 1181.0103 3948.2549 21
-967.44391 1225.8221 4098.0664 21
-947.97937 1232.0885 4119.0156 21
-946.72296 1262.9768 4222.2788 21
-904.44507 1239.3318 4143.231 21
-882.55371 1243.0817 4155.7671 21
-860.1181 1246.2583 4166.3867 21
-797.94452 1190.343 3979.4556 21
-812.82355 1249.4668 4177.1133 21
-791.73254 1255.2751 4196.5312 21
-779.73389 1276.3434 4266.9648 21
-755.78986 1278.6154 4274.5601 21
-734.34717 1285.4232 4297.3198 21
-709.89227 1287.2582 4303.4541 21
-683.23322 1285.0841 4296.186 21
-658.33734 1286.1863 4299.8711 21
-631.7027 1283.8439 4292.0396 19
-604.58356 1280.2786 4280.1206 19
-577.38751 1276.2311 4266.5894 19
-553.08813 1278.5088 4274.2041 18
-530.53113 1285.226 4296.6606 18
-503.61063 1281.517 4284.2607 18
-477.76511 1280.2948 4280.1748 18
-451.0545 1276.4874 4267.4463 18
-425.26019 1274.9749 4262.3896 19
-399.99374 1274.9536 4262.3188 19
-375.54913 1277.726 4271.5869 19
-350.58063 1278.9875 4275.8047 19
-325.3653 1279.4751 4277.4346 21
-299.13678 1275.7242 4264.895 21
-273.59705 1274.4896 4260.7676 21
-247.40852 1269.6743 4244.6694 21
-221.95868 1267.9889 4239.0347 21
-197.83894 1274.4417 4260.6069 21
-173.04631 1277.8135 4271.8794 21
-147.36731 1274.6741 4261.3843 21
-121.13287 1264.4387 4227.166 21
-95.742813 1259.9777 4212.2524 21
-70.668472 1257.9905 4205.6089 21
-45.884937 1261.835 4218.4614 21
-20.936405 1264.9146 4228.7568 21
4.0945973 1255.8628 4198.4956 21
28.888559 1252.0825 4185.8579 21
53.655922 1251.1749 4182.8237 21
78.42469 1250.8633 4181.7817 21
102.80282 1245.9667 4165.4121 21
127.35395 1244.6573 4161.0347 21
152.02106 1244.7222 4161.2515 21
176.82822 1245.7556 4164.7065 20
201.61378 1246.4023 4166.8687 20
226.5079 1247.506 4170.5581 18
251.54213 1249.088 4175.8472 20
275.77158 1246.7485 4168.0259 19
301.11139 1249.4008 4176.8926 21
325.51474 1248.0596 4172.4087 20
349.33417 1244.827 4161.6021 19
368.52789 1226.6243 4100.748 19
391.91516 1223.7684 4091.2004 19
415.73709 1222.5233 4087.0381 19
439.1514 1220.2826 4079.5471 19
461.97977 1216.7325 4067.679 19
481.586 1205.4692 4030.0244 19
502.50555 1198.4026 4006.3994 19
507.03415 1154.6469 3860.1194 19
534.56232 1164.7839 3894.0083 19
553.16785 1155.4446 3862.7861 19
564.47644 1132.2115 3785.1152 19
596.01416 1149.7787 3843.8442 19
628.17896 1167.2177 3902.1445 19
640.08844 1147.118 3834.9495 19
667.61322 1155.422 3862.7102 19
673.3584 1126.7313 3766.7944 19
693.72815 1123.5681 3756.2195 19
711.17578 1116.016 3730.9719 19
736.53516 1120.9607 3747.5022 19
752.50989 1111.7509 3716.7129 19
779.13232 1118.3485 3738.7695 19
804.45667 1122.7694 3753.5493 19
822.52496 1117.0979 3734.5886 19
846.17261 1119.1024 3741.2898 19
867.28778 1117.7408 3736.738 18
890.64709 1119.2671 3741.8406 18
906.85223 1111.9471 3717.3691 18
921.69403 1103.3425 3688.6028 18
952.97705 1114.3619 3725.4419 18
964.03015 1101.7621 3683.3193 18
980.68262 1095.9779 3663.9822 17
993.73401 1086.5071 3632.3201 65551
855.49091 915.52612 3060.7107 196619
875.4707 917.45587 3067.1619 327682
894.99683 918.84119 3071.7935 2956828
931.19958 936.95105 3132.3367 6968653
956.25739 943.35834 3153.7571 9139301
961.76007 930.59851 3111.0994 8744539
981.11829 931.47314 3114.0232 9007455
1002.0923 933.82098 3121.8726 9073504
1017.0001 930.53345 3110.8818 8349525
1033.8324 929.09235 3106.0642 8547161
1056.9581 933.25867 3119.9927 8678747
1077.9856 935.46088 3127.355 8612954
1096.4634 935.41339 3127.1963 9007455
1106.7837 928.52411 3104.1643 8876126
1133.1039 935.06342 3126.0259 8744540
1146.8629 931.19318 3113.0874 8612954
1168.5884 933.81158 3121.8411 8744286
1183.3988 930.90863 3112.1362 8678749
1200.2968 929.71185 3108.135 8810334
1210.1542 923.18011 3086.2988 8415577
1226.4824 921.70581 3081.3699 8810592
1245.2168 922.0564 3082.542 9073507
1259.8903 919.43335 3073.7729 9205093
1276.2986 918.13312 3069.426 8941921
1292.4882 916.71417 3064.6824 9336679
1312.1322 917.75085 3068.1482 9073507
1332.9553 919.57257 3074.2383 9402472
1344.3408 914.92212 3058.6914 8810335
1368.6344 919.06342 3072.5364 8941921
1390.5004 921.48724 3080.6394 9139300
1403.6389 918.13953 3069.4475 8744541
1431.0032 924.0636 3089.2524 8744541
1443.8572 920.58649 3077.6279 8744542
1467.9839 924.29376 3090.022 8810335
1490.5797 926.9577 3098.9277 8218198
1508.1359 926.46094 3097.2668 8415576
1538.302 933.62933 3121.2317 9270886
1545.9344 927.11365 3099.449 8547164
1548.7822 917.91534 3068.698 8547163
1569.6259 919.47229 3073.9031 8612956
1590.608 921.07373 3079.2571 8547163
1613.2443 923.58588 3087.6553 8810334
1616.1847 914.89215 3058.5911 8612699
1638.4435 917.20575 3066.3259 8481369
1653.1573 915.29132 3059.9255 8547162
1674.1975 916.883 3065.2466 8086609
1697.2817 919.54791 3074.156 7823181
1709.3239 916.23749 3063.0886 8087122
1730.8492 918.02637 3069.0693 7823951
1753.0244 920.11926 3076.0659 9008226
1758.2839 913.38171 3053.5415 8021330
1774.5403 912.43573 3050.3792 7100227
1800.2012 916.29584 3063.2839 7758159
1812.6273 913.40967 3053.635 4796190
1841.7714 918.92169 3072.0623 7691853
1886.4937 932.02222 3115.8589 6967873
1879.5498 919.59052 3074.2983 6770751
1898.9344 920.15533 3076.1868 7165510
1919.8761 921.45673 3080.5374 6441787
1928.6637 916.9552 3065.4883 6704960
1950.1757 918.53082 3070.7556 7823440
1975.5851 921.896 3082.0059 8349784
2000.2568 924.85846 3091.9097 8152404
2024.8312 927.72247 3101.4844 8152405
2046.4098 929.17487 3106.3398 8020819
2066.0806 929.74268 3108.2383 8152148
2071.8367 924.09418 3089.3545 7955026
2081.1199 920.10406 3076.0151 7955282
2111.5747 925.46228 3093.9285 8350040
2127.1682 924.271 3089.9458 8086869
2144.9119 924.02637 3089.1279 8086612
2162.3472 923.65405 3087.8833 8086612
2193.2383 928.98755 3105.7139 7823440
2180.4429 915.8819 3061.9001 7954769
2215.4587 922.90967 3085.3948 7823440
2235.957 923.82434 3088.4526 7955026
2241.9397 918.77527 3071.573 8349527
2260.3525 918.86078 3071.8586 8612954
2279.9453 919.42059 3073.7302 8152404
2310.0496 924.17682 3089.6311 7692107
2324.1716 922.51471 3084.0742 7954510
2349.2739 925.2027 3093.0605 8349524
2380.8406 930.37518 3110.3528 7955278
2397.0427 929.51025 3107.4612 8218451
2408.4558 926.81567 3098.4529 6902079
2396.2188 915.12964 3059.3853 6112823
2407.7627 912.63306 3051.0388 5389876
2374.1733 893.19403 2986.0518 1641477
2401.0159 896.60956 2997.4705 3350291
2416.5493 895.7829 2994.7068 3942171
2412.8274 887.88257 2968.2949 4468513
2398.8232 876.34027 2929.7078 2297349
2415.4336 876.06757 2928.7961 1048576
2415.4868 869.83655 2907.9648 3151888
2432.998 869.93597 2908.2974 852225
2465.241 875.26428 2926.1106 1312256
2482.0793 875.08716 2925.5186 3744531
2415.501 845.70691 2827.2969 12033670
2456.8479 854.25751 2855.8826 12098172
2478.5566 855.90973 2861.406 12689024
2506.3628 859.63068 2873.8455 12491132
2528.9399 861.5199 2880.1616 12096377
2552.7905 863.81494 2887.8342 13281162
2590.4939 870.73566 2910.9707 13281678
2608.1333 870.8653 2911.4043 13479317
2638.2356 875.12732 2925.6528 13810335
2673.0286 880.87946 2944.8828 14274227
2696.1628 882.73981 2951.1023 13681578
2715.363 883.29651 2952.9634 13282458
2721.7029 879.68951 2940.9045 10321004
2778.2988 892.26837 2982.9573 10519154
2790.9595 890.66736 2977.605 10979706
2826.4739 896.3338 2996.5486 10255729
2813.9199 886.78125 2964.613 9401447
2805.5862 878.66888 2937.4927 9598571
0 0 0 0
0 0 0 0
0 0 0 0
0 0 0 0
0 0 0 0
0 0 0 0
-3494.1301 1184.5605 3883.1904 14
-3497.8477 1193.6825 3913.0935 14
-3478.3206 1194.9408 3917.2185 14
-3448.4282 1192.6312 3909.6475 14
-3421.1794 1191.2109 3904.9912 14
-3401.6897 1192.4911 3909.188 14
-3377.7656 1192.2238 3908.3115 14
-3356.1956 1192.7896 3910.166 14
-3332.4153 1192.5718 3909.4524 14
-3312.4587 1193.7292 3913.2468 16
-3287.5564 1193.108 3911.2104 17
-3255.5105 1189.8672 3900.5862 18
-3229.405 1188.7666 3896.9785 18
-3203.7998 1187.8357 3893.9268 19
-3008.856 1123.652 3683.5217 19
-3158.675 1188.2223 3895.1941 19
-3132.3831 1187.0065 3891.2085 19
-3113.4912 1188.5978 3896.425 19
-2928.3862 1126.2856 3692.1553 19
-3067.1223 1188.5254 3896.1877 21
-3047.0398 1189.6996 3900.0366 21
-2869.7283 1129.0332 3701.1624 21
-2989.9143 1185.3779 3885.8699 21
-2820.5469 1126.9103 3694.2029 21
-2791.439 1124.0049 3684.6785 21
-2773.4082 1125.5493 3689.7412 21
-2753.6343 1126.405 3692.5469 21
-2740.5974 1130.0526 3704.5042 21
-2725.9353 1133.0835 3714.4399 21
-2820.2222 1181.8191 3874.2034 21
-2798.5002 1182.3418 3875.917 21
-2680.2517 1141.7542 3742.8635 21
-2640.7073 1134.2958 3718.4141 21
-2639.6953 1143.4027 3748.2676 21
-2602.3926 1136.8109 3726.6587 21
-2596.7542 1144.0568 3750.4119 21
-2651.9016 1178.4396 3863.1248 21
-2632.4666 1179.9897 3868.2065 21
-2610.0886 1180.2367 3869.0159 21
-2588.2515 1180.7345 3870.6479 21
-2572.094 1183.8556 3880.8792 21
-2548.0137 1183.3534 3879.2329 21
-2525.8667 1183.7482 3880.5269 21
-2634.3186 1245.9175 4084.3289 21
-2631.5586 1256.1541 4117.8857 21
-2504.2493 1206.573 3955.3506 21
-2433.5955 1183.61 3880.074 21
-2418.2048 1187.3433 3892.3127 21
-2496.3367 1237.5105 4056.769 21
-2375.1252 1188.8719 3897.3237 21
-2354.554 1190.1482 3901.5076 21
-2328.9744 1188.8933 3897.3936 21
-2306.5042 1189.2163 3898.4526 21
-2289.3149 1192.2963 3908.5493 21
-2278.3696 1198.7242 3929.6213 21
-2256.7341 1199.6027 3932.501 21
-2228.1431 1196.7634 3923.1931 21
-2206.0569 1197.3948 3925.2632 21
-2202.2439 1208.0637 3960.2378 21
-2214.9934 1228.1459 4026.0706 21
-2149.6021 1204.8669 3949.7581 21
-2127.2466 1205.4629 3951.7117 21
-2104.3799 1205.7792 3952.7485 21
-2143.9861 1242.3015 4072.4751 21
-2154.55 1262.636 4139.1348 21
-1947.994 1154.734 3785.4138 21
-2023.5483 1213.4957 3978.0449 21
-1951.0007 1183.7812 3880.6357 21
-1921.2439 1179.6311 3867.0305 21
-1889.7283 1174.2877 3849.5142 21
-1872.9547 1178.0865 3861.9675 21
-1850.9768 1178.6653 3863.8647 21
-1828.7872 1179.1222 3865.3623 21
-1778.6251 1161.3264 3807.0247 21
-1771.1166 1171.2811 3839.658 18
-1744.757 1168.866 3831.741 18
-1716.5764 1165.1511 3819.563 19
-1710.9875 1176.8765 3858.0005 19
-1689.7332 1177.9982 3861.6777 19
-1665.6686 1177.1646 3858.9451 19
-1631.4358 1169.0217 3832.2512 19
-1621.6173 1178.3901 3862.9629 19
-1600.8903 1179.9866 3868.1958 18
-1575.5549 1178.1831 3862.2839 18
-1547.7661 1174.465 3850.0952 19
-1532.4089 1180.2098 3868.9277 19
-1503.6229 1175.6296 3853.9133 19
-1485.7469 1179.5701 3866.8306 19
-1457.3112 1175.1188 3852.2388 19
-1437.7401 1177.788 3860.9885 19
-1414.7252 1177.6764 3860.623 19
-1390.2761 1176.3479 3856.2676 18
-1368.6123 1177.3708 3859.6213 19
-1349.8176 1180.939 3871.3179 18
-1326.519 1180.6218 3870.2786 18
-1411.0745 1277.9741 4189.416 19
-1284.9137 1184.5554 3883.1733 19
-1394.0121 1308.5688 4289.7104 19
-1360.8751 1301.192 4265.5278 19
-1322.7377 1288.6642 4224.4595 19
-1316.0266 1306.8606 4284.1104 19
-1168.5659 1183.254 3878.9072 18
-1148.5212 1186.2935 3888.8708 18
-1160.7018 1223.4237 4010.5906 18
-1141.9806 1228.8542 4028.3923 18
-1179.793 1296.6494 4250.6367 19
-1095.8267 1230.6422 4034.2539 19
-1020.6943 1171.8329 3841.4666 19
-998.36102 1172.3401 3843.1294 19
-984.41632 1182.9517 3877.9158 19
-967.25177 1190.1086 3901.3777 19
-944.37579 1190.4166 3902.3875 21
-924.78253 1194.9821 3917.3535 21
-902.52521 1196.2516 3921.5154 21
-908.75867 1236.3492 4052.9626 21
-859.75122 1201.4297 3938.49 21
-870.23877 1250.0203 4097.7783 21
-846.51587 1250.8499 4100.498 21
-789.28528 1200.7528 3936.271 21
-808.39972 1267.2864 4154.3794 21
-786.6778 1271.9717 4169.7388 21
-762.42334 1272.7334 4172.2358 21
-744.1405 1283.8489 4208.6743 21
-725.68713 1295.4309 4246.6421 21
-698.60376 1291.8862 4235.022 21
-670.71069 1286.524 4217.4438 21
-643.99731 1283.0973 4206.2104 21
-621.6485 1288.4407 4223.7271 19
-596.34778 1287.8577 4221.8154 19
-570.20404 1285.3232 4213.5073 19
-545.76471 1286.5745 4217.6094 18
-521.58527 1288.588 4224.21 18
-496.61136 1288.7428 4224.7173 18
-471.25052 1287.8567 4221.8125 18
-446.13199 1287.5706 4220.8745 18
-420.37759 1285.3062 4213.4512 19
-394.9072 1283.679 4208.1172 19
-370.37344 1285.0822 4212.7173 19
-344.71078 1282.4883 4204.2139 19
-320.08109 1283.6328 4207.9658 21
-294.93329 1282.7174 4204.9648 21
-269.21103 1278.9038 4192.4634 21
-244.48405 1279.5237 4194.4956 21
-219.37656 1278.0671 4189.7207 21
-194.23666 1276.0258 4183.0288 21
-169.35002 1275.2944 4180.6313 21
-144.82677 1277.5179 4187.9204 21
-120.2233 1279.8071 4195.4248 21
-94.725075 1271.2816 4167.4766 21
-69.999039 1270.7611 4165.77 21
-45.180584 1267.0811 4153.7065 21
-20.583773 1268.2479 4157.5317 21
4.0430121 1264.6086 4145.6016 21
28.55924 1262.3326 4138.1406 21
52.98827 1260.0861 4130.7759 21
77.345734 1258.0952 4124.2495 21
101.63091 1256.1669 4117.9282 21
125.88161 1254.6418 4112.9287 21
150.31268 1255.1176 4114.4883 21
174.5018 1253.7223 4109.9141 20
198.80769 1253.405 4108.874 18
222.55305 1250.0084 4097.7397 18
247.55644 1253.6512 4109.6812 19
271.23758 1250.5449 4099.4985 20
294.74487 1247.2139 4088.5786 20
319.22653 1248.1987 4091.8071 20
340.32843 1236.7625 4054.3169 19
363.38541 1233.4706 4043.5256 19
385.71878 1228.282 4026.5164 19
410.0191 1229.5963 4030.8254 19
432.28134 1224.9907 4015.7271 19
455.14749 1222.4877 4007.5217 19
477.29883 1218.4082 3994.1484 19
500.28629 1216.7478 3988.7053 19
523.81744 1216.4998 3987.8926 19
532.95776 1184.2952 3882.3203 19
556.22919 1184.8574 3884.1636 19
564.73431 1155.1704 3786.8445 19
587.5191 1155.8455 3789.0574 19
620.01642 1174.8752 3851.4399 19
631.45428 1154.0647 3783.2197 19
652.24011 1151.1803 3773.7639 19
664.27539 1133.5544 3715.9839 19
677.73657 1119.4152 3669.6323 19
697.67078 1116.5139 3660.1221 19
723.70923 1123.2621 3682.2437 19
746.05371 1124.0497 3684.8254 19
764.87683 1119.6379 3670.3628 19
789.51428 1123.7457 3683.8289 19
813.42841 1126.6307 3693.2864 19
833.25519 1123.8518 3684.1768 19
853.66437 1121.98 3678.0408 18
880.24408 1128.1097 3698.135 18
901.81195 1127.6746 3696.7083 18
918.586 1121.4076 3676.1643 18
937.75647 1118.2888 3665.9404 18
955.44623 1113.5856 3650.5222 18
970.35956 1105.9263 3625.4138 16
987.64087 1101.239 3610.0483 16
993.71271 1084.517 3555.2302 14
872.67719 932.64697 3057.375 196618
889.40656 931.19238 3052.6064 393475
921.10834 945.15924 3098.3923 3285537
929.93073 935.56213 3066.9312 5521462
944.45605 931.96045 3055.1243 8942179
963.78369 933.14392 3059.0039 9074019
980.99628 932.27362 3056.1509 9205603
997.5481 930.81836 3051.3804 8941919
1019.7575 934.6001 3063.7776 8744540
1034.0571 931.12701 3052.3921 9270884
1058.0271 936.33148 3069.4534 9007712
1073.7725 934.20435 3062.4802 8612697
1090.218 932.74707 3057.7031 8349782
1103.243 928.45874 3043.645 8942176
1130.7587 936.30725 3069.3738 8679003
1142.3844 930.95801 3051.8381 8481370
1158.7235 929.5567 3047.2444 8218198
1172.1969 925.93481 3035.3711 8415577
1190.7458 926.37091 3036.801 8547163
1207.1351 925.13904 3032.7625 8217429
1220.2686 921.48456 3020.7827 8086612
1224.5182 911.32416 2987.4751 8152405
1254.4263 920.2771 3016.8245 8876128
1267.12 916.52704 3004.531 9205092
1278.8658 912.20471 2990.3616 9665644
1306.7516 919.35565 3013.8037 9402472
1317.4058 914.35413 2997.408 9270629
1336.3605 915.17004 3000.0825 8349784
1355.5475 916.12152 3003.2017 8612956
1387.2445 925.39337 3033.5964 9007715
1403.5999 924.32501 3030.094 8744542
1422.4047 924.87634 3031.9014 8810335
1439.77 924.48956 3030.6333 9073507
1456.373 923.62878 3027.8118 8283991
1475.2639 924.22241 3029.7576 9270629
1498.464 927.46875 3040.3999 8678749
1513.4451 925.61133 3034.311 8941921
1529.9877 924.74152 3031.4592 8349784
1542.6155 921.55304 3021.0068 8744542
1560.5073 921.54633 3020.9851 8612956
1583.7024 924.63605 3031.1135 9007714
1596.3439 921.56396 3021.0427 9073507
1611.1696 919.80688 3015.283 8810335
1638.1807 924.96875 3032.2043 7955026
1646.3363 919.48761 3014.2363 8020819
1662.5651 918.58472 3011.2764 8152403
1688.7767 923.15802 3026.2683 8876125
1702.8298 921.05872 3019.3865 8546903
1723.5006 922.54529 3024.2598 8020816
1718.6387 910.47498 2984.6912 8086867
1740.5385 912.68353 2991.9312 8284247
1776.3094 922.04773 3022.6289 8284504
1787.3364 918.50928 3011.0291 9271398
1809.3883 920.65027 3018.0476 7429194
1824.5894 919.29773 3013.6138 7363400
1832.3038 914.2359 2997.0203 8086612
1851.2664 914.82971 2998.9668 8086611
1896.4741 928.25824 3042.9878 7823440
1904.5105 923.41113 3027.0981 7626061
1926.4354 925.32562 3033.374 8283991
1944.1074 925.18066 3032.8992 8020819
1966.1373 927.09338 3039.1692 7889233
1984.8397 927.41656 3040.2285 7889233
2003.5023 927.71545 3041.2085 7691854
2030.0753 931.63934 3054.0715 8086612
2047.8313 931.48322 3053.5598 8086612
2060.4517 929.0144 3045.4666 7955026
2067.8096 924.23627 3029.8032 7691854
2089.468 925.87714 3035.1821 7757390
2106.2556 925.35022 3033.4548 8283990
2123.3071 924.94696 3032.1331 8415320
2139.4705 924.16711 3029.5764 8218197
2156.6938 923.85406 3028.5503 7823440
2167.8679 920.97638 3019.1167 8152404
2182.9385 919.78766 3015.2197 8218195
2207.4363 922.55804 3024.3018 8086611
2227.6938 923.52606 3027.4751 8283989
2248.512 924.70911 3031.353 8481369
2266.23 924.60852 3031.0234 8481621
2294.511 928.78528 3044.7156 8350036
2317.5808 930.80389 3051.333 8350036
2350.9927 936.91284 3071.3591 7757900
2361.0803 933.70416 3060.8403 7362885
2393.7134 939.39209 3079.4866 7954251
2397.7217 933.84564 3061.3042 6902076
2388.9646 923.44781 3027.2185 6506548
2411.6235 925.25836 3033.1538 6573111
2376.0686 904.87268 2966.3259 2166020
2406.4966 909.72992 2982.2488 7361859
2415.1113 906.33044 2971.1047 4993828
2386.4189 889.08105 2914.5583 917504
2419.8682 895.06458 2934.1733 1048576
2435.3267 894.35577 2931.8499 1179648
2436.1868 888.3338 2912.1089 1114112
2456.5979 889.47565 2915.8518 1639939
2442.1272 878.05981 2878.4287 1378820
2373.9165 847.61426 2778.623 12034187
2447.9653 868.03247 2845.5576 12886665
2484.6909 875.02722 2868.4875 12031099
2495.4756 872.85364 2861.3621 11702133
2530.2673 879.04956 2881.6736 11833463
2562.5569 884.29901 2898.8821 12096634
2566.5654 879.7843 2884.082 13281165
2585.4976 880.41101 2886.1365 13544083
2609.4495 882.72754 2893.7305 13281685
2635.2214 885.62555 2903.2307 13413271
2669.9995 891.49304 2922.4653 12820879
2685.2832 890.81775 2920.2515 12097670
2658.0303 876.13037 2872.1038 10255469
2707.9841 886.91663 2907.4629 10649712
2761.3025 898.66144 2945.9646 10189419
2791.9841 902.93787 2959.9834 10387569
2797.1716 898.96759 2946.968 10519411
2797.1785 893.39185 2928.6897 10387824
0 0 0 0
0 0 0 0
0 0 0 0
0 0 0 0
0 0 0 0
0 0 0 0
-3424.9841 1183.6763 3806.345 14
-3310.4663 1151.684 3703.4675 14
-3412.908 1195.2467 3843.552 14
-3389.9436 1195.1809 3843.3406 14
-3386.5491 1202.0605 3865.4634 14
-3378.3257 1207.3081 3882.3381 14
-3349.999 1205.3944 3876.1838 13
-3324.5159 1204.4843 3873.2571 14
-3291.9558 1200.9797 3861.9875 16
-3266.6572 1200.0935 3859.1382 16
-3247.5181 1201.474 3863.5771 18
-3230.3735 1203.6171 3870.4688 19
-3202.4126 1201.7318 3864.4065 19
-3176.2332 1200.4927 3860.4219 19
-3148.2458 1198.5476 3854.167 19
-3122.5989 1197.4713 3850.7058 19
-3096.2407 1196.1046 3846.3108 19
-3073.6936 1196.2007 3846.6199 19
-3052.2749 1196.7407 3848.3562 19
-3035.5925 1199.1597 3856.1353 19
-3003.0435 1195.3002 3843.7239 19
-2978.9775 1194.7839 3842.064 21
-2784.7656 1125.4934 3619.2466 21
-2771.6531 1128.8885 3630.1643 21
-2754.8875 1130.8373 3636.4309 21
-2723.7305 1126.8628 3623.6501 21
-2702.5974 1127.0052 3624.1082 21
-2706.3145 1137.5956 3658.1636 21
-2688.3411 1139.1658 3663.2129 21
-2695.9697 1151.6986 3703.5146 21
-2771.4302 1193.6523 3838.425 21
-2650.7458 1151.1218 3701.6599 21
-2633.8389 1153.3245 3708.7427 21
-2692.5815 1188.9686 3823.3638 21
-2676.334 1191.8235 3832.5439 21
-2648.168 1189.374 3824.6675 21
-2626.0896 1189.6401 3825.5229 21
-2604.2361 1190.0137 3826.7241 21
-2586.4592 1192.2729 3833.9895 21
-2562.3462 1191.6255 3831.9075 21
-2541.5652 1192.5299 3834.8159 21
-2520.0271 1193.0925 3836.6248 21
-2495.2666 1192.1256 3833.5156 21
-2477.616 1194.5687 3841.3721 21
-2460.7678 1197.448 3850.6309 21
-2427.5879 1192.3593 3834.2671 21
-2473.7832 1226.5297 3944.1487 21
-2510.8484 1256.7819 4041.4307 21
-2494.5269 1260.6372 4053.8281 21
-2342.5247 1195.333 3843.8296 21
-2321.4006 1196.1859 3846.5725 21
-2305.7383 1199.8981 3858.5095 21
-2285.4541 1201.2552 3862.8738 21
-2263.8379 1201.9327 3865.0522 21
-2245.0986 1204.1671 3872.2373 21
-2227.0959 1206.8468 3880.8542 21
-2209.7947 1209.9664 3890.8862 21
-2190.0791 1211.8159 3896.834 21
-2179.9995 1219.0936 3920.2366 21
-2217.8276 1253.6073 4031.2222 21
-2163.7209 1236.3416 3975.7009 21
-2109.0012 1218.3416 3917.8181 21
-2091.3972 1221.6207 3928.3628 21
-2073.926 1225.0521 3939.3972 21
-2079.8606 1242.5447 3995.6479 21
-2064.4612 1247.548 4011.7371 21
-1999.4572 1222.3428 3930.6848 21
-1967.4243 1216.9374 3913.3027 21
-1943.4663 1216.4573 3911.759 21
-1919.9071 1216.2184 3910.9907 21
-1892.1503 1213.282 3901.5481 21
-1830.645 1188.3651 3821.4229 21
-1800.4878 1183.4285 3805.5483 21
-1761.9065 1172.7594 3771.2397 21
-1738.5422 1172.0751 3769.0391 20
-1737.3481 1186.5138 3815.4697 21
-1709.0536 1182.5813 3802.824 20
-1687.5642 1183.3154 3805.1848 20
-1670.936 1187.5243 3818.7192 19
-1617.9399 1165.6473 3748.3696 19
-1621.7816 1184.6802 3809.5735 19
-1602.4568 1187.089 3817.3193 19
-1579.7288 1187.0095 3817.0637 19
-1531.7874 1167.7072 3754.9932 19
-1510.0277 1168.0886 3756.22 19
-1512.9542 1187.8635 3819.8101 19
-1490.0817 1187.6758 3819.2061 19
-1465.1472 1185.8134 3813.2175 19
-1438.8827 1182.7994 3803.5254 19
-1396.8745 1166.5419 3751.2458 19
-1372.3422 1164.5885 3744.9646 19
-1369.2357 1181.0524 3797.9072 18
-1354.817 1188.1458 3820.7175 20
-1335.3679 1190.9938 3829.876 20
-1313.7555 1191.9777 3833.0396 20
-1344.1083 1240.9736 3990.5962 19
-1265.5538 1189.3735 3824.6655 19
-1289.4225 1233.9043 3967.8633 19
-1225.3601 1194.3813 3840.7693 19
-1212.3391 1204.0552 3871.8772 19
-1276.9261 1292.6666 4156.8252 19
-1168.6884 1206.3677 3879.3137 19
-1185.9817 1248.7838 4015.7112 19
-1161.7397 1248.3068 4014.177 19
-1102.9464 1209.9076 3890.697 19
-1171.0634 1312.059 4219.1851 19
-1096.8655 1255.7395 4038.0786 19
-999.3656 1169.6354 3761.1938 19
-983.79315 1177.6764 3787.0515 19
-983.26843 1204.5267 3873.3938 19
-966.01971 1211.6836 3896.408 19
-945.15637 1214.5461 3905.6133 21
-956.47571 1259.9459 4051.6052 21
-902.86884 1219.9556 3923.0085 21
-882.46753 1223.9044 3935.7068 21
-875.37238 1247.0232 4010.0498 21
-859.52057 1258.6099 4047.3088 21
-849.77344 1280.0574 4116.2773 21
-823.96381 1277.8618 4109.2173 21
-799.30127 1277.3657 4107.6221 21
-775.41266 1278.114 4110.0283 21
-754.04883 1283.2075 4126.4077 21
-732.29724 1287.9606 4141.6919 21
-711.4433 1294.6765 4163.2886 21
-684.94861 1291.2416 4152.2427 18
-662.34973 1295.1685 4164.8701 18
-635.24023 1290.2378 4149.0146 19
-611.78784 1292.637 4156.73 19
-586.12781 1290.3774 4149.4639 18
-562.02344 1291.4949 4153.0571 18
-537.98865 1292.8818 4157.5171 18
-513.83728 1294.1082 4161.4604 18
-489.30975 1294.4631 4162.6021 18
-465.34058 1296.4113 4168.8667 18
-441.11563 1297.8256 4173.4146 19
-416.26315 1297.4515 4172.2119 19
-391.40063 1296.9973 4170.7515 18
-367.91229 1301.3424 4184.7236 18
-341.8783 1296.6604 4169.668 20
-316.565 1294.1954 4161.7412 21
-291.39175 1291.9348 4154.4717 21
-266.20657 1289.199 4145.6743 21
-241.62262 1289.1147 4145.4033 21
-216.89128 1288.136 4142.2559 21
-192.24544 1287.48 4140.1465 21
-167.0768 1282.6188 4124.5142 21
-142.41885 1280.6835 4118.291 21
-118.36327 1284.4849 4130.5151 21
-93.403084 1277.8921 4109.3149 21
-69.155319 1279.8339 4115.5586 21
-44.789513 1280.5161 4117.7529 21
-20.343763 1277.8112 4109.0542 21
4.0252728 1283.5199 4127.4121 21
28.427057 1280.9001 4118.9878 21
52.515236 1273.0985 4093.8999 21
76.368248 1266.328 4072.1279 21
100.41722 1265.278 4068.7512 21
124.35221 1263.4766 4062.9585 21
148.3156 1262.5013 4059.8225 21
172.56516 1263.8943 4064.3018 18
196.68347 1264.1024 4064.9712 19
219.7093 1258.0099 4045.3794 19
244.24918 1260.9324 4054.7773 20
268.25314 1260.8124 4054.3916 20
289.34656 1248.157 4013.6956 21
312.10889 1244.0765 4000.574 19
336.15842 1245.3408 4004.6396 19
359.26923 1243.1901 3997.7236 19
383.79367 1245.8945 4006.4202 19
406.06805 1241.4052 3991.9834 19
427.4967 1234.9667 3971.2795 19
450.41226 1233.2716 3965.8286 19
472.4957 1229.5791 3953.9546 19
495.21603 1227.8147 3948.281 19
514.97327 1219.1943 3920.5605 20
540.51465 1224.4213 3937.3684 19
564.24023 1225.2721 3940.1047 19
558.79114 1165.219 3746.9922 19
578.49524 1160.2024 3730.8601 19
599.68286 1158.4209 3725.1313 19
620.82214 1156.6757 3719.5195 19
642.59601 1156.1921 3717.9644 19
656.17651 1141.4874 3670.6785 19
672.22198 1131.8767 3639.7734 19
689.14825 1124.3007 3615.4111 19
717.25073 1134.865 3649.3828 19
737.43457 1132.6483 3642.2546 19
755.70068 1127.6962 3626.3298 19
777.62457 1128.325 3628.3521 19
800.93469 1130.8774 3636.5598 19
821.77533 1129.9006 3633.4189 19
842.11536 1128.3031 3628.2817 18
862.12256 1126.3502 3622.0017 18
876.51703 1117.3374 3593.0193 18
896.04559 1115.1415 3585.9578 18
926.40039 1126.2086 3621.5466 18
941.39935 1118.5295 3596.8528 18
952.83539 1107.0507 3559.9404 17
969.75977 1102.3079 3544.689 17
983.3877 1094.0985 3518.29 65552
861.10822 938.1615 3016.8438 65551
863.28424 921.40198 2962.9502 131082
878.2196 918.65741 2954.1245 393220
895.05914 917.97302 2951.9238 2298644
917.11548 922.56281 2966.6831 6179647
943.42035 931.17322 2994.3716 8350554
960.47815 930.50714 2992.2297 9271399
982.21838 934.3194 3004.4885 9665898
1000.3598 934.63348 3005.4988 9534055
1019.18 935.55963 3008.4771 9336677
1039.3552 937.67639 3015.2839 8941919
1056.5939 937.11731 3013.4858 8941919
1066.448 930.13593 2991.0359 8876125
1080.1992 926.7262 2980.0715 6770234
1102.8009 930.89728 2993.4841 6375218
1114.8317 926.15417 2978.2317 8020560
1142.5046 934.35138 3004.5916 8810076
1153.4871 928.85669 2986.9224 8547419
1173.9391 931.03845 2993.9382 8481626
1191.4821 930.88245 2993.4365 8217940
1205.8877 928.31573 2985.1829 8152404
1214.432 921.37634 2962.8679 8481369
1228.4232 918.70844 2954.2886 9205093
1239.9445 914.29413 2940.0935 9270886
1262.7825 918.23126 2952.7542 9073507
1287.1064 923.1264 2968.4956 9073507
1307.0508 924.79077 2973.8477 9205093
1321.8906 922.84735 2967.5981 9007714
1338.5636 922.21783 2965.574 8942178
1358.7517 923.99518 2971.2891 9008227
1373.4869 922.06628 2965.0864 9073509
1397.5607 926.3761 2978.9456 8744544
1415.2742 926.4151 2979.071 9205095
1424.6842 921.08484 2961.9304 9073509
1442.2893 921.11816 2962.0376 8876130
1462.5106 922.80133 2967.4502 8349529
1477.0632 920.91028 2961.3691 8941921
1500.2734 924.39795 2972.5845 8612955
1514.3442 922.23889 2965.6414 8876127
1543.613 929.27869 2988.2793 9007457
1562.2263 929.81677 2990.0095 8677980
1569.6298 923.74573 2970.4871 9007716
1587.4128 923.85016 2970.8228 8678750
1604.6991 923.66614 2970.2312 8744286
1625.4558 925.46228 2976.0068 8152405
1638.0459 922.61993 2966.8667 7955026
1653.6322 921.50757 2963.2898 8153174
1674.6851 923.43298 2969.4814 7495244
1684.639 919.26196 2956.0686 8152405
1699.625 917.89441 2951.6709 8415576
1730.9573 925.29266 2975.4614 8415577
1735.91 918.58258 2953.884 8481370
1742.4513 912.83868 2935.4133 8612700
1767.1272 916.61493 2947.5564 8678749
1776.6826 912.55084 2934.4875 8481369
1792.6174 911.81049 2932.1069 7823440
1827.5371 920.64825 2960.5264 8218198
1858.5134 927.35016 2982.0779 8481370
1870.6538 924.61584 2973.2852 8547163
1899.4318 930.07935 2990.854 8218198
1899.9917 921.75226 2964.0767 8481370
1931.2993 928.35785 2985.3184 8810078
1957.4651 932.39429 2998.2981 8283991
1964.2861 927.22662 2981.6804 8349527
1987.3279 929.73962 2989.7615 7494475
2006.222 930.2851 2991.5156 8086355
2016.4015 926.81519 2980.3577 8086612
2034.5646 927.04346 2981.0916 8152404
2054.6252 928.12488 2984.5691 7889233
2058.4854 921.93219 2964.6553 8349784
2071.5667 919.93933 2958.2468 7691854
2082.6089 917.08185 2949.0581 8086611
2099.4333 916.79694 2948.1418 8020819
2129.6558 922.31934 2965.9001 8218196
2158.0593 926.96991 2980.8552 8152403
2176.0798 927.12122 2981.3418 8152403
2197.4495 928.68567 2986.3723 8152403
2217.3604 929.61346 2989.356 8415574
2230.2378 927.60107 2982.8848 8744283
2264.9243 934.62012 3005.4558 8349782
2284.5337 935.35638 3007.8232 8152146
2312.2915 939.39172 3020.7998 7823694
2335.6011 941.57166 3027.8098 8744793
2379.2051 951.83765 3060.822 7691335
2380.3828 945.10333 3039.1665 6835772
2372.1487 934.76135 3005.9099 6309428
2407.2637 941.52826 3027.6702 6638394
2372.2244 920.95917 2961.5264 5256743
2396.1836 923.42902 2969.4685 5651503
2424.1704 927.4035 2982.2493 5783347
2405.4832 913.59381 2937.8416 4335902
2409.0032 908.35626 2920.999 4862250
2442.3186 914.34821 2940.2673 2692626
2447.0911 909.64502 2925.1433 917761
2463.0149 909.12415 2923.4685 983040
2444.0593 895.82611 2880.7061 1048576
2447.4688 890.85309 2864.7144 6375482
2460.321 889.3623 2859.9202 12690059
2482.1223 891.10443 2865.5225 12689031
2498.6489 890.94208 2865.0005 12425342
2520.9766 892.83655 2871.0923 12425345
2537.9241 892.81293 2871.0164 12622722
2551.7251 891.69 2867.4055 12687747
2550.7295 885.44562 2847.3254 12819850
2564.9255 884.52216 2844.356 8017474
2595.7422 889.30499 2859.7361 8676179
2635.7805 897.16467 2885.0105 10782325
2660.3818 899.70251 2893.1714 11374717
2688.1951 903.28711 2904.6982 11572354
2703.7939 902.74792 2902.9644 10848375
2726.3989 904.53986 2908.7268 10782582
2734.5872 901.5564 2899.1328 10387826
2765.1008 905.92456 2913.1794 10256240
2774.2085 903.26886 2904.6396 10124396
0 0 0 0
0 0 0 0
0 0 0 0
0 0 0 0
0 0 0 0
0 0 0 0
-3437.0115 1210.4694 3819.7117 14
-3420.8818 1212.7761 3826.9907 14
-3390.4885 1210.0232 3818.3037 14
-3344.9507 1201.7921 3792.3298 14
-3354.9263 1213.5297 3829.3687 14
-3332.4563 1213.6112 3829.6257 14
-3313.8542 1215.1119 3834.3616 15
-3281.9058 1211.7059 3823.6138 16
-3258.6895 1211.499 3822.9607 18
-3237.1836 1211.9294 3824.3188 18
-3220.9761 1214.3635 3832 19
-3184.8921 1209.2852 3815.9751 19
-3153.8577 1206.0653 3805.8145 19
-3130.4651 1205.7423 3804.7952 19
-2950.6099 1144.7136 3612.2153 18
-2931.2375 1145.5087 3614.7241 18
-2891.4075 1138.2618 3591.8564 19
-2867.7478 1137.3206 3588.8857 19
-3016.5601 1205.2769 3803.3264 19
-2999.6433 1207.5402 3810.4685 19
-2977.7117 1207.8038 3811.3005 19
-2948.8494 1205.2389 3803.2065 21
-2917.4458 1201.5879 3791.6855 21
-2738.5044 1136.6429 3586.7478 21
-2742.7727 1147.3199 3620.4397 21
-2712.2014 1143.4766 3608.3118 21
-2712.823 1152.8279 3637.8203 21
-2694.5784 1154.2474 3642.2998 21
-2679.3064 1156.9735 3650.9021 21
-2752.6619 1198.3265 3781.394 21
-2741.8491 1203.4163 3797.4553 21
-2707.4541 1198.1544 3780.8508 21
-2688.2205 1199.5699 3785.3179 21
-2665.0125 1199.2209 3784.2166 21
-2643.9438 1199.837 3786.1606 21
-2628.355 1202.9717 3796.0522 21
-2606.958 1203.4791 3797.6536 21
-2584.7837 1203.6334 3798.1404 21
-2562.853 1203.9049 3798.9971 21
-2540.6631 1204.0583 3799.4814 21
-2532.3738 1210.8612 3820.948 21
-2507.7131 1209.8881 3817.8774 21
-2473.0344 1204.0198 3799.3596 21
-2449.6841 1203.6099 3798.0659 21
-2426.9961 1203.5206 3797.7847 21
-2416.9155 1209.7401 3817.4106 21
-2447.0769 1236.4099 3901.5688 21
-2411.6536 1230.135 3881.7678 21
-2440.863 1257.0247 3966.6199 21
-2333.0938 1213.2083 3828.3545 21
-2307.7092 1211.7921 3823.8857 21
-2281.9258 1210.1362 3818.6606 21
-2265.4297 1213.4218 3829.0283 21
-2249.5452 1217.1049 3840.6504 21
-2235.9421 1222.1102 3856.4448 21
-2214.7078 1223.0045 3859.2671 21
-2194.4099 1224.4402 3863.7976 21
-2181.8049 1230.2439 3882.1116 21
-2164.5935 1233.5461 3892.532 21
-2132.5471 1228.3745 3876.2124 21
-2113.6365 1230.7389 3883.6736 21
-2088.3542 1229.4045 3879.4629 21
-2074.271 1234.7067 3896.1938 21
-2054.8325 1236.9044 3903.1292 21
-2032.6669 1237.4921 3904.9834 21
-2011.3694 1238.6277 3908.5671 21
-1987.0176 1237.8871 3906.2302 21
-1966.1802 1239.3442 3910.8281 21
-1930.8326 1231.5811 3886.3308 21
-1905.8817 1230.3417 3882.4199 21
-1883.5065 1230.7552 3883.7249 21
-1859.8696 1230.3444 3882.4285 21
-1838.5569 1231.48 3886.012 21
-1815.4821 1231.4491 3885.9143 21
-1786.0553 1227.0535 3872.0439 21
-1714.6787 1193.348 3765.6843 21
-1677.8634 1183.1243 3733.4224 21
