# .PCD v0.7 - Point Cloud Data file format
VERSION 0.7
FIELDS x y z rgb
SIZE 4 4 4 4
TYPE F F F U
COUNT 1 1 1 1
WIDTH 1377
HEIGHT 1
VIEWPOINT 0 0 0 1 0 0 0
POINTS 1377
DATA ascii
472.21548 977.88776 4929.4551 19
500.04865 975.19684 4915.8901 19
527.53845 972.16937 4900.6289 19
555.82477 970.84912 4893.9736 19
581.40094 965.16077 4865.2993 19
602.43298 952.82294 4803.105 19
631.64008 953.94489 4808.7607 19
657.90009 950.71118 4792.46 19
687.99664 953.05981 4804.2993 19
715.26996 951.46625 4796.2661 19
743.28656 950.94543 4793.6406 19
774.14844 953.96912 4808.8828 18
803.51923 955.00592 4814.1094 18
831.62836 954.5235 4811.6772 18
857.23535 951.29639 4795.4097 18
888.17224 954.00122 4809.0449 18
907.28253 944.22974 4759.7876 18
933.9353 942.66052 4751.877 18
954.42877 935.14819 4714.0083 18
976.90369 929.94934 4687.8013 18
1009.0175 933.96002 4708.0186 18
1016.0792 915.19012 4613.4009 18
1043.6913 915.42871 4614.604 18
1071.1189 915.49756 4614.9507 18
1118.8805 932.50983 4700.7085 17
1144.843 930.96899 4692.9414 16
1146.0861 909.87653 4586.6157 15
1141.2876 885.07605 4461.5981 65548
1118.6208 847.85547 4273.9722 327684
1118.4994 828.9928 4178.8872 2431511
1185.6865 859.75354 4333.9497 7035462
1205.8331 855.82355 4314.1387 8350806
1201.2336 834.85815 4208.4541 9271395
1224.4285 833.66974 4202.4634 9139809
1238.6021 826.50897 4166.3662 8942172
1267.8391 829.48346 4181.3604 8876380
1299.6127 833.97144 4203.9839 9336932
1328.4768 836.4588 4216.5225 9336676
1358.6978 839.69281 4232.8252 9270885
1384.6654 840.22858 4235.5259 9402470
1412.4934 841.85413 4243.7202 9468261
1441.7084 844.23499 4255.7217 9139553
1471.0995 846.63531 4267.8218 7823693
1508.6554 853.5741 4302.7993 7626315
1511.946 841.21753 4240.5112 8810846
1531.2722 838.04108 4224.499 9139811
1553.6488 836.60944 4217.2822 8942431
1575.7906 835.09882 4209.667 9337189
1603.0145 836.2865 4215.6538 9139811
1627.7922 836.18109 4215.1226 8942432
1651.5347 835.55505 4211.9668 8942432
1670.5851 832.60925 4197.1172 8679514
1700.3771 835.0249 4209.2944 8679001
1737.0309 840.69159 4237.8599 7692106
1752.1959 835.94489 4213.9321 8679000
1768.29 831.76868 4192.8799 8876380
1799.4333 834.6889 4207.6006 9008222
1823.0089 834.06683 4204.4648 9205345
1847.6814 833.95673 4203.9097 9139552
1872.4934 833.91156 4203.6821 9074016
1897.5101 833.95764 4203.9146 8876380
1920.2124 832.99841 4199.0791 8876380
1944.8093 832.87518 4198.458 8942172
1968.1127 832.20813 4195.0952 8481878
1990.7267 831.26996 4190.3657 8744794
1999.1332 824.49518 4156.2148 8415572
1992.6191 811.80658 4092.2529 8350036
2039.7042 820.99731 4138.5825 8810587
2081.2102 827.75049 4172.625 8876381
2101.7375 826.09949 4164.3022 8744794
2117.5027 822.63672 4146.8467 8810587
2141.7012 822.49213 4146.1177 8942430
2147.5027 815.36572 4110.1943 8547414
2184.3201 820.04327 4133.7734 8810330
2213.6057 821.82092 4142.7344 8152657
2246.1841 824.76862 4157.5933 8021071
2282.2151 828.90631 4178.4512 8218449
2303.5298 827.66754 4172.2065 7823690
2327.2053 827.29425 4170.3252 7494725
2361.499 830.66388 4187.311 8087118
2370.3352 825.10187 4159.2729 7757640
2353.4858 810.80524 4087.2048 7692360
2404.5713 819.96588 4133.3828 8021585
2427.7988 819.5379 4131.2256 5455412
2466.1433 824.17053 4154.5781 458752
2389.376 790.62201 3985.4631 786433
2386.1404 781.82318 3941.1089 589828
2397.9231 778.06799 3922.1792 524288
2393.8735 769.297 3877.9651 1840661
2429.4897 773.3186 3898.2378 11378316
2485.6047 783.72791 3950.7104 11444107
2487.3665 776.9649 3916.6187 12101264
2504.5249 775.09192 3907.177 12561559
2501.2515 766.98785 3866.3252 10455926
2581.7825 784.49561 3954.5806 8613980
2604.3787 784.24292 3953.3064 9074535
2729.6875 814.64819 4106.5771 3614748
2703.3682 799.66406 4031.0432 917504
2711.8972 795.1604 4008.3406 1179904
2715.396 789.27283 3978.6616 3285273
2785.1401 802.57605 4045.7224 7692107
2771.8728 791.93555 3992.0845 8282957
2736.1475 775.11316 3907.2839 11244640
2769.7334 778.04315 3922.054 11506783
2866.4495 798.51068 4025.229 12098920
2856.8921 789.27991 3978.6975 12362353
2882.8777 789.93939 3982.0222 11310182
2915.3757 792.35834 3994.2156 11244399
2931.6111 790.3537 3984.1106 11178354
3024.8643 808.97913 4078 9861984
3110.8223 825.37372 4160.6436 10454122
3174.2253 835.57312 4212.0581 11309689
3178.4771 830.16412 4184.7915 9993831
3156.0574 817.9267 4123.1035 3942171
3026.5967 778.34949 3923.5981 2232585
3084.1736 787.10944 3967.7566 8548429
3102.873 785.89014 3961.6099 7496258
3141.813 789.77698 3981.2034 4338194
3339.2458 833.15039 4199.8452 8088147
3312.6394 820.39716 4135.5571 10390913
3227.7039 793.49182 3999.9292 13616316
3291.8955 803.37256 4049.7373 13881544
3291.4736 797.45569 4019.9109 13881287
3295.6943 792.74054 3996.1426 13816006
3338.5696 797.3244 4019.249 13153964
3337.4878 791.41956 3989.4836 12296340
3385.0078 797.04187 4017.8252 9138786
3418.2498 799.24719 4028.9419 8415579
3427.7961 795.9198 4012.1687 8613217
3442.0676 793.72784 4001.1194 8021592
3467.7371 794.17627 4003.3796 7363666
3426.9744 779.50781 3929.437 5982270
3470.9119 784.1734 3952.9558 2955802
3467.7058 778.19678 3922.8286 2758938
3507.0947 781.79492 3940.9666 2430229
3502.8162 775.67572 3910.1199 3351333
3563.6292 783.95624 3951.8613 3153695
3551.6907 776.22864 3912.9072 3745061
3548.0078 770.39392 3883.4949 7101006
3523.3875 760.11743 3831.6919 7758418
3595.2322 770.65021 3884.7866 11574150
3559.5967 758.15674 3821.8081 12758163
3656.0303 773.77277 3900.5273 12823958
3709.5862 780.17474 3932.7993 12428944
3782.4976 790.54224 3985.0605 12494993
3808.8691 791.11444 3987.9453 11705479
0 0 0 0
0 0 0 0
0 0 0 0
0 0 0 0
0 0 0 0
-4157.7959 937.85535 4590.5195 12
-4383.394 995.25446 4871.4707 12
-4295.1704 981.68872 4805.0703 12
-4249.7148 977.78192 4785.9482 12
-4245.7827 983.44073 4813.646 12
-4143.4268 966.22418 4729.376 12
-4089.9326 960.245 4700.1099 12
-4071.3977 962.44794 4710.8926 14
-4044.0693 962.58813 4711.5791 14
-4012.1655 961.63373 4706.9077 14
-3720.0447 897.86078 4394.7578 14
-3770.095 916.3562 4485.2876 14
-3888.907 951.94617 4659.4897 13
-3808.0305 938.81488 4595.2158 15
-3779.7285 938.54919 4593.9155 15
-3759.8401 940.38403 4602.8965 16
-3735.406 941.10046 4606.4033 16
-3710.1326 941.61444 4608.9189 16
-3684.0513 941.92944 4610.4609 16
-3652.7241 940.89795 4605.4121 16
-3624.1558 940.56689 4603.7915 16
-3594.4629 939.93671 4600.707 16
-3568.2422 940.21185 4602.0537 16
-3563.2075 946.11664 4630.9556 16
-3547.603 949.28461 4646.4624 18
-3512.8074 947.32684 4636.8794 18
-3502.2817 951.93494 4659.4346 18
-3472.1243 951.23767 4656.022 18
-3451.3091 953.10944 4665.1836 18
-3427.9614 954.30627 4671.0415 18
-3399.3025 954.03198 4669.6992 18
-3374.9517 954.97223 4674.3013 18
-3336.5322 951.91412 4659.333 18
-3310.1494 952.26782 4661.064 18
-3283.3091 952.49469 4662.1748 16
-3256.7764 952.81543 4663.7446 16
-3228.7712 952.70721 4663.2148 16
-3196.2876 951.26428 4656.1519 16
-3166.218 950.52081 4652.5132 16
-3142.5139 951.69214 4658.2466 16
-3113.3091 951.20361 4655.855 16
-3076.5312 948.37189 4641.9946 16
-3049.5444 948.53442 4642.79 16
-3017.5969 947.14294 4635.9795 16
-2987.0396 946.16614 4631.1982 16
-2957.157 945.38702 4627.3848 16
-2926.4077 944.31366 4622.1309 16
-2893.51 942.5202 4613.3525 16
-2862.5938 941.34406 4607.5957 16
-2831.8772 940.21149 4602.0522 16
-2802.1067 939.37415 4597.9536 16
-2772.1729 938.46521 4593.5044 18
-2742.5671 937.65021 4589.5151 18
-2712.2043 936.55756 4584.167 18
-2684.2483 936.28223 4582.8193 18
-2653.1292 934.88672 4575.9888 18
-2621.9299 933.43384 4568.8774 18
-2590.9502 932.0296 4562.0044 19
-2561.2588 931.06415 4557.2783 19
-2534.7976 931.26471 4558.2603 19
-2512.155 932.88776 4566.2046 19
-2487.6011 933.82867 4570.8101 19
-2462.0811 934.42365 4573.7222 19
-2439.5105 936.1637 4582.2393 21
-2413.0007 936.41418 4583.4653 21
-2380.1299 934.17371 4572.499 21
-2353.2957 934.27826 4573.0107 21
-2325.9214 934.16833 4572.4727 21
-2299.103 934.2818 4573.0278 21
-2271.7375 934.17297 4572.4951 21
-2248.9573 935.96973 4581.29 20
-2220.9976 935.62848 4579.6196 20
-2194.28 935.80872 4580.5015 20
-2167.7195 936.06104 4581.7368 19
-2140.5017 936.03241 4581.5967 19
-2113.1125 935.92712 4581.0815 21
-2089.1323 937.34857 4588.0391 21
-2062.5693 937.63348 4589.4336 21
-2035.2281 937.56757 4589.1108 21
-2007.4707 937.30542 4587.8276 21
-1979.2024 936.79437 4585.3262 21
-1951.9147 936.73956 4585.0581 21
-1924.0868 936.42041 4583.4956 21
-1897.9 936.90216 4585.854 21
-1875.3539 939.22137 4597.2056 21
-1851.0281 940.70428 4604.4644 21
-1822.0898 939.8526 4600.2954 21
-1795.1229 940.00732 4601.0527 21
-1767.6388 939.89185 4600.4873 21
-1740.9594 940.20728 4602.0312 21
-1713.849 940.2962 4602.4668 21
-1687.3225 940.71375 4604.5103 21
-1627.6859 922.38184 4514.7812 21
-1596.2743 919.69922 4501.6504 21
-1568.9427 919.31616 4499.7754 21
-1542.6067 919.51318 4500.7402 21
-1514.9658 918.92578 4497.8647 21
-1495.016 923.06586 4518.1294 21
-1463.865 920.315 4504.6646 21
-1436.9081 920.14764 4503.8457 21
-1416.5529 924.28149 4524.0796 21
-1396.2495 928.60938 4545.2632 21
-1369.4546 928.70514 4545.7319 21
-1344.8245 930.30231 4553.5498 21
-1318.5135 930.77838 4555.8799 21
-1289.3453 929.21521 4548.2285 21
-1262.2919 929.14178 4547.8691 21
-1238.6135 931.60376 4559.9199 21
-1216.0951 935.06738 4576.873 21
-1191.1473 936.77844 4585.2485 21
-1171.7822 943.0625 4616.0068 21
-1147.9059 945.92957 4630.04 21
-1125.6571 950.31097 4651.4858 21
-1087.0273 940.73578 4604.6182 21
-1067.476 947.60352 4638.2339 21
-1048.943 955.76233 4678.1689 21
-1029.4515 963.46716 4715.8813 21
-1004.6855 966.52759 4730.8613 21
-980.24481 970.08575 4748.2773 21
-954.17615 972.19537 4758.6035 21
-928.68909 975.04419 4772.5479 21
-902.47198 977.28162 4783.499 21
-876.11646 979.50922 4794.4028 21
-851.11975 983.45636 4813.7227 21
-824.32312 985.52527 4823.8491 21
-798.16589 988.53467 4838.5796 21
-771.24933 990.79303 4849.6333 21
-745.1842 994.3623 4867.104 21
-717.92108 996.55597 4877.8413 21
-690.51178 998.72241 4888.4453 21
-663.25952 1001.3156 4901.1382 21
-635.86108 1003.9154 4913.8638 21
-607.98199 1005.9698 4923.9189 21
-580.72687 1009.3155 4940.2954 21
-552.66498 1011.54 4951.1836 21
-523.90082 1012.6565 4956.6484 21
-495.2811 1014.2013 4964.21 21
-465.73416 1013.9228 4962.8467 21
-436.87726 1015.21 4969.1475 21
-408.65369 1018.2618 4984.0845 21
-384.51926 1032.7716 5055.106 21
-350.40088 1020.6522 4995.7847 21
-320.45361 1019.5667 4990.4717 21
-296.72113 1040.0439 5090.7017 21
-266.80817 1041.0414 5095.584 21
-236.21983 1039.3219 5087.1675 21
-206.11037 1039.5144 5088.1099 21
-176.08162 1040.2498 5091.7095 21
-145.72769 1038.9709 5085.4497 21
-115.6822 1039.7975 5089.4956 21
-87.428833 1062.9966 5203.0483 21
-56.559769 1062.3451 5199.8594 21
-25.966518 1071.5153 5244.7446 21
5.1617365 1081.3154 5292.7129 21
37.122017 1098.9152 5378.8589 21
67.783356 1079.5654 5284.1479 21
96.928383 1055.9261 5168.4404 21
128.23051 1061.496 5195.7031 21
160.17529 1069.1987 5233.4058 21
192.11128 1074.3533 5258.6357 21
222.8076 1072.1039 5247.6255 21
253.39633 1069.9512 5237.0889 21
285.15463 1072.668 5250.3862 21
314.41745 1066.3865 5219.6401 21
340.84543 1052.4764 5151.5552 21
355.91595 1008.6665 4937.1187 21
381.43326 998.86951 4889.1655 21
409.93881 997.72882 4883.582 21
438.01599 995.76483 4873.9688 19
466.0531 993.95819 4865.126 19
493.71042 991.59937 4853.5801 19
521.3374 989.44263 4843.0234 19
548.50031 986.67615 4829.4824 19
574.95764 982.97784 4811.3804 19
600.65784 978.39569 4788.9521 19
625.46967 972.84534 4761.7847 19
650.20502 967.66034 4736.4058 19
673.72528 961.17084 4704.6416 19
702.2348 962.03229 4708.8584 19
732.60956 965.28552 4724.7817 19
760.60535 965.28015 4724.7554 18
787.18335 963.53967 4716.2363 18
815.13342 963.54041 4716.2402 18
841.60394 961.85016 4707.9668 18
868.58685 960.83521 4702.999 18
886.98096 950.67786 4653.2817 18
905.43677 941.19702 4606.876 18
938.12463 946.63245 4633.481 18
961.90216 943.02332 4615.8149 18
986.56415 940.45673 4603.2524 18
1001.0787 928.61548 4545.293 18
1037.5424 937.22156 4587.417 18
1029.5803 906.28271 4435.981 18
1090.7058 936.18427 4582.3398 18
1109.1765 928.91052 4546.7368 18
1138.0348 930.47491 4554.3945 17
1155.0009 922.46881 4515.207 16
1146.54 894.97729 4380.644 196618
1146.0411 874.78058 4281.7871 262147
1024.3949 764.98938 3744.3923 3089436
1115.7271 815.52795 3991.7639 7627860
1168.8499 836.61914 4094.999 8942688
1192.4512 836.15186 4092.7112 8547672
1215.1273 835.06732 4087.4031 9205344
1242.5244 837.20605 4097.8716 8876380
1275.8649 843.19067 4127.1646 9468517
1298.7756 842.18713 4122.2524 9336931
1329.0568 845.91168 4140.4829 9007966
1353.6239 845.9303 4140.5737 9073760
1379.651 846.8443 4145.0479 9336931
1402.5643 845.84869 4140.1743 9073503
1437.8837 852.24023 4171.459 9468519
1450.7031 845.30536 4137.5151 9205604
1474.2383 844.74115 4134.7534 8284502
1487.9258 838.64502 4104.9146 9074018
1517.9926 841.82825 4120.4956 9007968
1542.5046 841.87915 4120.7446 9271397
1561.0437 838.71912 4105.2773 9337190
1582.5088 837.20422 4097.8623 9073761
1609.9432 838.84528 4105.895 8810590
1636.4917 839.98279 4111.4624 8744538
1656.5428 837.80078 4100.7827 6771004
1658.9862 826.90558 4047.4534 7297349
1698.6724 834.61951 4085.2112 8021071
1735.2765 840.62378 4114.6001 8744537
1750.0071 836.01208 4092.0273 8284500
1776.0789 836.87036 4096.2285 8218450
1784.3055 829.41046 4059.7144 8613465
1814.0415 832.0144 4072.4597 9140065
1851.7056 838.13831 4102.4346 9271395
1873.5131 837.01947 4096.958 9139809
1898.5699 837.36243 4098.6367 8876379
1921.5745 836.80286 4095.8979 8415829
1915.891 823.9201 4032.8408 6902591
1956.4863 831.01166 4067.5518 6968128
1987.6832 833.98718 4082.116 8547160
2007.7025 832.25769 4073.6506 8942431
2040.3875 835.7572 4090.7795 8810844
2062.8538 835.03796 4087.2595 8613465
2083.7395 833.70331 4080.7263 8876380
2074.4895 820.48004 4016.0027 8745050
2133.9419 834.42102 4084.2395 8415575
2141.489 827.9809 4052.717 8481112
2156.6836 824.60754 4036.2056 9073505
2183.7249 825.78809 4041.9839 9139298
2203.5022 824.22589 4034.3374 8876126
2234.4265 826.82202 4047.0449 8678747
2260.8418 827.71234 4051.4026 8744796
2270.4878 822.50903 4025.9338 8876125
2283.689 818.68842 4007.2332 8744794
2325.1733 824.98138 4038.0354 8613465
2327.7913 817.49683 4001.4006 7758671
2377.3257 826.47351 4045.3386 8153434
2433.8779 837.68634 4100.2222 3878438
2383.832 812.3515 3976.2158 262147
2375.8689 801.71301 3924.1438 458758
2387.0132 797.66589 3904.3342 393220
2373.6714 785.59253 3845.2388 196609
2363.4153 774.76031 3792.2185 8682598
2413.4031 783.69495 3835.9507 9731942
2451.9961 788.79712 3860.9243 9995112
2474.8665 788.79382 3860.9082 9600100
2482.3313 783.92548 3837.0793 9336928
2527.3298 790.8913 3871.1746 10060908
2577.5457 799.34961 3912.5754 9797738
2609.093 801.91925 3925.1531 10126964
2620.179 798.21021 3906.9983 10719103
2695.0957 813.84113 3983.5071 1246468
2685.7983 803.99121 3935.2947 6246198
2708.5076 803.80951 3934.4055 8020297
2751.7507 809.67285 3963.1047 5585702
2775.1711 809.65363 3963.0105 9928022
2773.3247 802.32501 3927.1392 11639127
2787.405 799.68774 3914.2305 11834966
2793.2859 794.76093 3890.1155 11834969
2851.7271 804.74719 3938.9949 10782290
2865.5938 802.0946 3926.0115 9862230
2876.064 798.54169 3908.6211 10323558
2942.3899 810.43011 3966.8113 10586733
3017.4321 824.51172 4035.7366 10520427
3013.9546 817.08527 3999.386 8875860
3031.7385 815.49359 3991.5955 9467999
3031.8293 809.20422 3960.8108 9928294
3119.4634 826.19745 4043.9878 7890253
3064.4382 805.4361 3942.3672 7561023
3068.8325 800.48816 3918.1484 7561027
3120.3635 807.8175 3954.0234 10588792
3168.1499 814.07538 3984.6538 7561550
3170.6101 808.68005 3958.2454 8219233
3243.7332 821.25452 4019.7937 2956825
3174.5598 797.88135 3905.3889 9602430
3134.7883 782.1828 3828.5493 12168616
3283.1465 813.31415 3980.928 14012103
3318.0034 816.08496 3994.49 13881285
3349.6846 818.04077 4004.0632 13746861
3379.8572 819.60333 4011.7117 12428947
3347.8108 806.16156 3945.9182 10258291
3319.8127 793.87451 3885.7764 8349783
3387.8118 804.55438 3938.0513 8284505
3417.2285 805.98822 3945.0696 7956309
3445.6011 807.1579 3950.7949 7232587
3474.4536 808.42346 3956.9893 6969421
3476.0693 803.3772 3932.2893 6179652
3489.3213 801.06964 3920.9946 1969674
3445.9841 785.8869 3846.6794 720896
3489.3506 790.5473 3869.4907 1969420
3506.7585 789.30402 3863.4053 2297870
3403.1506 761.0152 3724.9402 2100490
3414.5374 758.64062 3713.3174 2495247
3535.95 780.58533 3820.73 6244412
3508.6948 769.64026 3767.157 11113094
3600.3171 784.74463 3841.0884 13877165
3678.4624 796.74011 3899.803 12626582
3694.1477 795.14172 3891.9792 11179137
3755.3147 803.29218 3931.8733 12823960
0 0 0 0
0 0 0 0
0 0 0 0
0 0 0 0
0 0 0 0
-4114.5054 955.01166 4542.7236 12
-4457.8687 1041.5238 4954.2378 12
-4146.5054 975.20062 4638.7568 12
-4110.3369 973.14587 4628.9829 12
-4194.6333 999.77618 4755.6558 13
-4093.4041 982.24811 4672.2793 14
-4044.6379 977.15601 4648.0576 14
-4030.8643 980.50598 4663.9927 14
-4002.5273 980.33514 4663.1802 14
-3974.2764 980.18329 4662.4575 14
-3701.9202 919.40356 4373.3457 14
-3750.7778 938.10547 4462.3057 14
-3867.5945 974.19092 4633.9541 14
-3776.519 958.05304 4557.1904 14
-3751.6411 958.59692 4559.7778 14
-3724.2734 958.50806 4559.355 15
-3699.896 959.19305 4562.6133 16
-3675.0874 959.77557 4565.3843 16
-3651.3921 960.65961 4569.5894 16
-3625.3691 960.93994 4570.9224 15
-3595.2654 960.13458 4567.0918 15
-3565.4199 959.3866 4563.5337 15
-3542.731 960.56757 4569.1514 15
-3549.3984 969.7876 4613.0083 16
-3505.1506 965.13141 4590.8604 16
-3480.1177 965.73462 4593.7295 18
-3468.0518 969.974 4613.895 18
-3437.5122 969.07281 4609.6084 18
-3420.8306 972.09515 4623.9849 18
-3400.1096 974.00928 4633.0898 15
-3370.947 973.51666 4630.7466 16
-3345.8525 974.20026 4633.9985 16
-3317.2834 973.87537 4632.4526 16
-3291.3306 974.31934 4634.5649 16
-3262.4729 973.90387 4632.5884 16
-3232.5481 973.15985 4629.0493 271
-3201.5618 972.08093 4623.917 271
-3168.3306 970.2959 4615.4263 15
-3141.0559 970.3197 4615.5396 16
-3112.2004 969.85138 4613.312 16
-3078.6887 967.91089 4604.0815 16
-3048.8518 967.10144 4600.231 16
-3020.8545 966.86603 4599.1113 16
-2993.9106 966.96661 4599.5898 16
-2960.1377 964.84308 4589.4888 16
-2930.1667 963.93097 4585.1504 16
-2895.9312 961.58575 4573.9946 16
-2865.8884 960.60156 4569.313 16
-2834.4475 959.12537 4562.2915 16
-2804.5037 958.13239 4557.5679 16
-2774.6892 957.16473 4552.9648 17
-2745.5447 956.41125 4549.3809 18
-2716.7471 955.76501 4546.3071 18
-2686.3157 954.52533 4540.4102 18
-2655.6519 953.17706 4533.9966 18
-2625.4907 951.98346 4528.3193 19
-2598.1477 951.79773 4527.4355 19
-2566.7625 950.11163 4519.4155 19
-2538.4446 949.53754 4516.6846 19
-2510.0007 948.90363 4513.6689 19
-2490.4163 951.64124 4526.6914 18
-2464.2209 951.88495 4527.8506 19
-2437.2539 951.83264 4527.6016 20
-2415.7878 953.95135 4537.6797 20
-2385.3167 952.52185 4530.8799 19
-2355.51 951.32806 4525.2017 20
-2327.3113 950.76367 4522.5171 20
-2298.3042 949.85217 4518.1812 21
-2271.8345 949.9801 4518.79 21
-2244.6411 949.80493 4517.9565 21
-2220.8091 951.065 4523.9502 21
-2196.7842 952.27228 4529.6929 21
-2171.052 952.76019 4532.0137 21
-2142.9072 952.18817 4529.293 21
-2116.8474 952.53998 4530.9663 20
-2090.2512 952.65625 4531.5195 21
-2064.2029 953.02863 4533.2905 21
-2038.8604 953.74084 4536.6787 21
-2011.5889 953.55792 4535.8081 21
-1985.6934 954.03088 4538.0581 21
-1955.1259 952.24152 4529.5469 21
-1926.7734 951.49615 4526.001 21
-1901.9917 952.51794 4530.8613 21
-1878.0209 953.9809 4537.8203 21
-1852.037 954.44897 4540.0469 21
-1827.9755 955.9361 4547.1206 21
-1800.3313 955.56622 4545.3613 21
-1774.2771 956.04175 4547.623 21
-1745.9617 955.29474 4544.0698 21
-1718.4215 954.95508 4542.4546 21
-1691.3926 954.89343 4542.1611 21
-1667.9662 956.89648 4551.689 21
-1640.5292 956.62659 4550.4053 21
-1616.1188 958.14209 4557.6143 21
-1585.1573 955.75928 4546.2798 21
-1525.2554 935.54285 4450.1157 21
-1527.121 953.16779 4533.9526 21
-1505.7035 956.63135 4550.4282 21
-1478.8768 956.72211 4550.8599 21
-1447.5381 953.8429 4537.1641 21
-1420.8916 954.00531 4537.9365 21
-1377.6039 942.78516 4484.5654 21
-1362.5969 950.8587 4522.9688 21
-1337.8782 952.34314 4530.0298 21
-1312.9828 953.75995 4536.7695 21
-1286.9543 954.39581 4539.7939 21
-1262.3037 956.10236 4547.9116 21
-1244.8369 963.44348 4582.8311 20
-1218.5201 964.10962 4586 20
-1193.6302 965.96106 4594.8066 21
-1171.2633 969.98822 4613.9629 21
-1118.2238 948.19904 4510.3179 21
-1096.2939 952.36829 4530.1499 21
-1085.2599 966.44971 4597.1313 21
-1048.8938 958.11682 4557.4937 21
-1041.7281 976.7215 4645.9912 19
-1015.1142 977.60675 4650.2021 19
-986.94019 976.99701 4647.3018 19
-962.82611 980.48682 4663.9014 19
-941.6322 987.24432 4696.0454 19
-916.92566 990.61859 4712.0957 19
-890.3656 992.1394 4719.3296 19
-865.59949 995.82269 4736.8501 19
-841.56433 1000.622 4759.6792 21
-814.83783 1002.4432 4768.3423 21
-788.79132 1005.2619 4781.7495 21
-762.35297 1007.7726 4793.6929 21
-735.46448 1009.8597 4803.6201 21
-708.87036 1012.5353 4816.3472 21
-682.00128 1015.0261 4828.1953 21
-655.01678 1017.5558 4840.2285 21
-628.46851 1021.026 4856.7354 21
-601.10065 1023.4338 4868.1885 21
-573.39844 1025.4863 4877.9521 21
-545.62457 1027.6221 4888.1108 21
-517.24408 1028.7905 4893.6689 21
-489.14667 1030.6943 4902.7246 21
-460.7753 1032.225 4910.0054 21
-431.82812 1032.5848 4911.7178 21
-412.40195 1057.4091 5029.7993 21
-382.21011 1056.3473 5024.7485 21
-351.84915 1054.5992 5016.4336 21
-323.56155 1059.3164 5038.8721 21
-300.37265 1083.3828 5153.3491 21
-271.37509 1089.5752 5182.8047 21
-239.45804 1084.1304 5156.9048 21
-208.11449 1080.0686 5137.584 21
-173.76962 1056.3694 5024.8535 21
-144.05502 1056.837 5027.0786 21
-115.18408 1065.3517 5067.5806 21
-85.974609 1075.6371 5116.5049 21
-55.959824 1081.5652 5144.7031 21
-25.873386 1098.6421 5225.9336 21
5.1020818 1099.8218 5231.5444 21
35.933594 1094.5905 5206.6606 21
66.685333 1092.8853 5198.5498 21
95.606255 1071.7346 5097.9419 21
124.74874 1062.6287 5054.6274 21
154.24686 1059.4917 5039.7061 21
182.42947 1049.8025 4993.6167 21
212.79211 1053.6121 5011.7383 21
246.70207 1071.9014 5098.7349 21
278.59949 1078.4089 5129.6899 21
310.31482 1083.0007 5151.5317 21
333.99295 1061.2324 5047.9863 21
350.40359 1021.8497 4860.6533 21
382.07175 1029.5643 4897.3496 21
405.70013 1016.0544 4833.0869 21
433.12854 1013.2157 4819.584 19
460.73331 1011.1153 4809.5928 19
487.56882 1007.6697 4793.2031 19
514.83368 1005.442 4782.6064 19
540.44049 1000.3777 4758.5171 19
567.89111 999.05939 4752.2461 19
589.55743 988.17041 4700.4502 19
612.80676 980.79767 4665.3804 19
641.56281 982.49451 4673.4517 19
666.48804 978.42706 4654.104 19
696.10333 981.29449 4667.7437 19
720.71454 977.15814 4648.0679 19
744.62177 972.40704 4625.4683 18
770.72455 970.75854 4617.627 18
797.34625 969.85443 4613.3262 18
823.46362 968.41705 4606.4893 18
847.7486 964.98615 4590.1694 18
874.45129 964.43518 4587.5483 18
890.89771 952.94678 4532.9014 18
919.02087 954.25525 4539.1255 18
938.33374 946.60144 4502.7183 18
958.06683 939.78314 4470.2856 18
966.81586 922.84717 4389.7261 18
998.67334 928.27832 4415.5605 18
1032.5605 935.27063 4448.8208 18
1061.0096 937.11176 4457.5786 18
1078.3586 929.29755 4420.4087 18
1106.7953 931.18237 4429.374 17
1126.9952 926.21063 4405.7251 16
1143.8214 918.75415 4370.2568 65550
1142.8073 897.6153 4269.7051 196618
1043.9532 802.20868 3815.8826 393216
0 0 0 0
1138.103 838.24127 3987.2793 7890774
1165.5947 841.02802 4000.5352 8745307
1188.4274 840.40887 3997.5903 8941916
1222.5895 847.66931 4032.126 9468517
1242.6143 845.03717 4019.6057 9534310
1270.0277 847.4342 4031.0078 9600103
1289.9209 844.8175 4018.5608 8942173
1321.0488 849.52032 4040.9307 8876380
1347.6384 851.18915 4048.8689 8876379
1369.9666 850.15509 4043.9502 8942172
1392.425 849.23615 4039.5789 8810330
1421.8676 852.53571 4055.2739 8218450
1422.5144 838.74707 3989.6851 8744793
1459.0717 846.23657 4025.311 8613208
1489.8866 850.20844 4044.2039 8941916
1509.0339 847.50171 4031.3286 7888971
1519.0078 839.80774 3994.7305 8744024
1542.0957 839.48883 3993.2136 8679000
1571.537 842.58606 4007.946 8810587
1591.6118 840.6438 3998.7078 8547158
1623.5316 844.9231 4019.063 8678744
1629.9386 835.9931 3976.5857 8612951
1655.0901 836.79462 3980.3982 8876380
1682.7312 838.81476 3990.0071 8876380
1711.5217 841.34387 4002.0374 8745050
1724.9188 836.34015 3978.2363 8481879
1752.0582 838.04468 3986.3445 8152657
1773.2227 836.88391 3980.8228 8547415
1799.8505 838.29822 3987.5503 8613208
1829.4736 841.05298 4000.6538 8941916
1855.7834 842.2334 4006.269 9073759
1883.7944 844.14648 4015.3687 8021329
1909.8798 845.15961 4020.1877 8350293
1956.4928 855.11963 4067.5649 8087121
1968.3756 849.84259 4042.4636 7692107
1985.7627 847.04041 4029.1343 5915700
1996.9644 841.69763 4003.7205 6244660
1999.3022 832.78833 3961.3413 8350036
2013.2587 828.86914 3942.699 8021071
2047.3748 833.24457 3963.5112 7955278
2054.8853 826.81555 3932.9304 7889484
2107.0161 838.28296 3987.4775 8744794
2118.7056 833.58484 3965.1301 8876380
2134.7488 830.68396 3951.3313 8942428
2157.927 830.59222 3950.895 8942173
2181.8823 830.7984 3951.8757 8942172
2212.1445 833.37622 3964.1377 8613209
2228.2451 830.62073 3951.0308 8547671
2249.8608 829.95715 3947.8743 8744537
2288.9329 835.68042 3975.0981 8810330
2322.1589 839.1745 3991.7185 8416088
2345.7563 839.15363 3991.6191 7693136
2366.0312 837.95648 3985.9248 8351066
2352.1711 824.81311 3923.4055 6705986
2365.551 821.38568 3907.1018 7495761
2331.7439 801.79877 3813.9326 1182729
2364.8279 805.36847 3830.9128 393216
2357.2439 795.15204 3782.3159 9801343
2391.1375 798.98761 3800.5608 8679771
2417.1121 800.13019 3805.9956 8416596
2449.0928 803.22156 3820.7002 9731945
2465.1594 801.08466 3810.5359 9270881
2497.3896 804.19147 3825.314 8876380
2528.4368 806.86487 3838.0305 8810588
2596.5361 821.20917 3906.2625 8086864
2591.6211 812.41162 3864.415 9468517
2638.0312 819.71649 3899.1624 11047548
2691.1919 828.974 3943.1975 7428933
2673.7654 816.51605 3883.9385 9731940
2690.8206 814.71088 3875.3521 8284237
2741.6191 823.06659 3915.0977 8217414
2770.1335 824.64813 3922.6206 10388318
2785.8972 822.43915 3912.113 11638879
2808.4736 822.26123 3911.2668 11703898
2797.3625 812.30402 3863.9031 12230239
2822.334 812.90106 3866.7432 11572320
2791.6829 797.59698 3793.946 9400659
2876.7666 815.33923 3878.3408 10125152
2921.0754 821.33527 3906.8623 9993826
2954.2461 824.12988 3920.1553 10125672
2993.7166 828.62451 3941.5354 9270621
3010.6592 826.86261 3933.1541 9072985
3092.4062 842.789 4008.9116 10060394
3098.0205 837.88202 3985.5706 10784375
3124.5449 838.66174 3989.2795 8810843
3113.8181 829.50616 3945.729 8284247
3061.9595 809.61157 3851.0959 10850431
3147.7537 826.13873 3929.7112 8021590
3175.4014 827.27448 3935.1135 7693141
3171.1196 820.13586 3901.157 7626070
3169.0623 813.67169 3870.4084 1115912
3249.1252 828.23376 3939.6763 5390906
3291.8547 833.1391 3963.0098 8218205
3317.6143 833.71051 3965.728 9995643
3325.7532 829.87708 3947.4932 12826280
3229.6443 800.26581 3806.6406 12756115
3315.6326 815.87384 3880.8835 11704196
3331.1853 814.05408 3872.2275 8415062
3389.8994 822.73468 3913.519 8020818
3415.863 823.40271 3916.6963 7428940
3416.52 818.00269 3891.01 7034697
3394.6973 807.32886 3840.2375 6640195
3363.7886 794.65082 3779.9319 4337186
3458.0769 811.521 3860.1785 5192500
3422.5403 797.90314 3795.4021 5126962
3396.417 786.64325 3741.8418 6244933
3424.6064 788.02716 3748.4248 1508869
3382.8062 773.39197 3678.8093 2890259
3423.4697 777.6767 3699.1907 7691340
3468.9519 782.99463 3724.4863 7690572
3559.7493 798.40881 3797.8074 9337189
3609.749 804.5365 3826.9551 13680035
3582.1421 793.39874 3773.9758 11244669
3625.9277 798.11353 3796.4028 9402722
0 0 0 0
0 0 0 0
0 0 0 0
0 0 0 0
0 0 0 0
-4073.5435 972.15723 4497.4985 12
-4433.7544 1065.0909 4927.4385 12
-4096.0747 990.49597 4582.3394 12
-4071.4734 991.1178 4585.2158 12
-4100.2061 1004.8184 4648.5991 13
-4036.2068 995.82513 4606.9937 13
-4005.7224 995.03461 4603.3364 14
-3991.1345 998.20905 4618.0225 14
-3960.2886 997.33307 4613.9697 14
-3937.0869 998.3833 4618.8286 14
-3882.8086 991.51263 4587.0425 14
-3833.5745 985.84216 4560.8091 14
-3760.8943 974.01886 4506.1113 14
-3735.9722 974.4837 4508.2617 14
-3716.1292 976.28955 4516.6162 14
-3692.0315 976.99591 4519.8838 14
-3668.4102 977.83923 4523.7856 14
-3642.5837 978.10315 4525.0063 14
-3619.3518 979.07263 4529.4917 14
-3595.584 979.91077 4533.3687 14
-3568.0149 979.71759 4532.4751 14
-3539.6772 979.30884 4530.5845 270
-3510.2095 978.57886 4527.207 270
-3495.3701 981.9472 4542.79 16
-3479.8142 985.16492 4557.6763 16
-3446.0767 983.24524 4548.7954 17
-3420.0547 983.51428 4550.0396 18
-3400.0923 985.54382 4559.4292 17
-3379.043 987.28851 4567.5005 16
-3361.657 990.1402 4580.6934 16
-3340.6995 991.97772 4589.1943 16
-3317.2434 993.0976 4594.375 16
-3289.6128 992.97583 4593.812 16
-3261.5696 992.72644 4592.6582 16
-3232.7444 992.23291 4590.375 16
-3205.4316 992.19904 4590.2183 16
-3177.1304 991.85602 4588.6313 16
-3142.7778 989.60168 4578.2021 16
-3113.0791 988.78625 4574.4297 16
-3083.447 987.97791 4570.6899 16
-3053.082 986.91821 4565.7876 16
-3025.1968 986.64838 4564.5391 16
-2994.3291 985.39215 4558.7275 16
-2962.3352 983.7392 4551.0801 16
-2931.6768 982.50317 4545.3623 16
-2900.5598 981.08929 4538.8213 16
-2869.9431 979.8197 4532.9478 16
-2839.75 978.67206 4527.6382 16
-2808.7163 977.21014 4520.875 16
-2778.7073 976.08002 4515.6465 18
-2750.1299 975.43561 4512.6655 18
-2721.051 974.599 4508.7949 18
-2691.8262 973.69293 4504.6035 18
-2662.906 972.88013 4500.8428 19
-2632.0286 971.32849 4493.6646 19
-2602.312 970.17798 4488.3418 19
-2572.1365 968.83069 4482.1089 19
-2539.9836 966.70288 4472.2651 19
-2514.9778 967.27881 4474.9297 21
-2495.3271 969.94885 4487.2822 21
-2467.5994 969.50281 4485.2188 21
-2437.5193 968.11285 4478.7881 19
-2410.3018 967.84174 4477.5337 19
-2387.6694 969.42615 4484.8638 19
-2359.1257 968.6192 4481.1304 19
-2331.928 968.35266 4479.8975 19
-2301.7722 966.83771 4472.8887 20
-2276.0649 967.17761 4474.4614 21
-2247.5334 966.31128 4470.4536 21
-2221.7915 966.638 4471.9648 21
-2195.2571 966.6236 4471.8984 21
-2173.6934 968.82446 4482.0801 21
-2153.6716 971.77545 4495.7324 21
-2120.7654 968.91382 4482.4937 21
-2094.9268 969.24951 4484.0464 21
-2068.1277 969.14374 4483.5571 21
-2042.1145 969.40826 4484.7812 21
-2016.3533 969.80103 4486.5981 21
-1989.8993 969.86658 4486.9014 21
-1962.6279 969.53027 4485.3452 21
-1935.4775 969.24512 4484.0264 21
-1908.9006 969.24335 4484.0181 21
-1883.2185 969.70209 4486.1406 21
-1857.6316 970.22388 4488.5542 21
-1832.1549 970.81909 4491.3081 21
-1806.4198 971.29303 4493.5005 21
-1780.5751 971.72119 4495.4814 21
-1755.6736 972.68512 4499.9409 21
-1728.0786 972.16345 4497.5273 21
-1701.7091 972.32556 4498.2773 21
-1675.5586 972.62 4499.6396 21
-1651.8866 974.38586 4507.8091 21
-1624.4175 973.93335 4505.7153 21
-1599.0681 974.75781 4509.5298 21
-1571.243 974.07544 4506.373 21
-1538.4391 970.22955 4488.5806 21
-1514.5327 971.95831 4496.5786 21
-1489.1335 972.77399 4500.3521 21
-1457.5576 969.5108 4485.2554 21
-1430.542 969.21594 4483.8916 21
-1412.9905 975.4436 4512.7021 21
-1356.0399 954.18793 4414.3672 21
-1345.8735 965.6637 4467.4575 21
-1325.5588 970.17261 4488.3169 21
-1279.1071 955.34467 4419.7183 20
-1244.3447 948.80988 4389.4868 20
-1219.0967 949.40564 4392.2427 19
-1193.2083 949.5177 4392.7612 19
-1167.2563 949.58337 4393.0649 19
-1141.9917 950.22357 4396.0269 18
-1118.5599 952.45459 4406.3481 19
-1091.6146 951.729 4402.9912 19
-1077.4884 962.41766 4452.4404 19
-1066.377 976.40375 4517.144 19
-1046.2858 982.67596 4546.1616 19
-1033.5116 996.33374 4609.3467 19
-991.50146 981.78363 4542.0332 19
-968.57251 985.8429 4560.8125 19
-948.93213 993.57825 4596.5991 19
-922.81787 994.79242 4602.2158 19
-902.7998 1002.8521 4639.5024 19
-877.388 1005.2385 4650.543 18
-854.13983 1010.339 4674.1392 18
-831.10815 1016.046 4700.5415 18
-804.90863 1018.1418 4710.2378 19
-781.78467 1024.4183 4739.2744 21
-755.65851 1027.0822 4751.5981 21
-728.87982 1029.0308 4760.6133 21
-702.76575 1032.1124 4774.8701 21
-675.87463 1034.2637 4784.8223 21
-648.61987 1036.0225 4792.959 21
-621.22949 1037.7158 4800.7925 21
-594.78418 1041.2261 4817.0327 21
-566.70367 1042.0835 4820.999 21
-540.15161 1045.9917 4839.0796 21
-511.94543 1046.9554 4843.5381 21
-484.53827 1049.7646 4856.5347 21
-460.16232 1059.9106 4903.4731 21
-444.54382 1092.9556 5056.3491 21
-411.25739 1084.1993 5015.8398 21
-376.25842 1069.2122 4946.5044 21
-347.79984 1071.8484 4958.7007 21
-319.29959 1074.8312 4972.5 21
-296.83185 1100.7917 5092.6016 21
-266.91916 1101.8947 5097.7036 21
-236.04311 1098.7944 5083.3613 21
-205.5038 1096.5842 5073.1362 21
-176.09145 1100.6604 5091.9937 21
-146.19362 1102.7604 5101.709 21
-116.47663 1107.6754 5124.4473 21
-85.76696 1103.2875 5104.1475 21
-56.054268 1113.9305 5153.3857 21
-25.664022 1120.4714 5183.646 21
5.0520973 1119.7465 5180.292 21
35.645611 1116.4264 5164.9326 21
65.37606 1101.6309 5096.4839 21
94.612961 1090.4974 5044.9771 21
121.32893 1062.6317 4916.0615 21
150.75697 1064.7111 4925.6812 21
180.89233 1070.3008 4951.541 21
208.43977 1061.1553 4909.231 21
241.91223 1080.7194 4999.7402 21
273.20956 1087.3571 5030.4487 21
303.24634 1088.1654 5034.1885 21
328.51932 1073.2657 4965.2578 21
354.92401 1064.2091 4923.3589 21
390.2529 1081.254 5002.2144 21
418.87146 1078.613 4989.9961 21
428.66422 1031.0398 4769.9077 20
454.75949 1026.1383 4747.2319 19
480.8721 1021.8448 4727.3687 19
508.83041 1021.7302 4726.8384 19
535.12189 1018.4552 4711.6875 19
558.34906 1009.9622 4672.396 19
576.3678 993.29565 4595.2915 19
603.9408 993.85565 4597.8823 19
630.63086 992.97711 4593.8179 19
658.6958 994.24664 4599.6909 19
687.6991 996.77515 4611.3887 19
710.53345 990.5108 4582.4077 19
738.64447 991.7926 4588.3379 18
763.46338 988.72009 4574.1235 18
788.85852 986.57886 4564.2173 18
812.19208 982.08667 4543.4355 18
835.65479 978.03418 4524.687 18
862.53339 978.10706 4525.0244 18
878.34802 966.00757 4469.0483 18
902.50549 963.52307 4457.5547 18
927.0907 961.62366 4448.7671 18
956.89185 965.08997 4464.8032 18
966.37854 948.43237 4387.7402 18
993.60956 949.60638 4393.1714 18
1020.4302 950.3382 4396.5571 18
1037.855 942.50098 4360.2998 18
1057.8484 937.32043 4336.333 18
1082.7316 936.61548 4333.0718 18
1101.3655 930.6626 4305.5317 15
1124.3905 928.60583 4296.0166 16
1153.2545 931.35559 4308.7378 65550
1038.4613 820.48328 3795.8083 196616
1070.948 828.21051 3831.5566 591107
1124.601 851.64581 3939.9758 5259575
1135.2906 842.25397 3896.5261 8285273
1163.1694 845.73468 3912.6289 9007964
1198.2061 854.18195 3951.7087 9468516
1224.2783 856.03741 3960.2927 9336931
1244.073 853.5163 3948.6289 9271138
1262.483 850.15576 3933.082 8942173
1292.4576 854.56348 3953.4736 9007966
1316.573 855.00903 3955.5352 8481621
1339.8666 854.91479 3955.0989 8613207
1369.101 858.54919 3971.9131 8547415
1390.3441 857.13422 3965.3667 9007966
1415.5436 858.16473 3970.1343 9205347
1442.1188 859.98199 3978.5413 9205090
1459.126 856.12671 3960.7058 8678491
1507.1759 870.31934 4026.3652 9007712
1495.7142 850.24011 3933.4724 8941662
1522.2561 852.04871 3941.8396 8678747
1545.6859 852.08716 3942.0173 8875869
1562.9974 848.8017 3926.8179 8810843
1578.658 844.72937 3907.978 8810587
1601.9108 844.77856 3908.2058 8744793
1621.0844 842.70575 3898.6165 8942173
1642.0459 841.60767 3893.5361 8942173
1659.8292 838.93353 3881.165 9008223
1689.3073 842.16278 3896.1042 8942429
1706.0542 839.04364 3881.6743 8745051
1739.5472 844.13379 3905.2229 8744794
1756.7609 841.29419 3892.0859 9139552
1787.6213 844.97876 3909.1318 9205345
1806.4828 842.96997 3899.8384 8876380
1831.9297 844.04608 3904.8171 8876637
1864.4078 848.29456 3924.4717 8416085
1894.6891 851.45111 3939.0747 8284499
1906.038 846.12622 3914.4404 8218707
1913.2942 839.13464 3882.0952 8416086
1901.9294 824.23932 3813.1848 8876380
1950.6687 835.43512 3864.9802 8086864
1979.23 837.82971 3876.0581 7757899
1997.9005 836.03046 3867.7341 8350036
2018.0664 834.89056 3862.4609 8350036
2042.5609 835.547 3865.4978 8744794
2067.7031 836.45099 3869.6797 8876125
2100.0356 840.21185 3887.0789 9468261
2153.5452 852.27197 3942.8723 9139296
2153.73 843.19635 3900.8857 9073504
2152.792 833.87848 3857.7786 9073504
2187.23 838.31525 3878.3044 8678747
2215.4236 840.29138 3887.4468 9007711
2250.5029 844.81158 3908.3586 8941919
2295.6687 852.98749 3946.1826 9336933
2328.5784 856.49042 3962.3884 8876641
2324.4927 846.45184 3915.9468 8613469
2341.6404 844.26733 3905.8403 8218711
2374.2666 847.65167 3921.4973 8218201
2381.2251 841.89532 3894.8669 7232329
2410.9377 844.21722 3905.6086 2891796
2382.468 826.31543 3822.7896 12693658
2393.9919 822.49127 3805.0979 8613719
2392.7495 814.39337 3767.6345 7626311
2397.4695 808.45569 3740.165 2692878
2444.3623 816.71796 3778.3884 7297602
2461.8208 815.08459 3770.8325 7823690
2489.8625 816.95325 3779.4771 8152399
2551.3967 829.67975 3838.354 6704954
2582.6575 832.42389 3851.0491 7363141
2643.4929 844.56873 3907.2351 8152654
2651.1001 839.64453 3884.4539 10126444
2633.8621 827.00391 3825.9746 9205342
2647.283 824.12347 3812.6489 8546896
2719.7229 839.50952 3883.8293 8283209
2729.8953 835.57812 3865.6416 8151363
2772.5969 841.586 3893.4358 8282689
2746.4839 826.77936 3824.9358 8611394
2774.0422 828.23969 3831.6917 10979943
2756.8774 816.4317 3777.0645 9006411
2765.7917 812.47504 3758.7595 8940881
2821.4961 822.21661 3803.8271 10190949
2872.1475 830.34302 3841.4224 9994342
2918.3147 837.05542 3872.4758 9270621
2958.48 841.95496 3895.1431 10060137
2990.666 844.52539 3907.0344 9665123
3038.8181 851.53033 3939.4414 8481620
3073.3022 854.62762 3953.7705 8613207
3079.9363 849.99207 3932.325 9994858
3098.9736 848.82349 3926.9187 12363408
3085.803 838.91614 3881.0845 11573635
3078.1589 830.64685 3842.8279 11113339
3109.9868 833.07214 3854.0483 10586481
3140.2708 835.0517 3863.2063 8612952
3197.4712 844.10834 3905.105 8744797
3209.8586 841.28937 3892.0637 8416350
3149.3672 819.54584 3791.4714 11376267
3155.0862 815.21796 3771.4492 12164753
3141.7793 806.06952 3729.126 10190708
3173.7664 808.58862 3740.78 8281685
3275.6636 828.76038 3834.1006 9532008
3291.1289 826.93701 3825.6653 9269348
3255.0371 812.27301 3757.825 8480345
3297.0732 817.172 3780.4895 4006419
3366.0369 828.63397 3833.5159 7560268
3358.7295 821.29193 3799.5493 7758159
3364.3093 817.17804 3780.5171 6508091
3342.8279 806.58893 3731.5286 6376246
3344.0874 801.58997 3708.4019 6047539
3313.3069 789.02643 3650.2791 7889234
3324.1089 786.46417 3638.425 1576203
3388.5649 796.54706 3685.072 3220001
3372.1636 787.6156 3643.7522 6310460
3424.533 794.75806 3676.7954 7098949
3418.2446 788.28302 3646.8398 6244146
3431.7478 786.42468 3638.2429 10783852
3513.0906 800.03888 3701.2263 12889480
3505.9111 793.44995 3670.7437 12955269
0 0 0 0
0 0 0 0
0 0 0 0
0 0 0 0
0 0 0 0
-4030.1602 988.17297 4449.6001 12
-4371.9775 1079.0449 4858.7832 13
-4060.1902 1008.7364 4542.1943 14
-4028.7483 1007.605 4537.0996 14
-4053.7339 1020.666 4595.9111 14
-4008.0498 1015.9896 4574.8545 14
-3981.6003 1016.1587 4575.6157 14
-3949.7852 1014.9512 4570.1782 14
-3923.5906 1015.1813 4571.2144 14
-3898.0198 1015.577 4572.9966 14
-3850.0945 1010.1134 4548.3945 14
-3817.7351 1008.6855 4541.9648 14
-3766.7979 1002.2939 4513.1846 14
-3708.3865 993.80798 4474.9736 14
-3681.417 993.68652 4474.4268 14
-3656.8198 994.20831 4476.7764 14
-3633.3433 995.04462 4480.542 14
-3610.5784 996.0896 4485.2476 14
-3584.2327 996.15485 4485.5415 14
-3561.1238 997.1275 4489.9209 270
-3537.353 997.92798 4493.5254 270
-3511.0427 998.01874 4493.9341 270
-3485.1143 998.22021 4494.8413 270
-3473.3533 1002.514 4514.1753 16
-3451.3582 1003.8976 4520.4058 16
-3423.2056 1003.4979 4518.606 16
-3395.7971 1003.3117 4517.7676 16
-3377.2019 1005.7471 4528.7339 16
-3349.7727 1005.5698 4527.9351 16
-3339.343 1010.5338 4550.2876 16
-3316.6838 1011.8477 4556.2036 16
-3292.1052 1012.5927 4559.5586 16
-3260.9951 1011.3247 4553.8486 16
-3234.4036 1011.4483 4554.4053 16
-3205.7153 1010.9129 4551.9946 16
-3176.1099 1010.0767 4548.229 16
-3146.8066 1009.3231 4544.8359 16
-3114.2253 1007.4961 4536.6089 16
-3085.3792 1006.856 4533.7271 16
-3055.1038 1005.7342 4528.6758 16
-3022.509 1003.8223 4520.0664 16
-2995.1626 1003.6348 4519.2222 16
-2967.2134 1003.2401 4517.4453 16
-2935.2007 1001.4518 4509.3926 16
-2904.6997 1000.1512 4503.5361 16
-2878.4395 1000.3002 4504.207 16
-2846.9446 998.61584 4496.6226 16
-2816.0889 997.12585 4489.9136 16
-2785.5093 995.7063 4483.5215 18
-2755.5522 994.48395 4478.0176 18
-2722.9727 992.28229 4468.1035 18
-2691.365 990.39496 4459.6055 19
-2664.9597 990.40356 4459.644 18
-2637.8774 990.15826 4458.5396 19
-2608.0303 988.85968 4452.6924 19
-2576.9126 987.04797 4444.5342 19
-2549.6333 986.68414 4442.896 19
-2521.3823 985.9328 4439.5127 19
-2493.3455 985.25024 4436.4395 19
-2470.7646 986.73212 4443.1118 19
-2441.7112 985.63306 4438.1631 19
-2414.4883 985.25702 4436.4697 19
-2387.6257 985.02148 4435.4092 19
-2362.6892 985.58411 4437.9424 20
-2335.7722 985.32379 4436.7705 20
-2308.1663 984.76367 4434.2485 21
-2277.8013 983.00006 4426.3071 21
-2252.5803 983.44122 4428.2935 21
-2227.3181 983.87457 4430.2446 21
-2203.3911 984.91486 4434.9292 21
-2177.4766 985.08118 4435.6782 21
-2154.4604 986.57904 4442.4229 21
-2129.0974 987.0257 4444.4341 21
-2102.2339 986.77942 4443.3252 21
-2077.8796 987.71954 4447.5581 21
-2051.0991 987.51575 4446.6406 21
-2025.9283 988.0918 4449.2344 21
-2000.3539 988.4834 4450.9976 21
-1974.455 988.72314 4452.0771 21
-1947.7655 988.56799 4451.3789 21
-1919.2151 987.45123 4446.3501 21
-1893.8322 987.95575 4448.6221 21
-1865.6299 986.98303 4444.2417 21
-1843.2637 989.11407 4453.8374 21
-1815.8086 988.53662 4451.2373 21
-1790.5874 989.17621 4454.1172 21
-1763.8096 988.9621 4453.1533 21
-1738.5892 989.62817 4456.1523 21
-1711.3442 989.14435 4453.9741 21
-1685.0494 989.20343 4454.2397 21
-1658.8352 989.31213 4454.7295 21
-1634.3755 990.48785 4460.0234 21
-1607.2684 990.07141 4458.1484 21
-1575.498 986.72046 4443.0596 21
-1537.7587 979.4538 4410.3389 21
-1510.171 978.51355 4406.105 21
-1496.4648 986.69299 4442.936 21
-1459.6724 979.6709 4411.3164 21
-1411.1105 964.34943 4342.3262 21
-1385.2379 964.25275 4341.8906 20
-1364.9595 968.12006 4359.3047 20
-1337.4115 966.88104 4353.7256 19
-1314.0903 968.70917 4361.9575 19
-1288.6511 969.01807 4363.3481 19
-1265.5017 971.09662 4372.7075 19
-1238.019 969.86731 4367.1724 19
-1196.6924 957.50867 4311.5229 19
-1190.7856 973.56952 4383.8428 19
-1155.5267 965.81366 4348.9194 19
-1134.658 970.00592 4367.7964 19
-1104.1018 965.91895 4349.3936 19
-1088.6591 975.1745 4391.0698 19
-1072.9008 984.59375 4433.4834 19
-1058.0444 995.33453 4481.8477 19
-1044.012 1007.4235 4536.2822 19
-1019.3228 1009.5963 4546.0659 19
-990.65448 1007.8391 4538.1533 19
-956.89954 1000.6644 4505.8467 19
-931.44653 1002.0086 4511.8999 19
-909.23694 1007.0245 4534.4858 19
-886.8067 1012.0942 4557.314 19
-862.53967 1015.3203 4571.8403 19
-838.83002 1019.4329 4590.3589 19
-820.20941 1030.2131 4638.9009 19
-794.18823 1032.1235 4647.5029 19
-771.01196 1038.0011 4673.9692 21
-744.88373 1040.1946 4683.8457 21
-719.40216 1043.4957 4698.7104 21
-693.36938 1046.2311 4711.0273 21
-666.69604 1048.1888 4719.8428 21
-640.86566 1051.7014 4735.6592 21
-615.39221 1056.1483 4755.6831 21
-588.26233 1058.0427 4764.2134 21
-560.55084 1059.0294 4768.6562 21
-533.86987 1062.1713 4782.8032 21
-506.84943 1064.952 4795.3247 21
-480.77228 1070.1627 4818.7881 21
-463.94574 1097.9231 4943.7891 21
-432.88171 1093.462 4923.7017 21
-404.07867 1094.4801 4928.2856 21
-377.54214 1102.274 4963.3809 21
-346.1842 1096.1191 4935.666 21
-316.53806 1094.7485 4929.4941 21
-288.0412 1097.478 4941.7847 21
-257.59241 1092.5463 4919.5781 21
-228.13213 1091.0839 4912.9927 21
-201.7832 1106.251 4981.2881 21
-173.51476 1114.2894 5017.4839 21
-144.50191 1119.8834 5042.6733 21
-115.19542 1125.5258 5068.0796 21
-85.510269 1130.1431 5088.8711 21
-55.661285 1136.447 5117.2568 21
-25.422752 1140.3684 5134.9141 21
4.9743586 1132.7437 5100.5806 21
35.199615 1132.6833 5100.3091 21
64.715584 1120.3992 5044.9951 21
94.077538 1114.0548 5016.4272 21
122.91769 1106.0616 4980.4355 21
152.7048 1108.0353 4989.3228 21
182.91089 1111.9155 5006.7944 21
211.59015 1106.7263 4983.4287 21
241.16229 1106.9067 4984.2407 21
270.37662 1105.5845 4978.2871 21
293.03149 1080.3394 4864.6118 21
322.97882 1084.094 4881.5186 21
352.54242 1086.0491 4890.3223 21
387.44217 1102.8972 4966.187 21
414.85214 1097.5511 4942.1143 21
421.47232 1041.5348 4689.8809 21
448.41486 1039.5626 4681 19
475.85172 1038.8995 4678.0142 19
501.27966 1034.1649 4656.6948 19
526.1402 1028.8148 4632.6045 19
551.26593 1024.4883 4613.1226 19
571.16254 1011.3118 4553.791 19
599.8009 1014.1042 4566.3647 19
624.62787 1010.4898 4550.0894 19
650.58142 1008.9215 4543.0278 19
673.75403 1003.3367 4517.8799 19
703.05096 1006.9503 4534.1514 19
728.56183 1005.0748 4525.7061 18
752.41382 1001.1253 4507.9224 18
775.19366 996.06903 4485.1548 18
803.5025 998.21674 4494.8257 18
829.61401 997.58459 4491.979 18
854.32391 995.35864 4481.9561 18
873.47363 986.98413 4444.2471 18
888.77179 974.87531 4389.7227 18
922.21619 982.7934 4425.3765 18
945.70758 979.96002 4412.6182 18
952.35986 960.29962 4324.0903 18
973.78387 956.17413 4305.5137 18
994.0556 951.15674 4282.9214 18
1025.2499 956.5802 4307.3423 18
1048.5122 954.51923 4298.062 18
1073.3854 953.98761 4295.6685 18
1086.2865 943.08691 4246.584 15
1092.0471 926.62103 4172.4404 16
1126.1259 934.38068 4207.3809 65552
1159.057 940.87244 4236.6128 13
1142.6787 907.91052 4088.1897 327686
1091.9702 849.60663 3825.6558 1838863
1115.6938 850.40845 3829.2664 5654070
1150.557 859.49994 3870.2036 7955278
1163.9135 852.48383 3838.6113 8152657
1199.6128 861.78754 3880.5046 8810587
1207.4324 851.0896 3832.3335 9007965
1233.8057 853.62323 3843.7419 9139552
1259.3877 855.52747 3852.3167 9007966
1289.1737 860.16895 3873.2163 9007966
1310.8101 859.30548 3869.3281 9073759
1333.2523 858.99091 3867.9119 8744794
1348.2521 853.97308 3845.3171 8547158
1389.5164 865.48114 3897.1362 8810587
1403.7727 860.06567 3872.7515 8876380
1422.5034 857.52173 3861.2964 9073502
1447.1404 858.56244 3865.9824 9007712
1465.2812 855.77667 3853.4387 9007712
1488.8792 856.21466 3855.4109 8876126
1520.1239 860.97046 3876.8254 8744284
1536.2141 857.12915 3859.5286 8810844
1545.3691 849.58783 3825.571 8745051
1568.2297 849.69043 3826.0332 8547415
1578.7589 843.2041 3796.8262 8547415
1602.8174 844.02435 3800.5195 8876380
1627.0219 844.89764 3804.4519 8876380
1650.077 845.15845 3805.6265 9073759
1674.5979 846.15277 3810.1038 8810843
1690.4039 842.77588 3794.8977 8876124
1716.4604 844.53094 3802.8008 8876638
1739.7084 844.87653 3804.3569 9140065
1758.4247 843.04077 3796.0906 9073759
1783.3927 844.21075 3801.3589 9008222
1806.3302 844.40234 3802.2217 8679257
1822.0096 841.2381 3787.9734 9008222
1842.1132 840.1687 3783.158 8679001
1876.7037 845.65283 3807.8525 8350036
1884.5236 839.0871 3778.2876 8350036
1913.1827 841.84528 3790.7073 8547415
1925.7947 837.56012 3771.4124 8613208
1957.8177 841.71875 3790.1379 8679258
1979.3247 841.31317 3788.3115 8612952
2007.2012 843.59369 3798.5803 8875870
2024.0602 841.24451 3788.0024 8810077
2052.8733 843.86084 3799.7832 7955022
2085.9495 848.15363 3819.1133 7889486
2114.6733 850.60364 3830.1453 7955022
2149.4956 855.42859 3851.8711 8613209
2145.2312 844.76038 3803.834 8941662
2159.5278 841.54718 3789.3652 8941919
2188.1343 843.91907 3800.0454 8941919
2210.4521 843.84192 3799.6982 8876639
2235.6636 844.85974 3804.2815 9074020
2266.8252 848.0835 3818.7974 9271399
2280.8948 844.91217 3804.5173 8745055
2297.6057 842.77167 3794.8792 9205605
2326.4988 845.0979 3805.3538 8613469
2363.4207 850.26782 3828.6331 7692364
2357.0391 839.90869 3781.9873 6902591
2365.9602 835.1463 3760.5432 7626570
2376.1384 830.91241 3741.4785 7692363
2381.8167 825.19775 3715.7463 7166019
2426.8164 833.08624 3751.2668 7692105
2463.2444 837.91565 3773.0129 7955276
2487.4258 838.52985 3775.7783 8020813
2514.3677 840.05518 3782.647 8810328
