# .PCD v0.7 - Point Cloud Data file format
VERSION 0.7
FIELDS x y z rgb
SIZE 4 4 4 4
TYPE F F F U
COUNT 1 1 1 1
WIDTH 1407
HEIGHT 1
VIEWPOINT 0 0 0 1 0 0 0
POINTS 1407
DATA ascii
-220.56667 1481.0952 3144.6943 18
-202.14096 1482.6384 3147.9709 18
-183.48166 1482.6083 3147.9067 18
-164.75212 1481.9392 3146.4863 19
-146.71407 1488.1133 3159.5952 19
-126.92488 1475.7335 3133.3103 19
-108.72257 1480.723 3143.9041 19
-89.447487 1470.1443 3121.4431 19
-71.13179 1473.9288 3129.4785 19
-52.568733 1473.4495 3128.4607 19
-34.056992 1474.6698 3131.0518 19
-15.451741 1469.9161 3120.9587 19
3.0396829 1467.9639 3116.8135 19
21.503159 1467.457 3115.7375 19
40.012196 1469.0916 3119.2078 19
58.218235 1462.0834 3104.3279 20
76.588791 1461.5804 3103.2603 19
94.978874 1461.5728 3103.2439 19
113.57077 1464.1694 3108.7571 19
131.59044 1459.6937 3099.2542 19
150.08261 1460.9136 3101.8442 19
168.42606 1460.5776 3101.1309 19
184.51599 1442.6881 3063.1475 19
203.53656 1448.8647 3076.262 21
220.15836 1438.3541 3053.9456 21
237.94119 1436.4495 3049.9014 21
256.24014 1437.7096 3052.5769 21
272.14658 1426.2648 3028.2771 21
292.54373 1438.3151 3053.8625 21
307.95383 1425.8704 3027.4397 21
326.11475 1426.8315 3029.4802 21
343.69171 1425.2706 3026.1663 21
358.96021 1414.7662 3003.8633 21
376.23157 1412.7754 2999.6362 21
392.9028 1408.8125 2991.2219 21
409.97806 1406.5778 2986.4771 21
426.00552 1401.0818 2974.8081 21
445.09143 1405.6819 2984.5752 19
463.33655 1407.3766 2988.1731 19
482.63721 1412.0344 2998.063 19
500.03067 1410.98 2995.824 19
510.81195 1391.9794 2955.4814 19
528.06183 1391.2812 2953.9993 19
537.19672 1369.9337 2908.6738 19
553.33087 1367.2075 2902.8855 19
570.93341 1368.1648 2904.918 19
584.69238 1360.1249 2887.8474 19
607.99622 1374.1143 2917.55 19
618.9057 1360.0927 2887.7791 19
630.43878 1348.1589 2862.4412 19
648.71393 1350.8905 2868.2407 19
664.94769 1349.3401 2864.949 19
680.33569 1346.1934 2858.2676 19
693.98425 1339.8413 2844.7808 19
713.46515 1344.7836 2855.2744 19
735.22278 1353.6887 2874.1821 19
744.10858 1339.0278 2843.0537 19
760.70905 1338.5914 2842.127 19
775.50348 1335.0646 2834.6387 19
790.91943 1332.7347 2829.6919 19
809.04913 1334.9791 2834.4575 18
771.10431 1246.4882 2646.5715 18
786.77271 1246.4633 2646.5186 18
801.01367 1244.222 2641.76 18
835.11938 1272.3313 2701.4421 18
848.8089 1268.8635 2694.0793 18
856.63367 1256.9186 2668.7175 18
868.1015 1250.6553 2655.4189 18
872.44397 1234.5321 2621.186 17
890.6814 1238.2911 2629.1672 16
901.53064 1231.8257 2615.4397 16
917.32269 1232.2185 2616.2737 16
921.47211 1217.2189 2584.426 16
937.1684 1217.7133 2585.4758 16
953.80725 1219.3966 2589.05 16
970.03064 1220.504 2591.4011 16
990.00671 1226.225 2603.5481 16
1011.4761 1233.5917 2619.1892 18
1024.1638 1230.1873 2611.9609 18
1033.5054 1222.925 2596.5415 18
1039.0161 1211.4093 2572.0911 18
914.37445 1050.6732 2230.8127 18
920.00287 1042.0741 2212.5549 18
918.20172 1025.4196 2177.1936 17
922.50623 1015.9506 2157.0889 16
928.15436 1008.2 2140.6326 65552
927.18365 993.56567 2109.5608 65551
927.53998 980.72382 2082.2947 196619
932.92572 973.46729 2066.8875 262149
988.26196 1017.8445 2161.1101 1378314
998.22137 1014.9489 2154.9622 4535082
1006.7368 1010.6769 2145.8918 7561040
1021.9661 1013.1677 2151.1802 9271401
1036.0865 1014.5112 2154.0327 8876641
1047.7477 1013.4432 2151.7651 8612956
1065.332 1018.0613 2161.5703 8745054
1076.682 1016.6827 2158.6433 8613469
1089.2334 1016.4577 2158.1655 8416090
1102.6648 1017.0495 2159.4221 7890002
1108.4725 1010.6767 2145.8911 7297609
1120.2355 1009.8167 2144.0652 8415834
1141.1904 1017.1689 2159.6758 7955284
1151.0387 1014.5684 2154.1541 7889747
1166.4398 1016.8655 2159.0315 7692369
1186.0055 1022.704 2171.428 8218456
1196.1261 1020.3602 2166.4514 7099717
1206.3351 1018.1404 2161.7385 6309176
1216.7188 1016.1134 2157.4346 4861987
1228.0752 1014.9326 2154.9272 5058853
1239.2988 1013.6672 2152.2407 4927011
1253.9652 1015.215 2155.5271 5387818
1263.2212 1012.3954 2149.5405 6178614
1267.6107 1005.7709 2135.4751 5586990
1289.6245 1013.123 2151.0852 7033927
1300.698 1011.8204 2148.3196 7691857
1308.5182 1008.037 2140.2866 7560528
1321.744 1008.4506 2141.1648 6244668
1336.9027 1010.317 2145.1274 7757907
1344.4325 1006.4372 2136.8899 8086615
1359.2351 1008.0235 2140.2578 8086872
1378.9066 1013.1578 2151.1592 8086615
1390.1021 1012.0274 2148.759 7955286
1403.6992 1012.65 2150.0811 8481629
1417.7465 1013.5834 2152.0627 7889492
1430.2036 1013.3733 2151.6167 7955286
1438.2933 1010.0998 2144.6663 6310718
1439.3616 1001.9957 2127.4595 8548193
1468.4913 1013.3975 2151.668 8481375
1471.436 1006.6882 2137.4229 8217691
1487.4524 1008.9602 2142.2468 8546912
1503.9719 1011.5323 2147.7078 8152154
1500.3604 1000.6351 2124.5706 7296588
1526.0842 1009.321 2143.0129 7889238
1532.7058 1005.3342 2134.5479 7823702
1540.3582 1002.083 2127.645 8218459
1554.9934 1003.3906 2130.4211 8415839
1557.0432 996.62158 2116.0491 7626324
1578.1783 1002.079 2127.6365 7955033
1601.6414 1008.9163 2142.1536 8349536
1592.52 995.2818 2113.2043 7033932
1601.5634 993.12396 2108.6228 8810343
1618.6948 995.97595 2114.6782 8020827
1653.2859 1009.4446 2143.2751 7560276
1668.9161 1011.219 2147.0427 8349279
1670.0884 1004.2728 2132.2942 8086105
1698.09 1013.4428 2151.7644 7559762
1682.611 996.71997 2116.2581 8546658
1716.6849 1009.3808 2143.1396 8086363
1709.504 997.77655 2118.5012 7559763
1728.9186 1001.7512 2126.9404 4599336
1735.9271 998.53223 2120.1057 7363151
1746.2993 997.28046 2117.448 7692117
1768.2744 1002.6255 2128.7966 8218204
1769.0719 995.9718 2114.6694 7099979
1784.053 997.34094 2117.5764 7955288
1804.8618 1001.9261 2127.3118 7626323
1823.6764 1005.3482 2134.5776 7889493
1825.1716 999.24133 2121.6113 8415837
1815.885 987.35547 2096.375 7165769
1843.0479 995.31519 2113.2754 7494735
1851.5029 993.13275 2108.6416 7494735
1875.21 999.10583 2121.3237 7231564
1886.5057 998.43073 2119.8904 7165772
1893.1512 995.31976 2113.2849 7033929
1903.9978 994.44379 2111.425 7757908
1929.3457 1001.1036 2125.5654 7955031
1937.5332 998.83063 2120.7395 7955288
1940.2045 993.7616 2109.9768 7231565
1958.5782 996.74878 2116.3191 8021337
1985.6031 1004.0726 2131.8691 8744804
1991.9375 1000.9071 2125.1482 8152667
1997.0846 997.18872 2117.2532 8020824
2008.8414 996.79645 2116.4204 8152667
2020.6899 996.45441 2115.6941 8152667
0 0 0 0
0 0 0 0
0 0 0 0
0 0 0 0
0 0 0 0
0 0 0 0
0 0 0 0
-2442.584 1303.1785 2732.5547 21
-2425.7424 1302.8304 2731.825 21
-2403.749 1299.6924 2725.2449 21
-2391.7144 1301.9326 2729.9424 21
-2374.6143 1301.4275 2728.8831 21
-2364.3574 1304.6915 2735.7273 21
-2352.9006 1307.334 2741.2681 21
-2341.0156 1309.7734 2746.3833 21
-2321.4573 1307.924 2742.5051 21
-2307.8481 1309.424 2745.6504 21
-2296.0427 1311.9756 2751.001 21
-2281.8643 1313.1985 2753.5649 21
-2266.3862 1313.6853 2754.5859 20
-2250.6487 1314.028 2755.3042 19
-2233.2979 1313.4269 2754.0437 19
-2219.2744 1314.788 2756.8977 18
-2204.2205 1315.5543 2758.5049 19
-2187.3403 1315.2339 2757.833 19
-2162.5005 1310.0868 2747.0403 20
-2144.5938 1309.0935 2744.9575 20
-2142.4624 1317.7881 2763.1887 20
-2144.1394 1328.9772 2786.6504 19
-2119.2456 1323.743 2775.6753 21
-2094.8772 1318.7579 2765.2222 18
-2160.4587 1370.7654 2874.2734 19
-2179.0242 1393.5317 2922.0107 19
-2077.449 1339.215 2808.1172 19
-2151.0859 1397.8823 2931.1333 19
-2144.4663 1404.9257 2945.9021 19
-2140.8594 1414.0745 2965.0857 19
-2110.7622 1405.7327 2947.5942 19
-2097.7378 1408.7168 2953.8516 19
-2071.7388 1402.965 2941.7908 18
-2037.3419 1391.3801 2917.4993 19
-2030.9098 1398.8585 2933.1804 19
-2017.8344 1401.851 2939.4548 19
-2006.6143 1406.1958 2948.5652 19
-1987.3936 1404.9607 2945.9756 19
-1972.0854 1406.4944 2949.1914 19
-1937.9601 1394.5148 2924.0723 19
-1922.9479 1396.1969 2927.5991 19
-1914.4662 1402.6941 2941.2229 19
-1900.2749 1405.0891 2946.2449 19
-1880.097 1403.061 2941.9922 19
-1862.439 1402.8929 2941.6396 19
-1847.3998 1404.7128 2945.4558 19
-1832.5012 1406.6755 2949.5713 19
-1823.3856 1413.158 2963.1638 19
-1804.1771 1411.8682 2960.4595 19
-1777.9434 1405.0015 2946.061 19
-1762.554 1406.6531 2949.5242 19
-1759.5482 1418.3201 2973.988 19
-1735.2065 1412.8506 2962.5195 19
-1721.5367 1416.0477 2969.2231 19
-1695.923 1409.3848 2955.2522 19
-1673.5889 1405.3368 2946.7642 19
-1662.7986 1410.9993 2958.6375 19
-1553.2434 1332.0803 2793.1572 19
-1538.8988 1333.9945 2797.1709 18
-1520.9548 1332.7964 2794.6587 18
-1498.4893 1327.566 2783.6914 18
-1484.8965 1330.1672 2789.1458 18
-1471.1476 1332.6858 2794.4268 18
-1457.6023 1335.4481 2800.219 18
-1446.2319 1340.2899 2810.3713 18
-1427.2461 1338.1045 2805.7888 18
-1407.9558 1335.5789 2800.4929 18
-1391.9142 1336.1112 2801.6094 18
-1383.6906 1344.2517 2818.6787 18
-1364.7657 1342.068 2814.0996 18
-1348.5181 1342.4952 2814.9956 18
-1304.3875 1314.8273 2756.9802 18
-1283.1096 1309.785 2746.4077 19
-1261.2126 1303.9734 2734.2214 19
-1261.792 1321.5511 2771.0793 19
-1256.7977 1333.6779 2796.5071 19
-1235.4114 1328.5016 2785.6531 19
-1225.6703 1335.8774 2801.1191 18
-1200.0486 1325.9094 2780.2178 19
-1173.7693 1314.9275 2757.1904 19
-1171.6932 1331.1321 2791.1689 19
-1153.6863 1329.4427 2787.6267 19
-1143.0875 1336.3654 2802.1421 19
-1124.4918 1334.005 2797.1929 19
-1119.074 1347.441 2825.3662 19
-1106.9636 1353.1047 2837.2419 19
-1088.7052 1351.312 2833.4829 18
-1074.3182 1354.3438 2839.8398 18
-1056.0631 1352.5178 2836.0112 18
-1037.0927 1349.7021 2830.1072 18
-1023.8956 1354.4308 2840.0225 18
-1005.8176 1352.7531 2836.5046 18
-988.49438 1352.0509 2835.0322 18
-973.61847 1354.7295 2840.6487 18
-954.23578 1351.1211 2833.0828 18
-938.82794 1353.1124 2837.2581 18
-926.24445 1359.3212 2850.2769 18
-905.59937 1353.7101 2838.5112 19
-881.40552 1342.4813 2814.9663 19
-869.17334 1349.3899 2829.4524 19
-860.95972 1362.9316 2857.8474 19
-843.52661 1362.1292 2856.1648 19
-827.49939 1363.6106 2859.2712 19
-809.9549 1362.6016 2857.1553 19
-797.31909 1369.9836 2872.6343 19
-817.63 1435.5333 3010.0813 19
-801.78455 1439.1102 3017.5815 19
-785.14178 1441.3868 3022.3552 19
-767.16534 1441.2642 3022.0979 19
-751.32849 1445.2512 3030.4583 19
-736.52167 1451.4635 3043.4844 19
-712.31775 1439.004 3017.3589 19
-700.03351 1450.6025 3041.6792 19
-673.23859 1431.9507 3002.5691 19
-658.78882 1439.2566 3017.8884 19
-643.24176 1444.506 3028.8955 19
-628.01654 1450.8003 3042.0938 19
-610.24927 1451.4205 3043.3943 19
-591.96442 1450.8102 3042.1145 19
-545.47949 1378.8767 2891.2815 19
-537.71924 1403.3413 2942.5798 19
-523.68176 1412.5144 2961.8145 19
-506.14471 1412.557 2961.9038 18
-501.93652 1451.1375 3042.8008 18
-482.54788 1447.0702 3034.2722 18
-465.51382 1450.022 3040.4617 18
-448.43439 1453.0646 3046.8416 18
-431.02432 1455.2462 3051.416 18
-415.37915 1463.8386 3069.4331 18
-397.81226 1466.1354 3074.249 18
-379.00705 1463.87 3069.4988 18
-362.47217 1470.5869 3083.5833 18
-343.10959 1465.9359 3073.8306 18
-327.75653 1478.8546 3100.9189 18
-307.22028 1468.5317 3079.2737 18
-290.71185 1477.3743 3097.8152 18
-271.90466 1474.9393 3092.7095 18
-254.21829 1478.6716 3100.5356 18
-236.69019 1483.9779 3111.6619 19
-219.05473 1489.451 3123.1382 19
-200.74617 1490.9349 3126.2498 19
-181.58131 1485.7146 3115.3035 18
-163.6227 1490.299 3124.9163 20
-144.62183 1485.3491 3114.5371 20
-126.07323 1484.2756 3112.2861 19
-107.60336 1483.9199 3111.5403 19
-88.686455 1475.9771 3094.8855 19
-69.560822 1459.5129 3060.3628 19
-51.766342 1469.2162 3080.709 19
-33.656563 1475.6683 3094.238 19
-15.161874 1460.4897 3062.4109 19
3.0015624 1467.7933 3077.7256 19
21.340641 1474.6912 3092.1892 19
40.054443 1489.1472 3122.501 19
57.16753 1453.761 3048.302 19
75.382957 1456.6702 3054.4019 19
94.545593 1473.212 3089.0874 19
111.99747 1462.0543 3065.6917 19
129.72617 1457.1204 3055.3459 19
147.98325 1458.6033 3058.4553 19
166.23099 1459.6805 3060.7144 19
183.40492 1452.0444 3044.7026 19
201.30602 1451.0176 3042.5493 21
218.92615 1448.3009 3036.8528 21
236.80418 1447.5735 3035.3276 20
254.29242 1444.734 3029.3738 21
270.74799 1436.7891 3012.7146 21
289.04218 1438.9805 3017.3096 21
308.90875 1448.2887 3036.8274 21
322.77066 1429.9695 2998.415 21
341.18118 1432.6624 3004.0613 21
362.42413 1446.3918 3032.8501 21
374.74496 1424.8994 2987.7837 21
392.53796 1425.2145 2988.4443 21
410.31882 1425.4601 2988.9595 20
423.66199 1410.9065 2958.4431 20
438.71271 1402.9705 2941.8022 21
455.78787 1401.8676 2939.4897 19
478.30228 1416.9595 2971.135 19
489.26617 1397.9767 2931.3311 19
509.36502 1405.5017 2947.1099 19
535.27338 1428.0266 2994.3411 19
551.9505 1425.2689 2988.5586 19
598.02344 1496.2296 3137.3518 19
582.44983 1413.3248 2963.5137 19
584.18311 1376.0393 2885.332 19
597.85815 1368.2034 2868.9014 19
614.17908 1366.6885 2865.7249 19
627.38623 1358.5127 2848.5815 19
645.91705 1361.9908 2855.8748 19
659.61719 1355.3655 2841.9824 19
673.88843 1350.2141 2831.1809 19
692.1051 1353.0264 2837.0776 19
708.14062 1351.5422 2833.9658 19
732.53302 1365.7072 2863.6672 19
741.55994 1351.2323 2833.3159 19
800.39966 1426.1554 2990.4172 19
771.74823 1345.317 2820.9124 19
785.99841 1341.1075 2812.0857 19
804.30334 1343.8474 2817.8311 18
802.13324 1312.9617 2753.0686 18
777.242 1246.8579 2614.4597 18
793.02795 1247.3174 2615.4231 18
811.79047 1252.3512 2625.978 18
831.86536 1259.182 2640.3013 18
851.93091 1265.7469 2654.0667 18
866.73853 1264.4033 2651.2495 18
873.10504 1251.0131 2623.1721 18
882.46436 1242.3044 2604.9116 18
897.95319 1242.3757 2605.061 18
911.57697 1239.9078 2599.8865 16
922.66943 1234.1364 2587.7844 16
934.21844 1229.1541 2577.3374 16
949.3399 1228.9568 2576.9238 16
964.37006 1228.6494 2576.2793 16
972.98126 1220.301 2558.7739 16
999.64355 1234.501 2588.5491 18
1010.057 1228.5085 2575.9839 18
1024.1675 1227.1243 2573.0813 18
1029.4241 1215.3278 2548.3459 18
1034.2386 1203.358 2523.2473 18
1056.8107 1212.0963 2541.5701 18
916.00494 1035.8379 2171.9846 18
920.60632 1026.6152 2152.6462 18
917.45679 1009.1195 2115.9604 18
924.32416 1002.9647 2103.0547 16
932.21466 998.06897 2092.7893 65551
931.74323 984.46674 2064.2676 65547
938.69989 978.96375 2052.7288 196612
954.85242 983.06915 2061.3372 1641999
988.59747 1004.9545 2107.2273 3812390
995.69061 999.53894 2095.8716 6245699
1019.371 1010.7031 2119.281 8482400
1032.1302 1010.8988 2119.6914 9534061
1046.9542 1013.0878 2124.2815 9271144
1056.026 1009.7249 2117.23 8547421
1066.2734 1007.5519 2112.6736 8876385
1081.3801 1009.9676 2117.7388 8415836
1095.5558 1011.4684 2120.8857 8350042
1106.6801 1010.1498 2118.1208 8481883
1118.551 1009.5347 2116.8311 8218711
1131.83 1010.19 2118.2051 7823440
1146.9066 1012.4178 2122.8765 7889235
1159.4872 1012.4178 2122.8765 7955028
1177.6569 1017.2455 2132.9995 8152407
1186.6207 1014.1032 2126.4106 7889235
1196.8885 1012.1298 2122.2727 6178356
1221.8429 1022.4875 2143.9912 5980208
1231.5195 1019.9788 2138.7307 5387304
1248.092 1023.1743 2145.4312 4861473
1255.734 1019.058 2136.8 5585196
1264.6667 1016.0609 2130.5156 4993572
1277.1799 1015.9713 2130.3276 4862501
1296.5259 1021.2655 2141.4287 6638910
1298.8236 1013.1586 2124.4297 6508349
1300.8605 1005.0056 2107.3342 6836801
1326.2719 1014.8944 2128.0696 6902595
1334.3501 1011.4583 2120.8645 7757906
1348.2058 1012.4247 2122.8911 8087641
1363.3591 1014.3388 2126.9045 7890262
1376.8353 1014.9814 2128.252 8021335
1387.1592 1013.3095 2124.7463 8021078
1406.0529 1017.8718 2134.3125 8547422
1416.59 1016.3569 2131.1362 7955028
1433.6154 1019.483 2137.6909 7494477
1424.8081 1004.3448 2105.9487 7363149
1443.1702 1008.4547 2114.5667 8021080
1456.7686 1009.194 2116.1167 8415838
1456.1154 1000.1318 2097.1147 8152667
1473.625 1003.5927 2104.3716 8284252
1493.7194 1008.741 2115.1667 8021081
1504.0392 1007.2574 2112.0562 8086874
1511.8486 1004.1312 2105.5007 7428943
1535.3993 1011.4254 2120.7957 8810340
1542.3942 1007.7838 2113.1597 7955288
1555.9115 1008.4282 2114.511 7428944
1569.1968 1008.9131 2115.5278 8415839
1573.6274 1003.7424 2104.6855 8481632
1588.4409 1005.2236 2107.7915 8810853
1594.9718 1001.4811 2099.9441 7494738
1614.6903 1006.013 2109.4468 7626070
1619.6633 1001.3589 2099.6877 7691605
1628.0621 998.8775 2094.4846 8414815
1656.532 1008.6548 2114.9861 7822935
1664.9202 1006.1495 2109.7329 8612452
1670.5106 1002.0033 2101.0391 8480608
1687.5526 1004.7366 2106.7703 8875109
1703.3582 1006.699 2110.885 8085337
1710.5396 1003.573 2104.3303 10717829
1718.4113 1000.8943 2098.7136 5914683
1739.8103 1006.0765 2109.5798 8151900
1746.3552 1002.6564 2102.4084 8546656
1765.5702 1006.5077 2110.4839 8612447
1775.3518 1004.9648 2107.2488 7560018
1793.2191 1007.9886 2113.5891 8283739
1808.4023 1009.472 2116.6997 7954775
1803.1451 999.60364 2096.0073 7823187
1812.7943 998.07739 2092.8069 7691603
1826.0413 998.53925 2093.7754 7888725
1842.8831 1000.9473 2098.8247 7033671
1862.7821 1004.9725 2107.2649 6836292
1865.6647 999.82477 2096.4709 7362894
1864.7477 992.72241 2081.5784 7560529
1876.7351 992.53821 2081.1921 8547167
1866.6112 980.73877 2056.4507 6968136
1904.3655 994.08496 2084.4355 8086617
1916.5996 994.02338 2084.3064 7888469
1933.8521 996.54871 2089.6016 7954775
1948.4462 997.68066 2091.9751 8020568
1961.3577 997.9422 2092.5234 8152154
1973.0861 997.60217 2091.8105 8546655
1992.8696 1001.3138 2099.5933 7692116
1999.8518 998.58722 2093.876 7955032
0 0 0 0
0 0 0 0
0 0 0 0
0 0 0 0
0 0 0 0
0 0 0 0
0 0 0 0
-2414.5759 1304.2435 2701.2217 21
-2394.3953 1301.9746 2696.5225 21
-2371.9915 1298.4583 2689.2397 21
-2356.9597 1298.9572 2690.2729 21
-2338.8682 1297.7649 2687.804 21
-2327.0618 1300.068 2692.5737 21
-2299.3875 1293.4764 2678.9219 21
-2299.8059 1302.7063 2698.0378 21
-2287.2883 1304.6864 2702.1389 21
-2279.6506 1309.4978 2712.1038 21
-2259.9866 1307.42 2707.8005 21
-2240.3459 1305.3263 2703.4641 21
-2226.2397 1306.45 2705.7915 20
-2212.8542 1308.0161 2709.0352 19
-2195.3245 1307.1376 2707.2156 19
-2185.2168 1310.6979 2714.5894 19
-2174.5249 1313.958 2721.3416 19
-2159.5068 1314.6333 2722.74 19
-2144.7385 1315.4719 2724.4768 19
-2125.9336 1313.8287 2721.0735 19
-2107.7705 1312.5599 2718.4458 19
-2093.7468 1313.8693 2721.1575 19
-2079.7922 1315.2424 2724.0015 21
-2097.7988 1337.0073 2769.0789 19
-2184.603 1403.3083 2906.395 19
-2151.2153 1392.8427 2884.7197 19
-2129.8865 1390.0798 2878.9976 19
-2126.6086 1399.1486 2897.7798 19
-2112.8936 1401.442 2902.5298 19
-2093.3777 1399.894 2899.3237 19
-2089.6128 1408.9407 2918.0601 19
-2080.8999 1414.7743 2930.1421 19
-2037.7499 1397.0956 2893.5278 19
-2032.2955 1405.1807 2910.2727 19
-2023.5648 1411.1193 2922.5723 19
-1998.7584 1405.8534 2911.6663 19
-1978.9932 1404.0725 2907.9778 19
-1956.6372 1400.4062 2900.3845 19
-1934.8676 1397.0981 2893.533 19
-1909.1273 1390.8385 2880.5686 19
-1904.9425 1400.3108 2900.1868 19
-1908.9479 1416.031 2932.7451 19
-1895.1399 1418.7052 2938.2834 19
-1851.1886 1398.6543 2896.7561 19
-1835.6053 1399.8617 2899.2568 19
-1820.6238 1401.5555 2902.7649 19
-1806.0295 1403.5825 2906.9629 19
-1786.156 1401.5062 2902.6626 19
-1776.868 1407.7759 2915.6479 19
-1765.9069 1412.8306 2926.1165 19
-1743.1549 1408.4583 2917.061 19
-1726.1504 1408.689 2917.5388 19
-1704.9164 1405.4376 2910.8052 19
-1692.4764 1409.4435 2919.1016 19
-1679.6327 1413.1923 2926.8655 19
-1658.4282 1409.9111 2920.0701 19
-1644.1604 1412.5205 2925.4744 19
-1622.4617 1408.7332 2917.6304 19
-1523.2109 1336.8031 2768.656 18
-1504.2607 1334.5476 2763.9844 18
-1486.1205 1332.9685 2760.7141 18
-1474.6471 1337.401 2769.894 18
-1456.3345 1335.6606 2766.2896 18
-1442.8363 1338.3462 2771.8518 18
-1424.5787 1336.6283 2768.2939 18
-1409.8146 1338.1863 2771.5205 18
-1388.6168 1333.6023 2762.0266 18
-1373.3247 1334.6482 2764.1929 18
-1358.4423 1336.1223 2767.2458 18
-1342.5554 1336.6324 2768.3025 18
-1327.2352 1337.7266 2770.5684 18
-1303.2883 1330.0441 2754.6572 19
-1269.1676 1311.6523 2716.5659 19
-1263.3256 1322.3887 2738.802 19
-1264.438 1340.7789 2776.8901 19
-1242.4474 1334.8333 2764.5762 19
-1223.0616 1331.5647 2757.8066 19
-1204.9475 1329.6107 2753.7595 19
-1187.1479 1327.9548 2750.3303 19
-1156.9208 1312.1578 2717.613 19
-1140.3663 1311.6411 2716.5427 19
-1132.6642 1321.4373 2736.8315 19
-1113.2878 1317.7002 2729.0918 19
-1104.3035 1326.3344 2746.9739 19
-1096.354 1336.4884 2768.0042 19
-1090.9928 1350.1542 2796.3074 18
-1073.9305 1349.5376 2795.0303 18
-1053.8252 1345.0176 2785.6687 18
-1037.5601 1345.333 2786.3223 18
-1025.249 1350.8688 2797.7874 18
-1010.3408 1353.108 2802.425 18
-994.02655 1353.5077 2803.2527 18
-976.28632 1351.9463 2800.019 18
-955.71265 1346.3392 2788.4062 18
-937.7204 1344.2355 2784.0491 18
-924.98126 1349.7217 2795.4116 18
-895.48047 1330.5034 2755.6086 18
-881.12354 1333.49 2761.7942 19
-868.88867 1339.8619 2774.9912 19
-857.43146 1347.7019 2791.2285 19
-840.84088 1347.6232 2791.0652 19
-833.05267 1361.932 2820.7004 19
-814.66998 1359.1514 2814.9414 19
-793.73193 1351.9022 2799.9277 19
-778.78931 1354.7733 2805.874 19
-771.47839 1371.3352 2840.1753 19
-751.77161 1366.1101 2829.3538 19
-735.34637 1366.7461 2830.6709 19
-760.85632 1447.1738 2997.2449 19
-741.0957 1443.282 2989.1846 19
-721.87939 1440.2858 2982.979 19
-702.94354 1437.7126 2977.6499 19
-686.44031 1440.1105 2982.616 19
-668.89862 1440.3989 2983.2134 19
-651.40906 1440.8182 2984.0818 19
-637.92676 1450.3717 3003.8682 19
-618.73114 1447.1113 2997.1155 19
-604.18353 1454.8502 3013.1436 19
-583.20837 1447.1121 2997.1172 19
-543.05957 1389.8179 2878.4548 19
-548.92554 1450.3892 3003.9043 19
-530.18396 1447.823 2998.5894 19
-511.91986 1446.4275 2995.6992 18
-480.35635 1406.0045 2911.9792 18
-479.52933 1455.8872 3015.2913 18
-459.99716 1450.6431 3004.4302 18
-443.41507 1454.6545 3012.7383 18
-425.7756 1455.3883 3014.2581 16
-408.49054 1457.4508 3018.5298 18
-391.48575 1460.7479 3025.3584 17
-373.38202 1460.0645 3023.9429 18
-355.34387 1459.5813 3022.9421 18
-338.87241 1465.8237 3035.8708 18
-320.86169 1465.7347 3035.6865 18
-302.25513 1462.7515 3029.5078 18
-285.74097 1470.157 3044.8455 18
-268.27945 1473.3583 3051.4756 18
-251.24144 1479.5161 3064.229 18
-233.46307 1481.9338 3069.2366 19
-216.19127 1488.2474 3082.3125 19
-197.90968 1488.1337 3082.0769 19
-178.93294 1482.2379 3069.8665 21
-160.77898 1482.595 3070.606 21
-142.52135 1481.9655 3069.302 19
-124.60928 1485.2703 3076.1465 19
-104.30978 1456.3744 3016.3003 19
-88.222893 1486.5072 3078.7085 18
-70.050514 1488.0516 3081.907 18
-51.929924 1492.1736 3090.4441 18
-32.809185 1456.3905 3016.3337 18
-15.290912 1491.2225 3088.4744 18
3.0125163 1491.4557 3088.9573 19
21.325958 1491.989 3090.0618 19
39.569046 1489.3813 3084.6611 19
57.846539 1489.3076 3084.5083 19
76.215393 1491.0565 3088.1306 19
94.423843 1489.5979 3085.1094 19
110.1386 1455.6542 3014.8086 19
128.15076 1457.3118 3018.2417 19
145.69182 1453.8622 3011.0974 19
163.79106 1456.1278 3015.7896 19
181.9642 1458.5399 3020.7852 19
198.57751 1449.137 3001.3108 18
216.4798 1449.913 3002.918 18
234.85333 1453.4878 3010.3218 19
252.70236 1453.5409 3010.4316 19
271.38693 1458.0759 3019.8242 21
287.81244 1450.6636 3004.4727 21
304.93677 1447.4319 2997.7795 21
320.78912 1438.8508 2980.0073 21
338.53381 1439.2103 2980.7517 21
355.19852 1435.1703 2972.3845 21
372.27158 1433.0841 2968.0637 21
390.54355 1435.5933 2973.2605 21
407.06241 1431.7197 2965.238 20
421.78595 1422.1136 2945.3428 19
439.37592 1422.5515 2946.2498 19
457.10147 1423.3779 2947.9614 19
474.78458 1424.0166 2949.2839 20
492.5415 1424.8232 2950.9546 20
503.18167 1405.6931 2911.334 18
521.14325 1407.6064 2915.2969 19
544.72797 1424.0977 2949.4519 19
561.61047 1422.5864 2946.322 19
571.75757 1404.6199 2909.1113 19
594.59735 1417.9739 2936.769 19
651.07538 1508.5066 3124.2712 19
610.97687 1376.4572 2850.7834 19
622.62244 1364.9504 2826.9519 19
640.84692 1368.0916 2833.4575 19
654.16174 1360.8585 2818.4773 19
686.48859 1392.552 2884.1174 19
695.75629 1377.0662 2852.0447 19
699.6795 1351.9875 2800.1045 19
717.7337 1354.7438 2805.8127 19
736.00995 1357.7847 2812.1108 19
796.75122 1437.2955 2976.7859 19
774.38849 1366.6941 2830.5632 19
780.01141 1347.4302 2790.6658 19
796.63446 1347.574 2790.9634 18
812.68042 1346.7555 2789.2683 18
830.21777 1348.3918 2792.6575 18
827.10846 1317.0867 2727.821 18
803.87488 1255.5502 2600.3728 18
819.58252 1256.0057 2601.3162 18
837.32697 1259.5082 2608.5703 18
854.34265 1261.8074 2613.332 18
866.00958 1256.2656 2601.8545 18
875.42932 1247.7148 2584.145 18
883.17255 1237.1097 2562.1809 18
896.8819 1235.0791 2557.9751 18
913.17346 1236.6127 2561.1511 16
922.46667 1228.7738 2544.9163 15
941.56067 1234.0325 2555.8074 16
954.07135 1230.6329 2548.7666 16
962.31488 1221.921 2530.7234 16
992.26331 1240.6138 2569.438 16
1001.7055 1233.4905 2554.6848 16
1015.5925 1231.9708 2551.5376 16
1026.4465 1226.8707 2540.9749 17
1033.8844 1217.894 2522.3831 18
1044.4883 1212.8495 2511.9353 18
1051.592 1203.9396 2493.4819 18
919.3866 1037.9952 2149.7942 18
916.07092 1020.1158 2112.7642 18
923.07324 1014.0536 2100.2087 16
922.54785 999.99292 2071.0876 65552
924.55981 989.01581 2048.3528 65551
929.34387 981.25006 2032.2693 11
940.10504 979.91327 2029.5005 196613
960.81177 988.84601 2048.0012 1641999
989.29492 1005.4594 2082.4092 4601647
1003.287 1007.1169 2085.842 6772039
1018.6854 1010.1287 2092.0798 8021331
1033.903 1012.8909 2097.8005 8876386
1055.3557 1021.6232 2115.8862 9271144
1061.4564 1015.4637 2103.1292 7889492
1071.7821 1013.4422 2098.9424 8481629
1082.6284 1011.9537 2095.8596 8481629
1098.23 1014.8934 2101.948 8547422
1105.8889 1010.5095 2092.8684 8284250
1115.9567 1008.3995 2088.4985 8152921
1135.2473 1014.5784 2101.2954 7165512
1146.3871 1013.4177 2098.8916 8086357
1158.6661 1013.2782 2098.6028 8875875
1168.392 1010.9326 2093.7449 8217944
1181.2419 1011.311 2094.5286 8021079
1195.4415 1012.8251 2097.6643 7494478
1213.7858 1017.7833 2107.9333 6573373
1231.1041 1021.789 2116.2295 6836544
1243.0662 1021.3131 2115.2439 7165766
1249.6754 1016.4928 2105.2605 5323049
1270.4032 1023.1382 2119.0239 6047286
1278.3715 1019.4782 2111.4436 6310457
1283.1155 1013.3428 2098.7366 6639423
1295.9159 1013.6265 2099.3242 6442300
1308.9708 1014.1022 2100.3093 6376507
1324.1884 1016.2285 2104.7131 7823955
1334.3842 1014.4973 2101.1274 8153433
1348.6866 1015.8913 2104.0146 8086871
1358.5803 1013.9694 2100.0342 7889492
1378.3068 1019.3543 2111.187 7560527
1385.0494 1015.1263 2102.4304 8021078
1390.6978 1010.1788 2092.1836 8021078
1415.7585 1019.295 2111.0642 7692113
1423.9214 1016.1922 2104.6379 7757907
1428.7103 1010.7564 2093.3799 7560527
1434.2722 1005.9563 2083.4382 8284252
1448.8796 1007.5282 2086.6938 8547425
1459.1836 1006.1063 2083.749 7823702
1475.9326 1009.1149 2089.98 7099722
1489.8038 1010.1221 2092.0662 7099979
1482.796 997.07294 2065.04 8086617
1507.0571 1005.0916 2081.6475 7823189
1526.9554 1010.094 2092.0078 8744034
1539.2412 1010.0206 2091.8557 7625553
1552.2596 1010.4252 2092.6938 7428688
1561.4957 1008.3809 2088.4597 7231565
1572.5814 1007.5538 2086.7468 8284509
1569.2765 997.59143 2066.1138 8284509
1584.5731 999.51672 2070.1013 7428690
1600.5608 1001.845 2074.9236 7033675
1623.7479 1008.6101 2088.9346 7822937
1637.5194 1009.4681 2090.7117 7757142
1650.9821 1010.1245 2092.071 7559763
1643.3254 997.94568 2066.8477 7954521
1649.3816 994.21313 2059.1169 8415072
1676.2937 1003.0145 2077.3455 7954521
1683.4583 999.95776 2071.0146 7559507
1710.38 1008.5956 2088.9048 6902090
1726.6447 1010.8704 2093.616 5652278
1733.4722 1007.6271 2086.8987 6967627
1751.5277 1010.91 2093.698 8810084
1763.8647 1010.8696 2093.6143 9073254
1785.743 1016.2595 2104.7773 7428684
1787.4395 1010.1689 2092.1631 7493967
1780.7338 999.44653 2069.9558 8086361
1784.1357 994.50507 2059.7217 7099466
1800.515 996.81525 2064.5063 8217947
1819.6715 1000.6215 2072.3894 7099466
1819.1495 993.62817 2057.9055 7560017
1826.7743 991.14825 2052.7693 7822932
1856.2023 1000.4525 2072.0393 7362382
1858.8879 995.31573 2061.4006 8152667
1861.4519 990.18127 2050.7666 9731699
1857.2091 981.51611 2032.8202 8086617
1887.5146 991.10339 2052.6765 7889495
1899.6793 991.10339 2052.6765 8152923
1918.6864 994.65051 2060.0229 8810597
1921.7694 989.95013 2050.2878 9402733
1938.1504 992.11566 2054.7729 6836550
1979.481 1006.9457 2085.4875 7823446
1981.2373 1001.5858 2074.3865 7231565
0 0 0 0
0 0 0 0
0 0 0 0
0 0 0 0
0 0 0 0
0 0 0 0
0 0 0 0
-2398.0105 1311.1938 2682.6897 21
-2378.1807 1309.0298 2678.262 21
-2345.1643 1299.5295 2658.8245 21
-2335.0862 1302.6974 2665.3062 21
-2308.1584 1296.4446 2652.5129 21
-2292.4863 1296.4712 2652.5674 21
-2293.574 1306.0419 2672.1489 21
-2272.9382 1303.2896 2666.5176 21
-2273.0979 1312.5062 2685.3748 21
-2254.0632 1310.6917 2681.6621 20
-2236.5781 1309.7588 2679.7537 21
-2225.5618 1312.6278 2685.6235 19
-2214.9053 1315.7518 2692.0154 19
-2201.1323 1317.0565 2694.6848 19
-2189.5481 1319.6996 2700.0925 19
-2176.9177 1321.7463 2704.28 19
-2158.3926 1320.2178 2701.1526 19
-2145.2463 1321.9811 2704.7603 19
-2141.2495 1329.4515 2720.0449 19
-2124.5544 1329.0916 2719.3083 19
-2119.4121 1336.0084 2733.4602 19
-2098.1904 1332.818 2726.9326 19
-2091.7368 1339.0319 2739.646 21
-2101.9119 1356.071 2774.5081 19
-2057.2344 1337.7112 2736.9438 20
-2049.009 1342.9508 2747.6641 21
-2114.5542 1397.012 2858.2727 20
-2102.1594 1400.0382 2864.4644 19
-2068.6934 1388.9661 2841.8108 19
-2085.7874 1411.938 2888.8113 19
-2080.9968 1420.353 2906.0283 19
-2071.094 1425.39 2916.334 19
-2038.0171 1414.4287 2893.9072 19
-2031.0468 1421.5535 2908.4844 18
-2018.0131 1424.52 2914.554 19
-1990.9049 1417.517 2900.2258 19
-1952.7603 1402.4655 2869.4307 19
-1931.7068 1399.5323 2863.4294 19
-1902.5665 1390.6362 2845.228 19
-1886.3601 1391.1191 2846.2163 19
-1878.0693 1397.5012 2859.2737 19
-1861.8512 1398.0468 2860.3899 19
-1843.952 1397.3284 2858.9202 19
-1828.6512 1398.5841 2861.4893 19
-1832.9376 1414.984 2895.0435 19
-1804.1693 1405.9354 2876.53 19
-1791.1089 1409.0717 2882.9468 19
-1783.4579 1416.5648 2898.2778 19
-1758.9595 1410.6921 2886.2622 19
-1744.9004 1413.1586 2891.3086 19
-1725.6312 1411.4126 2887.7363 19
-1712.0656 1414.3434 2893.7327 19
-1695.9409 1415.1981 2895.4814 19
-1685.5361 1420.8921 2907.1311 19
-1672.0477 1424.0773 2913.6482 19
-1652.3751 1422.007 2909.4121 19
-1628.7351 1416.4426 2898.0278 19
-1608.0404 1413.3485 2891.6973 19
-1592.255 1414.5491 2894.1536 18
-1499.347 1346.5145 2754.9556 18
-1480.7301 1344.4349 2750.7007 18
-1457.9941 1338.5275 2738.614 18
-1448.3424 1344.6344 2751.1086 18
-1430.0359 1342.7537 2747.261 18
-1414.1973 1343.1738 2748.1204 18
-1400.1566 1345.3311 2752.5342 18
-1380.52 1342.0991 2745.9216 18
-1363.2952 1341.1626 2744.0056 18
-1348.0876 1342.2122 2746.1528 18
-1334.9307 1345.3538 2752.5806 18
-1319.1493 1345.8956 2753.6892 18
-1301.7638 1344.7937 2751.4348 18
-1283.9154 1343.1797 2748.1326 19
-1268.7214 1344.3368 2750.5 19
-1253.2076 1345.1809 2752.2268 19
-1229.0612 1336.6586 2734.7903 19
-1192.2622 1313.9646 2688.3586 19
-1183.4406 1321.9066 2704.6079 19
-1166.3231 1320.6731 2702.0842 19
-1144.6691 1314.1968 2688.8337 19
-1125.8926 1310.8879 2682.064 19
-1137.7864 1343.7054 2749.208 19
-1105.4011 1324.424 2709.7583 19
-1092.568 1328.3455 2717.7817 19
-1091.9333 1347.4373 2756.8435 18
-1082.1616 1355.6626 2773.6724 18
-1063.875 1353.3102 2768.8594 18
-1048.8071 1355.0428 2772.4043 18
-1033.4689 1356.4756 2775.3357 18
-1019.1086 1359.2589 2781.0305 18
-1001.9175 1358.2963 2779.0608 18
-983.19922 1355.1965 2772.7188 18
-965.24738 1353.0656 2768.3589 18
-949.62531 1354.1833 2770.6458 18
-930.71161 1350.5638 2763.2405 18
-915.55719 1352.3676 2766.9307 18
-903.26312 1358.5392 2779.5579 18
-872.15625 1336.1193 2733.687 19
-869.83557 1357.7853 2778.0154 19
-857.33472 1364.0895 2790.9136 19
-833.7948 1352.7322 2767.6768 19
-811.98566 1343.7834 2749.3677 19
-792.19971 1337.8851 2737.2998 19
-778.67792 1342.5403 2746.8242 19
-765.13861 1347.3635 2756.6924 19
-754.65216 1357.8901 2778.23 19
-738.92053 1359.2382 2780.9878 19
-760.24585 1430.3684 2926.5198 19
-752.75061 1449.3295 2965.314 19
-737.04755 1453.016 2972.8564 19
-710.08917 1434.151 2934.2588 19
-699.50214 1448.2338 2963.072 19
-682.11932 1448.6096 2963.8411 19
-664.64966 1448.816 2964.2634 19
-648.30682 1451.5566 2969.8706 19
-633.59924 1458.2136 2983.4907 19
-615.4588 1457.1254 2981.2642 19
-596.71515 1454.5026 2975.8979 19
-550.82086 1383.5244 2830.6772 19
-541.65533 1403.2383 2871.0117 19
-543.0899 1452.5826 2971.9697 19
-525.22662 1451.8894 2970.5515 19
-489.70419 1400.64 2865.6958 18
-490.36044 1452.9031 2972.6252 18
-472.90775 1453.4061 2973.6545 18
-457.36172 1460.0349 2987.217 18
-439.54575 1459.6594 2986.4487 18
-422.42297 1461.651 2990.5234 17
-404.54684 1461.0959 2989.3879 18
-387.33871 1463.0132 2993.3108 18
-370.11145 1465.0388 2997.4551 18
-352.48279 1465.5997 2998.6028 18
-336.54474 1473.6229 3015.0181 18
-317.40552 1467.7429 3002.9875 18
-300.36279 1471.4348 3010.541 18
-284.96637 1484.1672 3036.5916 18
-267.96451 1489.6912 3047.8933 18
-249.15314 1485.2267 3038.7593 18
-231.73898 1489.0447 3046.5708 19
-213.4426 1487.3599 3043.1238 19
-195.57219 1488.6068 3045.6748 18
-177.63354 1489.5348 3047.5735 20
-159.55377 1489.3556 3047.2068 20
-141.58545 1490.3036 3049.1465 19
-123.60972 1491.4398 3051.4712 19
-105.48706 1490.8887 3050.3435 19
-87.199478 1487.2966 3042.9944 19
-68.974098 1483.1692 3034.5496 19
-51.074196 1485.5975 3039.5181 19
-32.981644 1482.0155 3032.1892 19
-15.087928 1489.4867 3047.4753 19
2.9568172 1481.8472 3031.8447 19
20.615061 1459.9557 2987.0549 19
38.180832 1454.7679 2976.4409 19
55.89888 1456.8275 2980.6548 19
73.526489 1456.1069 2979.1807 19
92.169746 1471.8845 3011.4612 19
109.89362 1470.2432 3008.103 19
128.26369 1476.4984 3020.9014 19
145.4922 1469.6902 3006.9717 19
161.00517 1448.929 2964.4944 19
178.70312 1449.9814 2966.6479 19
196.19417 1449.3171 2965.2886 19
213.41109 1446.9034 2960.3501 19
230.7076 1445.355 2957.1821 19
248.16737 1444.9758 2956.4065 19
265.77112 1445.4297 2957.335 21
283.33472 1445.6224 2957.7295 21
300.85205 1445.5707 2957.6235 21
318.00183 1443.8556 2954.1145 21
333.78854 1436.4536 2938.97 21
350.91434 1435.2627 2936.5334 21
367.96414 1433.8882 2933.7212 21
386.39365 1437.7716 2941.6667 21
402.52054 1433.1217 2932.1528 20
417.94595 1426.4624 2918.5281 19
434.42398 1423.7821 2913.0442 19
451.04913 1421.7705 2908.9285 19
466.48804 1416.3054 2897.7471 19
482.34375 1412.449 2889.8567 19
494.31152 1397.8623 2860.0125 19
507.44382 1387.4268 2838.6614 19
523.73999 1386.0338 2835.8115 19
541.28015 1387.9174 2839.6653 19
556.51117 1383.9446 2831.5371 19
572.9585 1383.1409 2829.8926 19
587.84204 1378.7152 2820.8376 19
605.09241 1379.9318 2823.3269 19
617.17578 1369.6166 2802.2222 19
631.62457 1364.9536 2792.6816 19
645.49341 1359.3074 2781.1296 19
729.14539 1497.236 3063.3301 19
676.61652 1355.6208 2773.5869 19
689.05481 1347.7996 2757.5847 19
708.08893 1352.9432 2768.1086 19
727.80084 1359.1199 2780.7458 19
743.04462 1356.8638 2776.1299 19
764.21045 1365.2852 2793.3601 19
774.43451 1354.2164 2770.7134 19
790.61572 1353.8076 2769.8772 18
806.78284 1353.3921 2769.0269 18
821.9519 1351.3521 2764.853 18
831.65344 1340.5787 2742.8108 18
799.90778 1264.6882 2587.5398 18
811.93054 1259.5511 2577.0293 18
823.07599 1253.2677 2564.1733 18
836.56281 1250.7125 2558.9456 18
851.53131 1250.4242 2558.3557 18
866.02301 1249.4581 2556.3789 18
871.48792 1235.7257 2528.2825 18
887.55115 1237.2313 2531.363 18
901.39795 1235.6486 2528.1248 18
912.73572 1230.7344 2518.0706 18
927.40771 1230.4019 2517.3901 17
940.07703 1227.465 2511.3813 16
957.61798 1230.8815 2518.3713 16
980.48541 1240.9343 2538.9395 16
994.8949 1240.1406 2537.3154 16
1005.0432 1234.1379 2525.0339 16
1015.5048 1228.6906 2513.8887 16
1024.3938 1221.5254 2499.2288 16
1033.3588 1214.6536 2485.1694 18
1044.1378 1210.0776 2475.8069 18
917.72211 1048.8331 2145.9021 18
914.42963 1030.7864 2108.9788 18
921.90411 1025.1997 2097.5486 17
920.91138 1010.471 2067.4138 15
923.1806 999.66132 2045.2972 16
928.24341 992.11755 2029.8628 14
931.38885 982.74377 2010.6841 131082
942.30853 981.70612 2008.561 262147
967.18988 995.05817 2035.8793 2628892
995.57056 1011.6371 2069.7996 5456955
996.20044 999.95697 2045.9022 7035210
1013.4915 1005.0807 2056.3853 8481628
1026.8601 1006.2391 2058.7554 8745055
1045.3926 1012.3708 2071.3008 8678752
1056.6007 1011.3498 2069.2117 8547421
1069.3381 1011.7991 2070.1309 8547165
1080.7504 1010.9985 2068.4929 8415579
1092.6001 1010.6205 2067.7197 8415578
1103.7278 1009.5905 2065.6123 8744544
1110.2661 1004.4312 2055.0564 7823699
1125.5444 1007.205 2060.7314 8547165
1146.8861 1015.2867 2077.2666 8086613
1149.8602 1007.1097 2060.5364 7297098
1163.6073 1008.4406 2063.2595 8810080
1182.389 1014.062 2074.761 8283993
1190.1605 1010.222 2066.9043 7955540
1193.0244 1002.337 2050.7717 7823953
1208.9817 1005.5007 2057.2446 7428938
1229.6278 1012.462 2071.4873 7297609
1251.5933 1020.3613 2087.6492 6903105
1252.3398 1010.9765 2068.448 7166022
1272.2827 1017.1201 2081.0178 6244920
1283.4171 1016.1715 2079.0769 6310201
1292.8894 1013.9374 2074.5059 5389099
1315.8323 1022.21 2091.4316 5520174
1331.0618 1024.392 2095.896 6902596
1334.4564 1017.5097 2081.8149 7428942
1351.5472 1021.101 2089.1626 7627090
1363.6292 1020.8773 2088.7048 7758419
1376.8529 1021.5047 2089.9885 6113594
1368.3088 1006.1151 2058.5015 8087127
1387.2568 1011.0336 2068.5649 7889491
1396.3512 1008.7476 2063.8877 7692113
1402.6443 1004.4952 2055.1873 7823698
1422.6288 1010.0366 2066.5249 8020822
1435.4338 1010.4296 2067.3291 7033927
1442.0421 1006.4909 2059.2705 7889495
1446.2671 1000.9688 2047.9723 7955288
1461.1598 1002.8604 2051.8425 7692116
1475.5222 1004.3597 2054.9102 9007976
1488.1106 1004.637 2055.4773 7165772
1495.5453 1001.4586 2048.9744 8283740
1523.2972 1011.8267 2070.1875 8546655
1533.2211 1010.2819 2067.0269 8481119
1541.1945 1007.4865 2061.3074 7823189
1540.0254 998.80554 2043.5464 8218205
1556.8866 1001.8627 2049.8013 7033675
1581.4082 1009.7637 2065.9666 6901833
1587.9685 1006.1628 2058.5994 7757396
1604.2791 1008.7477 2063.8879 8020568
1605.7177 1002.0129 2050.1086 6375487
1620.3419 1003.5457 2053.2446 7033675
1626.1885 999.65985 2045.2942 5980731
1651.1825 1007.5148 2061.3652 8941159
1642.1394 994.63812 2035.0199 7559763
1668.762 1003.3944 2052.9351 8086106
1682.2838 1004.2035 2054.5906 7822934
1693.5952 1003.6912 2053.5425 7625300
1714.436 1008.7935 2063.9814 7625040
1724.3395 1007.4332 2061.1985 7098952
1737.8787 1008.2014 2062.77 7230026
1757.0035 1012.1766 2070.9033 7953748
1762.6539 1008.3881 2063.1521 7954262
1774.2007 1008.0018 2062.3618 7954775
1780.7477 1004.7996 2055.8101 7493967
1786.0708 1000.9552 2047.9445 7954775
1788.0483 995.30017 2036.3744 7428431
1804.7095 997.83978 2041.5704 7231309
1814.8452 996.76166 2039.3645 8284253
1827.8615 997.26929 2040.4032 8218460
1836.1487 995.20715 2036.184 8152666
1849.6274 995.96747 2037.7396 7626323
1857.6658 993.80737 2033.3201 7626323
1857.9913 987.57556 2020.5698 7955034
1874.796 990.12659 2025.7893 8349792
1891.6393 992.66534 2030.9835 8086620
1890.7374 985.91888 2017.1804 7955034
1903.7299 986.45697 2018.2812 7231311
1930.6907 994.18097 2034.0845 7757398
1946.5466 996.12634 2038.0647 7231311
0 0 0 0
0 0 0 0
0 0 0 0
0 0 0 0
0 0 0 0
0 0 0 0
0 0 0 0
-2505.6746 1386.6747 2803.135 21
-2480.3606 1381.8268 2793.335 21
-2336.4641 1310.4066 2648.9604 21
-2305.0154 1301.5132 2630.9827 21
-2293.8521 1304.0309 2636.072 21
-2268.5256 1298.4761 2624.8433 21
-2274.1545 1310.6855 2649.5242 21
-2258.7229 1310.842 2649.8408 21
-2228.5181 1302.3674 2632.7095 21
-2212.896 1302.3556 2632.6855 21
-2198.6428 1303.155 2634.3015 21
-2196.467 1311.1753 2650.5144 20
-2174.0771 1307.1576 2642.3926 19
-2166.6692 1312.1547 2652.4941 19
-2158.1553 1316.5503 2661.3799 19
-2147.2666 1319.5511 2667.4458 19
-2137.9724 1323.5835 2675.5974 19
-2126.3447 1326.2209 2680.929 19
-2112.6775 1327.6163 2683.7495 19
-2094.6809 1326.2917 2681.072 19
-2086.0193 1330.9026 2690.3926 22
-2083.3901 1339.4628 2707.697 21
-2097.2478 1358.8381 2746.864 21
-2071.2222 1352.4736 2733.998 21
-2037.8003 1341.1407 2711.0889 21
-2108.322 1398.5801 2827.2012 20
-2108.0759 1409.6188 2849.5159 19
-2074.4138 1398.311 2826.6575 19
-1979.2454 1345.0217 2718.9343 19
-2066.0234 1415.5166 2861.4382 19
-2045.2057 1412.8497 2856.0474 19
-2042.9729 1423.0846 2876.7366 19
-2004.9144 1408.326 2846.9026 20
-2012.6794 1425.7783 2882.1821 19
-1991.4042 1422.7812 2876.1235 19
-1970.0868 1419.7021 2869.8992 19
-1933.7783 1405.6724 2841.5383 19
-1927.8358 1413.6631 2857.6914 19
-1892.6603 1400.1691 2830.4136 19
-1879.2167 1402.6547 2835.438 19
-1857.0249 1398.5964 2827.2344 19
-1838.1525 1396.9871 2823.9812 19
-1821.2103 1396.8285 2823.6606 19
-1806.084 1398.0728 2826.1758 19
-1791.2175 1399.5433 2829.1484 19
-1778.2029 1402.5022 2835.1299 19
-1766.0814 1406.2285 2842.6626 19
-1751.6384 1408.1606 2846.5684 19
-1729.9951 1404.2855 2838.7349 19
-1638.8978 1343.4028 2715.6616 19
-1620.0681 1341.1379 2711.0833 19
-1677.8195 1402.8585 2835.8501 19
-1664.9955 1406.2214 2842.6482 19
-1653.5813 1410.856 2852.0168 19
-1640.8135 1414.4196 2859.2205 19
-1624.9891 1415.395 2861.1924 19
-1605.2611 1412.9552 2856.2603 19
-1576.6307 1402.5437 2835.2139 18
-1573.3055 1414.6619 2859.7102 19
-1475.8513 1341.4845 2711.7837 19
-1461.1375 1342.7312 2714.304 18
-1447.8134 1345.2971 2719.491 19
-1431.3297 1344.9519 2718.7932 19
-1416.1752 1345.8621 2720.6328 19
-1401.2616 1347.0247 2722.9832 18
-1384.6399 1346.5533 2722.0303 19
-1368.5518 1346.5958 2722.1162 19
-1353.4314 1347.6029 2724.1521 19
-1338.9756 1349.3041 2727.5908 19
-1319.5061 1345.9326 2720.7756 19
-1306.4895 1349.1414 2727.262 19
-1289.0959 1347.854 2724.6597 19
-1274.3976 1349.3878 2727.7603 19
-1259.4934 1350.7404 2730.4941 19
-1247.0784 1354.8324 2738.7661 19
-1225.4939 1348.939 2726.853 19
-1197.2612 1335.4725 2699.6306 19
-1169.3518 1322.0068 2672.4099 19
-1162.2623 1332.0322 2692.6763 19
-1141.0525 1325.9288 2680.3384 19
-1128.9915 1330.4343 2689.446 19
-1120.3137 1339.1128 2706.9895 19
-1106.3955 1341.6885 2712.196 19
-1082.6504 1332.2476 2693.1116 19
-1080.1166 1349.0164 2727.0093 18
-1064.0494 1349.135 2727.2493 18
-1051.2062 1353.4081 2735.8872 18
-1038.4586 1357.9403 2745.0488 18
-1017.6425 1351.8981 2732.8345 18
-1007.1187 1359.5543 2748.3115 18
-987.6886 1355.2417 2739.5938 18
-971.80212 1355.7284 2740.5776 18
-957.94458 1359.1105 2747.4143 18
-941.11554 1358.3204 2745.8174 18
-917.65662 1347.7655 2724.4807 18
-909.65875 1359.9468 2749.105 18
-892.55273 1358.7074 2746.5994 18
-876.30304 1358.7496 2746.6848 19
-860.68878 1359.7974 2748.8027 19
-841.36761 1354.916 2738.9353 19
-833.65387 1368.9027 2767.209 19
-816.56989 1367.7554 2764.8899 19
-785.60901 1342.8414 2714.5269 19
-772.55304 1348.1305 2725.2185 19
-760.21344 1354.9221 2738.9475 19
-752.00671 1369.5366 2768.4907 19
-780.28467 1452.7305 2936.6653 19
-764.06012 1454.9751 2941.2026 19
-746.13055 1454.002 2939.2356 19
-731.72491 1460.0135 2951.3879 19
-714.38623 1460.324 2952.0154 19
-697.63257 1461.8759 2955.1526 19
-678.56445 1458.5331 2948.395 19
-662.20746 1460.9949 2953.3716 19
-645.68829 1463.2228 2957.8752 19
-630.15613 1467.8741 2967.2778 19
-614.02313 1471.3528 2974.3101 19
-596.81976 1472.3965 2976.4197 19
-549.10547 1395.9387 2821.8618 19
-561.07458 1471.1709 2973.9421 19
-542.17065 1467.7067 2966.9395 18
-523.31909 1464.1566 2959.7629 18
-490.48447 1419.8815 2870.2617 18
-470.8989 1412.1571 2854.647 18
-470.58771 1463.8119 2959.0662 18
-453.09821 1463.9624 2959.3704 18
-436.77951 1468.0601 2967.6538 18
-420.88666 1473.9929 2979.647 18
-403.19797 1473.8809 2979.4204 18
-385.45026 1473.533 2978.717 18
-367.90085 1473.946 2979.552 18
-351.77658 1480.3982 2992.595 18
-332.95309 1475.5732 2982.8413 18
-316.8681 1483.024 2997.9031 18
-298.10818 1478.0968 2987.9429 18
-281.22684 1482.4504 2996.7434 18
-264.14749 1486.2764 3004.4775 18
-246.01625 1484.3091 3000.5007 18
-229.71959 1493.9662 3020.0225 19
-212.11354 1496.0204 3024.175 19
-194.6808 1499.7889 3031.793 19
-176.44156 1497.4788 3027.123 18
-158.81592 1500.4429 3033.115 19
-140.91878 1501.2712 3034.7893 19
-122.60616 1497.2681 3026.697 19
-105.17542 1504.5077 3041.3318 19
-87.126152 1504.0643 3040.4355 19
-68.916962 1499.9089 3032.0356 19
-51.169125 1506.405 3045.1675 19
-32.944408 1498.2914 3028.7659 19
-15.000753 1498.8364 3029.8677 19
2.9490085 1495.8538 3023.8381 19
21.006937 1505.7468 3043.8367 19
39.013268 1504.5089 3041.3345 19
56.788956 1497.9698 3028.1157 19
74.628731 1495.8553 3023.8413 19
90.803894 1467.6549 2966.8347 19
111.23745 1506.2666 3044.8875 19
126.07838 1468.9399 2969.4324 19
143.7672 1469.8737 2971.3198 19
160.73993 1464.0813 2959.6106 19
178.00835 1461.8568 2955.114 19
195.24835 1459.8186 2950.9937 19
213.32071 1463.8269 2959.0964 19
230.82596 1463.6304 2958.6992 19
252.16174 1486.0358 3003.9912 19
264.948 1458.4247 2948.176 19
285.05591 1472.0389 2975.697 19
298.82251 1453.2281 2937.6714 19
315.61075 1450.3741 2931.9021 21
332.15884 1446.7722 2924.6208 21
349.44604 1446.587 2924.2463 21
365.81851 1442.8116 2916.6145 21
383.4873 1444.259 2919.5403 21
399.96707 1441.2968 2913.5522 21
415.40894 1434.9941 2900.8118 19
434.5231 1441.3741 2913.7087 18
455.17258 1452.1647 2935.5215 18
466.42813 1433.2939 2897.3748 19
482.74939 1430.7771 2892.2871 19
500.82175 1433.4448 2897.6797 19
506.5741 1401.8424 2833.7961 19
518.71191 1389.3717 2808.5869 19
544.18939 1412.296 2854.9277 19
561.08844 1412.246 2854.8267 19
581.89087 1421.7361 2874.0107 19
583.24316 1384.5151 2798.7695 19
602.84662 1391.4799 2812.8484 19
611.87262 1374.3118 2778.1436 19
626.45044 1370.1865 2769.8044 19
643.26642 1371.0424 2771.5344 19
726.40283 1509.6901 3051.8079 19
671.93945 1362.5735 2754.4148 19
687.17023 1360.4105 2750.0425 19
708.34991 1369.8524 2769.1289 19
722.46033 1365.5052 2760.3413 19
738.88019 1365.6188 2760.5708 19
758.70129 1371.8776 2773.2229 19
815.68976 1443.6519 2918.313 19
784.15558 1359.0265 2747.2446 19
799.84454 1358.0216 2745.2131 19
816.68597 1358.9747 2747.1399 19
839.39154 1369.4576 2768.3311 18
839.42151 1343.2531 2715.3589 18
805.96649 1265.4587 2558.0994 18
816.23004 1257.9131 2542.8459 18
830.10596 1256.1071 2539.1951 19
842.47021 1252.1185 2531.1323 19
853.2337 1245.9321 2518.6267 18
865.65704 1242.3408 2511.3667 18
881.20532 1243.2793 2513.2642 18
895.51904 1242.4742 2511.6365 18
906.92084 1237.7211 2502.0281 18
918.56915 1233.4521 2493.3984 18
929.88739 1228.8818 2484.1599 17
947.09528 1232.1163 2490.6982 16
970.91779 1243.7249 2514.1646 16
985.49017 1243.3121 2513.3303 16
995.28918 1236.9791 2500.5283 16
1005.7393 1231.6295 2489.7141 16
1017.5763 1228.1083 2482.5959 16
1022.6725 1216.668 2459.4697 18
1033.9889 1212.8453 2451.7422 18
1048.4883 1212.8104 2451.6716 18
914.19458 1043.0165 2108.4368 18
916.56592 1031.6218 2085.4028 17
919.35791 1020.9977 2063.9263 15
921.27362 1009.6922 2041.0723 16
923.63116 999.15759 2019.7769 16
927.00946 989.9826 2001.2299 65549
934.34021 985.20703 1991.5762 196618
954.73047 994.14941 2009.6528 459269
979.29199 1007.1613 2035.9563 3088928
974.58661 990.12311 2001.5138 5983040
1001.3187 1005.0492 2031.6865 7167051
1012.2017 1003.9014 2029.3665 8219737
1030.845 1010.387 2042.4769 8482399
1042.8438 1010.2849 2042.2705 8219227
1055.9702 1011.2651 2044.2521 8087642
1066.5496 1009.8115 2041.3135 7166540
1078.5011 1009.675 2041.0376 8087898
1088.5898 1007.8171 2037.2819 8022106
1100.6465 1007.8018 2037.251 7232333
1117.849 1012.4474 2046.642 7890006
1125.4379 1008.3797 2038.4192 8613473
1140.7181 1011.2166 2044.1537 7823956
1156.9962 1014.869 2051.5371 7757651
1161.5314 1008.2522 2038.1615 7231304
1173.3177 1008.0012 2037.6539 7955027
1186.1372 1008.6338 2038.9329 7955539
1200.1927 1010.294 2042.2889 7889489
1209.0205 1007.5646 2036.7714 7166023
1229.6949 1014.664 2051.1228 6771522
1237.1346 1010.811 2043.3341 5784369
1253.3591 1014.1409 2050.0654 6902849
1262.1284 1011.4324 2044.5901 6771005
1272.4954 1010.0435 2041.7825 5981747
1292.0035 1015.8683 2053.5574 6375994
1310.6477 1020.9116 2063.752 5389357
1315.0192 1014.8466 2051.4919 6113081
1339.4275 1024.2142 2070.4285 7627090
1343.7153 1018.1662 2058.2024 7363661
1345.0626 1010.0188 2041.7325 6969160
1362.1433 1013.7257 2049.2261 7100746
1365.0558 1006.916 2035.4604 7429711
1378.8483 1008.1809 2038.0173 7692626
