# .PCD v0.7 - Point Cloud Data file format
VERSION 0.7
FIELDS x y z rgb
SIZE 4 4 4 4
TYPE F F F U
COUNT 1 1 1 1
WIDTH 1367
HEIGHT 1
VIEWPOINT 0 0 0 1 0 0 0
POINTS 1367
DATA ascii
1161.6813 912.43982 4340.2212 9402726
1183.2816 909.27332 4325.1592 9007712
1214.5792 913.53485 4345.4297 9139298
1233.2537 908.32208 4320.6343 9007712
1259.1091 908.50275 4321.4937 9270884
1283.3386 907.52649 4316.8496 9204834
1303.2108 903.56732 4298.0171 9402470
1328.3701 903.35535 4297.0088 9336677
1354.516 903.80957 4299.1694 9205091
1378.5076 902.83624 4294.5396 9205091
1402.6909 902.02148 4290.6641 9336420
1426.9098 901.25812 4287.0332 9270884
1449.6049 899.57593 4279.0312 9073761
1464.1649 892.99005 4247.7041 8744797
1501.1613 900.07928 4281.4253 8810587
1521.9192 897.3584 4268.4829 8810330
1548.5159 898.11279 4272.0713 8679001
1574.4913 898.4884 4273.8579 8612951
1586.3376 890.91687 4237.8428 8284243
1615.7808 893.31018 4249.2266 8612952
1642.3241 894.05133 4252.752 8152402
1669.0526 894.86938 4256.6436 7955022
1689.3187 892.24982 4244.1831 8678747
1746.3362 908.83344 4323.0664 8613467
1750.2196 897.68512 4270.0371 8613211
1774.9359 897.38733 4268.6206 7889743
1795.448 895.0022 4257.2754 7823437
1829.458 899.31848 4277.8066 7165761
1851.1725 897.5553 4269.4194 8152656
1878.3519 898.45355 4273.6924 8613465
1906.7092 899.88379 4280.4956 8810587
1938.9589 903.08936 4295.7437 8086863
1955.8824 899.16608 4277.0815 8086863
1975.861 896.7298 4265.4927 8021071
1985.8187 889.86444 4232.8364 7889485
2014.797 891.58746 4241.0322 7297604
2051.6162 896.69507 4265.3276 8350292
2078.252 897.28143 4268.1172 8810843
2083.7661 888.84436 4227.9844 9271395
2111.3025 889.88989 4232.9575 8942430
2147.3018 894.43604 4254.582 9139809
2165.1763 891.41443 4240.209 9205603
2189.9277 891.26099 4239.4795 9205603
2214.1309 890.89044 4237.7168 9139555
2210.4915 879.45099 4183.3022 8942945
2263.0496 890.37567 4235.2681 8614237
2302.6714 896.02679 4262.1489 8087892
2320.7717 893.27167 4249.0435 7232584
2283.4434 869.46991 4135.8252 7035205
2296.5151 865.16095 4115.3286 7429964
2275.2727 848.15118 4034.4182 6179642
2313.6038 853.47137 4059.7249 8285530
2311.991 844.09888 4015.1423 12034700
2343.6802 846.95172 4028.7126 11837321
2362.6318 845.19049 4020.335 7099969
2389.8135 846.37915 4025.9893 9863531
2419.3887 848.38379 4035.5244 9468774
2437.4231 846.34167 4025.8105 10192240
2459.2847 845.65527 4022.5454 8152914
2577.3962 877.76099 4175.2637 8416086
2611.3369 880.86346 4190.021 8350293
2635.376 880.59882 4188.7622 8021328
2667.0383 882.86261 4199.5308 8152913
2699.998 885.51013 4212.124 8416085
2729.6047 887.01947 4219.3037 8350548
2787.9827 897.76624 4270.4229 8350292
2776.6699 886.08008 4214.8354 8481880
2819.8181 891.82684 4242.1709 7692620
2829.5593 886.99957 4219.209 7692621
2857.5503 887.9278 4223.624 8284502
2912.8318 897.24615 4267.9492 8152916
2900.4038 885.72699 4213.1558 7494984
2922.7239 884.92529 4209.3423 8152914
2959.6021 888.50763 4226.3823 8481879
2978.4036 886.64856 4217.5391 8416086
3006.6699 887.6145 4222.1343 8350293
3012.1738 881.90027 4194.9531 8547672
3016.7231 876.00238 4166.8984 10653045
3025.4744 871.41046 4145.0562 10456180
3022.6519 863.58594 4107.8369 10192237
3085.0505 874.37146 4159.1406 10915960
3129.2546 879.87018 4185.2964 11179131
3245.5215 905.38538 4306.665 12757647
3279.1956 907.64166 4317.3979 13415835
3279.6731 900.74591 4284.5962 13744801
3301.355 899.7348 4279.7871 13679265
3312.1545 895.79614 4261.0518 13744802
3308.5574 888.05267 4224.2183 13350044
3337.4749 889.08728 4229.1396 13152152
3359.7095 888.33954 4225.583 12165257
3361.864 882.33276 4197.0103 10454385
3338.5444 869.77747 4137.2881 9270114
3352.0498 866.92914 4123.7397 8151636
3326.5254 854.10101 4062.72 7625035
3355.3386 855.30841 4068.4631 7493962
3417.0071 864.81403 4113.6787 7691854
3420.5154 859.56946 4088.7314 7954768
3381.9028 843.88812 4014.1399 7757390
3437.4673 851.76184 4051.5928 8152404
3421.6575 841.96313 4004.9832 7955281
3406.3455 832.42126 3959.5952 7955024
3390.4895 822.87793 3914.2002 7560266
3370.7944 812.53882 3865.0203 7560006
3363.2798 805.25562 3830.3757 8218449
3363.843 799.99121 3805.3342 10784889
3473.3342 820.5296 3903.0298 13020313
3534.5015 829.45575 3945.4893 13085850
3578.8586 834.34583 3968.75 10914680
3624.8062 839.54034 3993.4587 6572089
3667.9019 844.01129 4014.7256 8348502
3685.4309 842.57935 4007.9143 7428425
3704.2571 841.46051 4002.5923 10520951
3779.3569 853.05768 4057.7568 12560534
3764.7769 844.3941 4016.5464 12692632
3790.3723 844.79352 4018.4465 12823704
3840.7163 850.66949 4046.397 12363153
3872.8538 852.46515 4054.9382 11178624
0 0 0 0
0 0 0 0
0 0 0 0
0 0 0 0
0 0 0 0
-3811.7241 909.67365 4208.4302 550
-3786.2832 909.55328 4207.8735 1062
-3759.6338 909.13916 4205.9575 290
-3700.5952 900.83496 4167.54 799
-3661.8911 897.40259 4151.6606 797
-3622.0549 893.64423 4134.2734 280
-3597.0432 893.5174 4133.6865 19
-3533.9639 883.86768 4089.0439 16
-3504.7129 882.60388 4083.1973 16
-3481.7739 882.9231 4084.6741 16
-3450.658 881.15875 4076.5117 16
-3465.7944 891.26367 4123.2603 16
-3433.1794 889.14532 4113.46 16
-3390.9702 884.49408 4091.9421 16
-3360.0659 882.74579 4083.8538 16
-3332.6082 881.88422 4079.8679 16
-3299.5388 879.51428 4068.9038 16
-3274.1155 879.16241 4067.2761 16
-3249.6201 879.05652 4066.7859 17
-3257.8369 887.86389 4107.5317 17
-3228.3528 886.45203 4101 17
-3195.4639 884.07672 4090.0112 16
-3152.0818 878.73981 4065.3208 16
-3158.9187 887.42847 4105.5176 16
-3129.5044 885.98926 4098.8589 16
-3098.303 884.0174 4089.7368 16
-3070.8501 883.09253 4085.4578 16
-3044.3303 882.4234 4082.3623 16
-3005.7788 878.22815 4062.9539 16
-2980.9917 878.01923 4061.9873 18
-2978.7275 884.49481 4091.9456 18
-2946.345 882.06006 4080.6816 18
-2912.2837 879.07837 4066.887 18
-2879.8667 876.54724 4055.1772 18
-2714.7173 833.2337 3854.7959 18
-2824.8918 874.40802 4045.2808 18
-2764.187 862.9408 3992.23 18
-2648.5996 833.9942 3858.3142 18
-2622.3442 832.91748 3853.3328 18
-2599.5916 832.94409 3853.4558 15
-2572.3865 831.53186 3846.9226 15
-2545.7241 830.27148 3841.0913 16
-2535.2195 834.30554 3859.7542 18
-2510.417 833.66504 3856.791 18
-2492.7185 835.39368 3864.7881 16
-2461.3052 832.5152 3851.4714 16
-2438.75 832.60724 3851.8972 16
-2427.0569 836.44434 3869.6492 16
-2401.6226 835.57391 3865.6221 16
-2450.6062 860.82758 3982.4531 16
-2427.9502 861.1626 3984.0034 16
-2409.0024 862.83258 3991.729 17
-2380.8855 861.21881 3984.2634 17
-2361.0278 862.59033 3990.6084 18
-2332.0225 860.61365 3981.4639 18
-2307.1255 860.1283 3979.2183 18
-2223.3162 837.44275 3874.2678 18
-2213.5537 842.46558 3897.5051 19
-2192.936 843.41931 3901.9172 19
-2196.7217 853.87909 3950.3074 19
-2195.4519 862.57794 3990.551 19
-2172.8723 863.00269 3992.5161 19
-2153.8469 864.86377 4001.1262 20
-2127.854 863.93756 3996.8408 20
-2113.2053 867.64825 4014.0078 20
-2092.9236 869.10406 4020.7432 21
-2071.2295 870.00031 4024.8894 21
-2050.7119 871.41742 4031.4453 21
-2036.2732 875.48145 4050.2466 18
-2014.6786 876.52905 4055.0935 19
-1992.2472 877.23352 4058.3525 18
-1972.4955 879.14966 4067.217 20
-1942.774 876.61462 4055.489 20
-1919.0192 876.74207 4056.0786 21
-1902.3231 880.13849 4071.7917 20
-1879.8663 880.92273 4075.4197 20
-1862.9922 884.37744 4091.4023 21
-1842.1206 886.00073 4098.9121 21
-1822.5022 888.27814 4109.4482 21
-1800.655 889.5163 4115.1763 21
-1780.3105 891.54083 4124.5425 21
-1759.2899 893.27856 4132.5815 21
-1737.7407 894.79309 4139.5884 21
-1714.9435 895.69916 4143.7803 21
-1694.016 897.62231 4152.6772 21
-1671.0299 898.4953 4156.7158 21
-1648.9049 899.86426 4163.0493 21
-1627.9003 901.89557 4172.4468 21
-1608.8395 905.08313 4187.1934 21
-1586.4293 906.45679 4193.5483 21
-1563.4769 907.55939 4198.6489 21
-1536.9135 906.56763 4194.061 21
-1520.4996 911.62854 4217.4741 21
-1498.12 913.22205 4224.8462 21
-1472.5459 912.88928 4223.3066 21
-1448.2058 913.32324 4225.3145 20
-1424.712 914.31555 4229.9053 20
-1401.8335 915.74542 4236.52 21
-1379.424 917.53931 4244.8193 21
-1355.5109 918.3811 4248.7139 21
-1332.4797 919.86383 4255.5732 21
-1310.1493 921.89667 4264.9775 21
-1285.7939 922.55658 4268.0308 21
-1265.4174 926.15509 4284.6787 20
-1242.728 928.17371 4294.0171 19
-1218.0208 928.73792 4296.6274 19
-1194.646 930.36389 4304.1499 19
-1171.9731 932.61945 4314.585 19
-1148.8805 934.63428 4323.9058 19
-1126.3989 937.24933 4336.0039 19
-1103.4817 939.61548 4346.9502 19
-1081.0782 942.54272 4360.4927 19
-1058.7771 945.70471 4375.1211 19
-1033.6879 946.47266 4378.6738 21
-1010.6699 949.22546 4391.4092 21
-985.16211 949.72357 4393.7134 21
-962.34082 952.90881 4408.4492 21
-937.94141 954.66553 4416.5767 21
-913.44366 956.42023 4424.6943 21
-889.11859 958.46472 4434.1528 21
-864.42133 960.22034 4442.2749 21
-839.35687 961.66559 4448.9609 21
-814.61719 963.58868 4457.8579 21
-792.85168 969.27673 4484.1724 21
-767.53705 970.87006 4491.5435 21
-743.33441 974.03473 4506.1846 21
-718.56818 976.66937 4518.373 21
-693.39673 978.93579 4528.8584 21
-666.83429 979.34192 4530.7373 21
-640.34082 979.8877 4533.2622 21
-614.98688 982.30139 4544.4287 21
-589.07782 984.00891 4552.3281 21
-563.14215 985.8338 4560.7705 21
-536.52167 986.58319 4564.2378 21
-509.10046 985.86188 4560.9004 21
-485.27747 992.41803 4591.2314 21
-459.57294 995.67657 4606.3066 21
-431.08295 992.93103 4593.6045 21
-402.82278 990.38025 4581.8037 21
-376.84045 993.46576 4596.0786 21
-349.76987 993.9397 4598.271 21
-322.79236 994.78046 4602.1606 21
-295.953 996.24152 4608.9199 21
-269.25693 998.53107 4619.5122 21
-242.6691 1001.7857 4634.5688 21
-213.93361 995.87347 4607.2173 21
-186.93652 997.50769 4614.7778 21
-160.54591 1003.4928 4642.4668 21
-133.37238 1006.0477 4654.2866 21
-110.38528 1049.7474 4856.4551 21
-80.392952 1034.1575 4784.3306 21
-56.126362 1115.3633 5160.0137 21
-24.447096 1067.3414 4937.8501 21
4.7178025 1045.6533 4837.5142 21
34.657467 1085.4777 5021.7539 21
66.197037 1115.465 5160.4844 21
96.750313 1115.1323 5158.9453 21
128.00299 1121.085 5186.4844 21
158.76526 1121.269 5187.3359 21
188.66959 1116.3171 5164.4268 21
215.02187 1094.6642 5064.2534 21
245.70665 1097.6707 5078.1621 21
275.86813 1097.938 5079.3989 21
311.66971 1118.3917 5174.0244 21
341.2731 1114.9321 5158.019 21
366.27341 1098.2393 5080.793 21
394.39389 1092.7274 5055.2935 21
410.44452 1056.9133 4889.6064 21
427.59772 1028.4747 4758.0405 21
446.19992 1006.8242 4657.8784 21
479.73599 1019.4306 4716.1997 21
507.49979 1019.0583 4714.4775 21
530.20264 1009.0928 4668.374 19
558.29706 1009.8681 4671.9609 19
585.47345 1008.9881 4667.8896 19
608.90436 1002.0237 4635.6704 19
636.53821 1002.2787 4636.8501 19
660.41974 996.84869 4611.729 19
686.03937 994.36951 4600.2593 19
715.84259 997.91193 4616.6475 19
743.89825 998.84692 4620.9736 18
772.89984 1000.9407 4630.6597 18
798.27002 998.34924 4618.6709 18
825.77228 998.50769 4619.4038 18
853.59778 999.03436 4621.8403 18
878.26508 995.94672 4607.5562 18
901.92999 991.94299 4589.0337 18
936.23688 999.53503 4624.1567 18
965.16364 1001.1148 4631.4653 65552
987.55493 996.01581 4607.8755 65548
963.79987 945.90167 4376.0322 196613
954.20758 911.9494 4218.9585 1050376
984.65588 917.02124 4242.4224 5391162
992.39856 901.22089 4169.3252 8285021
1038.5927 920.25867 4257.3999 9205862
1066.3673 922.45972 4267.5825 9336677
1093.6919 924.17841 4275.5337 9270883
1104.0571 911.81299 4218.3276 9270884
1137.4492 918.59137 4249.6865 9139298
1169.9513 924.37286 4276.4336 9205091
1186.1071 917.26801 4243.564 9402213
1201.0244 909.52032 4207.7207 9534056
1224.2239 908.23212 4201.7612 9402470
1251.1074 909.67389 4208.4316 9468263
1268.3346 904.17548 4182.9941 9731434
1318.9023 922.20026 4266.3823 8941919
1324.9067 908.97351 4205.1914 9205090
1350.6071 909.49847 4207.6196 9205347
1366.8033 903.72028 4180.8882 8745053
1396.3612 906.8252 4195.2524 9074018
1412.8873 901.50641 4170.646 9336933
1436.5626 900.8537 4167.6265 9336420
1467.916 904.95654 4186.6074 9271138
1492.4485 904.78784 4185.8271 9205088
1523.7279 908.64813 4203.686 9073759
1542.7633 905.20007 4187.7344 8810587
1556.4261 898.75897 4157.9355 8810586
1586.8142 902.02588 4173.0493 8744538
1606.682 899.30414 4160.458 9205346
1649.8672 909.51892 4207.7144 9007711
1651.0486 896.61884 4148.0347 9139811
1681.1128 899.55225 4161.6055 9008225
1704.0854 898.66095 4157.4824 8942432
1735.5156 902.19177 4173.8169 8876639
1764.7716 904.50903 4184.5371 9139810
1799.6565 909.60699 4208.1221 8416085
1817.0018 905.82178 4190.6104 8481879
1840.0031 904.92017 4186.4395 8613465
1866.4401 905.7099 4190.0928 8942172
1893.7064 906.87592 4195.4873 8679000
1920.6244 907.84717 4199.9805 8613208
1948.1146 909.06049 4205.5938 8810330
1946.9957 897.06183 4150.084 7955278
2001.1544 910.51343 4212.3154 6639418
2008.3965 902.54974 4175.4731 6705211
2037.1152 904.3139 4183.6348 7428934
2038.7662 894.16425 4136.6792 7099969
2079.7944 901.32062 4169.7866 8679258
2073.2542 887.93628 4107.8667 7758156
2106.6204 891.75543 4125.5352 8810843
2138.8499 895.01123 4140.5977 8481622
2163.1123 894.89728 4140.0703 8152915
2181.1079 892.22223 4127.6948 8482137
2212.915 895.19379 4141.4419 8350808
2232.7639 893.31561 4132.7529 8284759
2255.2786 892.53326 4129.1338 8219222
2257.2207 883.71338 4088.3303 8021844
2255.4414 873.63947 4041.7251 7889487
2263.8804 867.69366 4014.218 8941918
2276.2939 863.37897 3994.2571 9073248
2298.8311 862.95343 3992.2881 7822925
2316.8198 860.84644 3982.5405 7757645
2336.1211 859.26483 3975.2236 8612954
2370.7861 863.30933 3993.9351 9994605
2388.5081 861.16516 3984.0154 10257776
2394.6123 854.91541 3955.1018 11179134
2450.3926 866.34985 4008.0012 11903112
2522.0198 883.11383 4085.5564 8745305
2552.5312 885.29865 4095.6643 8547925
2576.8359 885.31006 4095.7168 8350293
2601.6167 885.48309 4096.5176 8284500
2660.5654 897.17487 4150.6074 7692363
2672.7175 893.01672 4131.3701 7626570
2689.8923 890.59686 4120.1753 7560778
2732.5652 896.58679 4147.8867 7363399
2743.5439 892.16345 4127.4229 7429193
2774.0581 894.11475 4136.4502 7692108
2803.8354 895.79651 4144.2305 8152916
2831.6631 896.8316 4149.019 8087122
2855.4072 896.56671 4147.7935 7692362
2895.6829 901.4527 4170.3975 7494984
2910.7534 898.47577 4156.6255 8284499
2897.2485 886.80237 4102.6206 8284243
2924.675 887.74738 4106.9927 7626314
2879.9446 866.95526 4010.802 7889744
2926.2922 873.69653 4041.9893 8218454
2898.8115 858.46466 3971.5217 8416088
2879.6509 845.92212 3913.4961 8942172
2900.813 845.33051 3910.759 11639169
2994.2224 865.63513 4004.6943 10389357
3133.0901 898.65912 4157.4736 9731170
3216.8474 915.48383 4235.3101 9533791
3247.5479 917.06555 4242.6274 10981237
3238.0823 907.36768 4197.7622 11113078
3222.4695 896.10828 4145.6729 12758417
3258.0457 899.1463 4159.7275 13877156
3301.4292 904.2771 4183.4644 13745572
3273.2312 889.87103 4116.8174 13482398
3313.3154 894.10419 4136.4014 13086613
3316.6052 888.41907 4110.1001 12494478
3335.6831 887.0152 4103.6055 10520176
3314.1143 874.90118 4047.5623 9007450
3343.3765 876.28387 4053.959 7823179
3403.0898 885.57098 4096.9238 7560520
3395.4316 877.31891 4058.7473 7363400
3390.271 869.82373 4024.0725 7494986
3399.1941 866.02136 4006.4814 7626314
3403.5227 861.10931 3983.7571 7626571
3398.4944 853.914 3950.469 7955540
3329.5625 830.87036 3843.8623 4929068
3316.5505 821.99945 3802.8228 3351837
3318.1208 816.8382 3778.9448 5785660
3333.0737 815.01849 3770.5266 10390135
3382.6821 821.64069 3801.1626 11639949
3459.1335 834.65222 3861.3582 12560020
3492.3545 837.13013 3872.8218 12625814
3565.6465 849.11829 3928.2827 12954523
3586.1926 848.4715 3925.2903 11572614
3630.229 853.35492 3947.8823 7230532
3646.7324 851.745 3940.4346 8349271
3741.874 868.40582 4017.5127 8283479
3688.3948 850.58246 3935.0562 8283732
3776.803 865.49817 4004.061 9599847
3814.7109 868.72711 4018.999 11573378
3882.1086 878.59009 4064.6284 11837062
0 0 0 0
0 0 0 0
0 0 0 0
0 0 0 0
0 0 0 0
-3775.0537 925.62225 4167.9434 1063
-3756.3167 927.09399 4174.5703 1578
-3735.8596 928.15808 4179.3613 289
-3678.1821 919.92712 4142.2988 1056
-3644.5845 917.64868 4132.0391 541
-3579.0281 907.23816 4085.1621 281
-3551.6765 906.43628 4081.5513 19
-3524.823 905.75134 4078.4673 17
-3494.6538 904.1991 4071.4778 16
-3461.0559 901.73193 4060.3684 16
-3439.8267 902.47534 4063.7161 16
-3394.606 896.89032 4038.5676 16
-3377.4048 898.6817 4046.6338 16
-3343.1462 895.92743 4034.2317 16
-3328.7266 898.48846 4045.7637 16
-3300.0315 897.20551 4039.9868 16
-3284.321 899.45972 4050.1372 16
-3255.4333 898.11194 4044.0684 15
-3218.491 894.50543 4027.8286 17
-3192.6096 893.94214 4025.2922 17
-3165.209 892.94189 4020.7881 17
-3141.1553 892.87762 4020.499 17
-3125.9883 895.35797 4031.6672 16
-3102.0581 895.34711 4031.6184 16
-3074.7148 894.34326 4027.0984 16
-3050.4795 894.23492 4026.6104 16
-3020.4231 892.40485 4018.3699 16
-3011.9165 896.96338 4038.8965 16
-2980.8093 894.81049 4029.2021 16
-2952.4829 893.46423 4023.1404 16
-2945.7314 898.67822 4046.6179 17
-2920.9646 898.43652 4045.5298 17
-2885.8884 894.99365 4030.0271 17
-2853.9851 892.48547 4018.7332 17
-2825.0837 890.88177 4011.512 15
-2802.9404 891.40015 4013.8459 16
-2777.8733 890.9895 4011.9968 16
-2624.0842 848.92841 3822.6018 16
-2597.8938 847.77417 3817.4045 16
-2577.175 848.40094 3820.2268 16
-2552.7456 847.80658 3817.5503 15
-2533.375 848.89661 3822.4585 15
-2507.4011 847.77368 3817.4023 16
-2481.5522 846.67291 3812.4458 16
-2464.4182 848.55273 3820.9102 16
-2440.217 848.01141 3818.4727 16
-2416.9993 847.80487 3817.5427 16
-2391.6184 846.82867 3813.1467 16
-2370.0811 847.20758 3814.853 16
-2348.0798 847.42645 3815.8389 17
-2328.6562 848.58881 3821.0728 18
-2308.0681 849.34552 3824.4802 18
-2287.1077 849.979 3827.3323 18
-2259.9702 848.3064 3819.801 18
-2238.2083 848.63818 3821.2949 18
-2217.356 849.32513 3824.3884 18
-2195.8806 849.78516 3826.46 18
-2171.312 849.04535 3823.1282 18
-2152.082 850.39935 3829.2253 19
-2135.3481 852.77911 3839.9412 19
-2116.6248 854.40717 3847.2717 19
-2156.3914 879.93793 3962.2332 19
-2137.4678 881.81812 3970.6995 20
-2117.5872 883.34088 3977.5564 20
-2099.5347 885.66925 3988.0405 21
-2080.0049 887.42023 3995.925 21
-2061.4175 889.61829 4005.8228 21
-2040.2321 890.73328 4010.8433 21
-2019.5414 892.09314 4016.9666 21
-1993.6394 891.15601 4012.7463 19
-1971.0193 891.68091 4015.1101 19
-1949.9962 892.94989 4020.8242 18
-1929.5559 894.52057 4027.8967 18
-1908.0045 895.60895 4032.7976 18
-1888.3286 897.61646 4041.8374 18
-1867.6193 899.1781 4048.8689 21
-1847.4482 901.04297 4057.2659 20
-1824.7676 901.71667 4060.2998 21
-1803.9178 903.32538 4067.5435 21
-1784.9208 905.91797 4079.2175 21
-1764.5018 907.85004 4087.9175 21
-1743.7241 909.64893 4096.0176 21
-1722.8374 911.44073 4104.0859 21
-1701.2831 912.92572 4110.7725 21
-1680.6182 914.93817 4119.834 21
-1658.8838 916.41895 4126.502 21
-1637.5145 918.14893 4134.292 21
-1616.8734 920.34583 4144.1841 21
-1595.4125 922.13666 4152.248 21
-1574.4037 924.24908 4161.7598 21
-1551.1301 925.07788 4165.4922 21
-1528.4885 926.31677 4171.0703 21
-1507.9352 928.88251 4182.6235 21
-1484.1923 929.53644 4185.5684 21
-1460.0891 929.98322 4187.5801 21
-1436.9244 931.05359 4192.3994 21
-1413.9703 932.30035 4198.0137 21
-1390.468 933.22388 4202.1719 21
-1366.9408 934.16406 4206.4058 21
-1344.2043 935.68964 4213.2749 21
-1321.0703 936.99097 4219.1348 21
-1297.8942 938.31207 4225.0835 19
-1275.0192 939.90704 4232.2656 19
-1251.3506 940.9693 4237.0488 19
-1230.9874 944.61163 4253.4497 19
-1208.4088 946.67059 4262.7207 19
-1184.3391 947.62439 4267.0156 19
-1159.8114 948.24542 4269.812 19
-1135.7961 949.32239 4274.6616 19
-1114.6355 952.88898 4290.7212 19
-1093.1576 956.34442 4306.2808 19
-1071.0045 959.36029 4319.8608 19
-1048.9469 962.61151 4334.5005 19
-1024.7557 964.01898 4340.8379 21
-1001.9719 966.85669 4353.6157 21
-978.46631 969.12964 4363.8506 21
-954.55267 971.1109 4372.772 21
-930.59845 973.16022 4382 21
-907.52222 976.27185 4396.0112 21
-883.68152 978.7207 4407.0376 21
-859.00525 980.36505 4414.4419 21
-834.10754 981.85193 4421.1372 21
-809.54242 983.83948 4430.0869 21
-785.36493 986.4472 4441.8291 21
-761.46295 989.59387 4455.998 21
-736.99756 992.20813 4467.7695 21
-712.39313 994.82294 4479.5439 21
-687.82147 997.68793 4492.4443 21
-662.26556 999.29834 4499.6958 21
-636.18109 1000.2128 4503.814 21
-610.30591 1001.5508 4509.8389 21
-583.7453 1001.8352 4511.1191 21
-558.12347 1003.8353 4520.125 21
-532.66565 1006.3469 4531.4346 21
-508.4696 1011.6355 4555.2485 21
-481.25656 1011.1783 4553.1895 21
-457.13611 1017.5504 4581.8823 21
-428.36261 1013.716 4564.6167 21
-401.46716 1014.1087 4566.3848 21
-374.12424 1013.3461 4562.9507 21
-347.55536 1014.7245 4569.1577 21
-320.80994 1015.777 4573.897 21
-294.09122 1017.116 4579.9263 21
-267.22882 1018.1799 4584.7168 21
-240.26656 1019.061 4588.6841 21
-213.47614 1020.9888 4597.3652 21
-186.77405 1023.9652 4610.7671 21
-159.60741 1024.9781 4615.3281 21
-137.233 1063.5498 4789.0107 21
-112.44928 1098.6943 4947.2617 21
-85.607574 1131.4292 5094.6621 21
-55.185452 1126.7318 5073.5107 21
-23.831802 1069.0044 4813.5723 21
4.9759007 1133.0947 5102.1616 21
35.138004 1130.7007 5091.3818 21
65.700226 1137.4459 5121.7544 21
95.917946 1135.8486 5114.562 21
126.13963 1135.0541 5110.9844 21
157.61882 1143.6918 5149.8784 21
187.55576 1140.1516 5133.938 21
217.01225 1135.0868 5111.1318 21
246.41248 1131.0045 5092.7495 21
276.17145 1129.2798 5084.9839 21
307.29849 1132.9385 5101.458 21
334.17505 1121.6747 5050.7388 21
358.72717 1105.1021 4976.1147 21
379.46152 1080.1794 4863.8921 21
431.79593 1142.3784 5143.9648 21
428.07983 1057.8632 4763.4048 21
447.61597 1037.7106 4672.6606 20
475.72141 1038.615 4676.7329 20
500.76575 1033.1046 4651.9209 20
528.16022 1032.7648 4650.3906 19
554.18939 1029.9213 4637.5869 19
583.87518 1033.821 4655.1465 19
604.82214 1022.5938 4604.5923 19
630.84442 1020.5465 4595.3735 19
656.51135 1018.1177 4584.4365 19
683.53821 1017.9069 4583.4878 19
712.10687 1019.9207 4592.5552 19
739.27234 1019.8503 4592.2383 18
766.42926 1019.7735 4591.8926 18
793.98767 1020.218 4593.894 18
817.2428 1015.2867 4571.6895 18
847.33893 1018.8983 4587.9517 18
875.96545 1020.5728 4595.4917 18
901.40747 1018.5482 4586.375 18
923.71765 1013.2067 4562.3232 18
953.01849 1015.6191 4573.1855 65552
978.60645 1014.0504 4566.1221 65552
1001.6547 1010.0054 4547.9082 65550
984.05548 966.25989 4350.9287 196617
964.38141 922.76306 4155.0688 459011
959.60107 895.32843 4031.5344 4667441
1019.8472 928.42389 4180.5586 8219483
1041.0206 925.22302 4166.1455 8547416
1065.5251 925.06244 4165.4224 9336677
1087.2599 922.5589 4154.1494 9270884
1118.7087 928.2265 4179.6694 8744539
1130.2386 917.47894 4131.2749 9270883
1155.4716 918.07495 4133.959 9402470
1176.7487 915.56848 4122.6724 9599592
1200.9778 915.41382 4121.9761 9665642
1227.6182 917.06677 4129.4189 9797228
1242.4938 910.03821 4097.7705 9600618
1269.7313 912.15997 4107.3242 9600361
1298.8694 915.54126 4122.5498 9468776
1326.4832 917.74329 4132.4653 9271397
1338.4897 909.26306 4094.28 9073761
1362.7533 909.26306 4094.28 9205604
1395.7114 914.96289 4119.9453 9402983
1394.0707 898.17511 4044.3525 9139811
1431.8099 906.89795 4083.6301 9073758
1465.6486 912.90118 4110.6621 9271137
1489.8556 912.80713 4110.2383 9205345
1503.7855 906.52063 4081.9314 9139552
1523.7451 904.01056 4070.6289 8547415
1546.7844 903.3775 4067.7781 9139552
1578.5736 907.79547 4087.6719 9468261
1598.9775 905.63165 4077.9285 9139296
1623.2697 905.70166 4078.2437 9007969
1647.3021 905.62689 4077.9067 9008225
1671.3981 905.58862 4077.7346 9008224
1691.5402 903.4397 4068.0586 8942432
1722.1312 906.85358 4083.4304 9007968
1750.8236 909.18683 4093.9368 8810844
1764.6168 903.82501 4069.7932 8876637
1809.5048 914.31958 4117.0488 8613208
1823.4745 909.12012 4093.6362 8218449
1844.865 907.70837 4087.2795 8152401
1875.715 910.92725 4101.7734 8612951
1900.2345 911.02863 4102.23 7099711
1901.4353 900.08899 4052.9707 5586217
1935.5524 904.80963 4074.2268 6046766
1953.3702 901.88843 4061.0732 5388838
1991.3273 908.22363 4089.5996 6310197
2014.8336 907.89496 4088.1196 7560777
2042.8148 909.56641 4095.646 7165762
2064.9709 908.63562 4091.4548 8152914
2064.3184 897.80652 4042.6926 8021328
2087.5391 897.4895 4041.2654 8152914
2119.9985 901.10663 4057.553 8547673
2140.7437 899.71936 4051.3062 8219221
2159.042 897.34601 4040.6194 8153173
2169.4241 891.77057 4015.5137 8153173
2181.1958 886.88104 3993.4971 8481881
2204.6616 886.80048 3993.1343 8218709
2219.3176 883.21539 3976.9915 8086866
2256.8247 888.70428 4001.7068 8284502
2257.8293 879.85431 3961.8569 7955537
2291.5347 883.79852 3979.6167 7954767
2310.4521 882.01703 3971.5952 8020816
2348.4338 887.47583 3996.1753 9402470
2360.1418 882.99597 3976.0032 9007454
2371.2952 878.39917 3955.3044 8810073
2401.8284 881.00104 3967.0203 7954252
2427.106 881.64331 3969.9124 10850169
2447.2854 880.43909 3964.49 9336928
2493.3479 888.48102 4000.7017 9271136
2530.7559 893.31653 4022.4753 9205343
2549.1365 891.40814 4013.8818 8481879
2575.657 892.3551 4018.146 8350293
2586.415 887.8739 3997.9675 7955535
2624.8157 892.87689 4020.4956 8087120
2679.5403 903.29297 4067.3977 8087120
2703.6567 903.29706 4067.4158 7692363
2727.3772 903.16998 4066.8438 7626315
2723.3784 893.94623 4025.3103 7823951
2770.428 901.49371 4059.2959 7823950
2765.9009 892.27289 4017.7756 7758158
2806.0188 897.48877 4041.2622 7035205
2806.5208 890.05267 4007.7786 7429707
2824.051 888.09637 3998.9697 7495245
2823.6292 880.57416 3965.0981 7429709
2793.2444 863.90912 3890.0576 7298125
2804.219 860.20386 3873.3735 7956055
2790.6475 849.09039 3823.3313 8482143
2825.7327 852.84106 3840.22 8087125
2834.5474 848.6665 3821.4226 7758160
2897.6279 860.67645 3875.5017 10323829
2984.4922 879.50653 3960.2905 9139039
3060.3726 894.83105 4029.2947 9270110
3120.5986 905.37659 4076.7798 8678231
3098.2756 891.99408 4016.5205 8678484
3236.7266 924.74976 4164.0142 8217933
3261.1995 924.69189 4163.7539 9599329
3223.1692 907.04565 4084.2954 12033670
3261.2466 910.92053 4101.7437 13810338
3252.4573 901.74445 4060.4248 13547165
3245.2793 893.14642 4021.7095 13020565
3265.1328 892.05908 4016.813 12428428
3329.9907 903.19409 4066.9521 11770499
3386.7598 911.99078 4106.5625 11441792
3347.0864 894.8772 4029.5024 9994347
3421.0217 908.16522 4089.3367 7889486
3373.6616 889.29309 4004.3582 7560266
3384.6926 885.96881 3989.3894 7165506
3367.6533 875.39404 3941.7725 6968644
3351.4438 865.17914 3895.7766 6243643
3112.7161 798.05377 3593.5208 917760
3173.5657 808.12585 3638.8738 851968
3261.2615 824.85187 3714.1887 4208178
3326.5071 835.71375 3763.0981 11049100
3351.0876 836.28259 3765.6597 10587003
3396.9592 842.12201 3791.9539 10982016
3451.8726 850.11157 3827.9294 11902610
3507.6016 858.19641 3864.3342 12297881
3533.3701 858.89337 3867.4729 13284520
3505.2876 846.57574 3812.0083 12363933
3542.5022 850.0849 3827.8096 9271145
3559.4597 848.71948 3821.6611 9270889
3636.1885 861.53296 3879.3584 8218712
3620.271 852.3725 3838.1101 8021078
3689.8196 863.32312 3887.4194 7560271
3731.7654 867.71973 3907.2166 8218455
0 0 0 0
0 0 0 0
0 0 0 0
0 0 0 0
0 0 0 0
-3756.75 945.71466 4147.7344 807
-3727.5681 944.54865 4142.6206 807
-3701.7939 944.23645 4141.2515 546
-3644.1492 935.73639 4103.9717 541
-3626.5747 937.48047 4111.6206 27
-3590.5559 934.44781 4098.3203 280
-3526.5574 924.04248 4052.6843 20
-3499.4814 923.2356 4049.1455 18
-3462.7297 919.84711 4034.2842 18
-3448.2786 922.37683 4045.3789 17
-3424.1318 922.3302 4045.1743 17
-3398.8982 921.9881 4043.6741 18
-3366.095 919.5733 4033.0833 18
-3350.658 921.90204 4043.2966 18
-3306.2676 916.24072 4018.4673 18
-3292.9771 919.17816 4031.3503 18
-3272.7268 920.20172 4035.8396 17
-3244.3225 918.93085 4030.2654 17
-3203.2583 914.02869 4008.7656 17
-3172.8745 912.1236 4000.4102 17
-3149.8743 912.32837 4001.3083 16
-3120.5098 910.67889 3994.074 16
-3111.199 914.90137 4012.593 16
-3084.0569 913.90497 4008.2229 16
-3055.5601 912.48853 4002.0105 16
-3025.4797 910.5733 3993.6108 16
-3025.1042 917.63855 4024.5977 16
-2985.4233 912.7984 4003.3696 16
-2958.3867 911.77771 3998.8931 17
-2951.5378 917.0127 4021.8528 18
-2926.3027 916.57385 4019.9285 18
-2895.6101 914.40454 4010.4141 18
-2862.0295 911.27972 3996.709 18
-2679.1816 860.17889 3772.5901 17
-2808.7651 909.37152 3988.3401 15
-2778.2007 907.10925 3978.4182 16
-2614.4409 860.94647 3775.9563 16
-2608.5776 866.43146 3800.0127 16
-2583.9854 865.73718 3796.9675 16
-2558.3652 864.68304 3792.3445 16
-2536.031 864.73083 3792.554 16
-2514.0613 864.90491 3793.3174 16
-2495.5459 866.28107 3799.3533 16
-2470.3132 865.32935 3795.1792 16
-2448.0012 865.3927 3795.4568 16
-2425.4758 865.38092 3795.4053 16
-2402.6628 865.26556 3794.8994 15
-2379.2219 864.91962 3793.3818 16
-2358.3882 865.52393 3796.0325 18
-2336.762 865.84625 3797.446 18
-2314.2029 865.82587 3797.3567 18
-2294.9287 867.04608 3802.7083 18
-2273.0327 867.29022 3803.7788 19
-2248.5554 866.54431 3800.5076 19
-2257.5891 878.82843 3854.3838 19
-2199.0056 864.77283 3792.7383 19
-2179.9556 866.13428 3798.7095 19
-2157.1699 866.02441 3798.2275 19
-2137.5752 867.20679 3803.4128 19
-2120.6714 869.51764 3813.5481 19
-2100.7444 870.62537 3818.4065 19
-2140.5251 896.77179 3933.0798 18
-2119.1934 897.60907 3936.752 21
-2063.7451 883.85352 3876.4226 21
-2077.7344 899.86157 3946.6311 21
-2058.4065 901.6402 3954.4319 21
-2039.137 903.48572 3962.5261 21
-2019.4531 905.1886 3969.9944 19
-1997.6494 905.97015 3973.4221 19
-1975.9971 906.83978 3977.2363 19
-1955.6025 908.3147 3983.7051 19
-1938.0071 911.1416 3996.1033 19
-1917.9476 912.86566 4003.6648 19
-1893.9883 912.75348 4003.1729 19
-1874.7516 914.94324 4012.7766 18
-1852.0026 915.45319 4015.0129 19
-1832.6982 917.70123 4024.8726 19
-1810.7231 918.6535 4029.0493 19
-1789.5768 920.0575 4035.2065 19
-1768.4402 921.50452 4041.553 19
-1746.1848 922.40021 4045.4814 21
-1728.5631 925.80255 4060.4038 21
-1709.1658 928.33679 4071.5181 21
-1688.9581 930.49695 4080.9924 21
-1668.673 932.67651 4090.5518 21
-1649.3186 935.44849 4102.709 21
-1627.2607 936.74701 4108.4038 21
-1606.2241 938.6817 4116.8892 21
-1583.3411 939.58038 4120.8306 21
-1561.0291 940.85144 4126.4053 21
-1541.3574 943.77966 4139.248 21
-1519.1873 945.24805 4145.688 20
-1496.3618 946.35022 4150.522 20
-1472.6696 946.93195 4153.0732 20
-1449.583 947.9295 4157.4482 21
-1426.8433 949.1922 4162.9863 21
-1404.7319 950.9248 4170.5854 21
-1381.6549 952.05396 4175.5376 21
-1357.8026 952.68042 4178.2852 21
-1334.9833 954.06836 4184.3726 21
-1311.0736 954.7149 4187.208 21
-1286.5614 954.93915 4188.1914 19
-1263.4851 956.25885 4193.9795 19
-1240.2896 957.53967 4199.5967 19
-1220.927 961.89258 4218.688 19
-1198.562 964.01257 4227.9858 19
-1174.2393 964.61481 4230.6274 19
-1149.9045 965.23346 4233.3403 19
-1125.546 965.85913 4236.0845 19
-1102.6475 967.79468 4244.5737 19
-1082.52 972.30981 4264.376 19
-1060.1243 974.95459 4275.9756 19
-1038.783 978.72235 4292.5005 19
-1015.9249 981.21442 4303.4302 21
-993.84784 984.60858 4318.3164 21
-970.83435 987.22992 4329.813 21
-947.80621 989.97827 4341.8667 21
-924.40326 992.47754 4352.8281 21
-901.2182 995.36102 4365.4746 21
-877.32532 997.61005 4375.3384 21
-853.0282 999.52234 4383.7256 21
-829.20233 1002.1244 4395.1377 21
-804.52808 1003.8366 4402.647 21
-779.56659 1005.2932 4409.0352 21
-755.26819 1007.7355 4419.7471 21
-731.19489 1010.6646 4432.5933 21
-706.20435 1012.4968 4440.6289 21
-682.02362 1015.6768 4454.5762 21
-656.70068 1017.3435 4461.8857 20
-630.55884 1017.8281 4464.0112 21
-605.27899 1019.8075 4472.6924 21
-580.12714 1022.1938 4483.1582 21
-555.05035 1024.9478 4495.2368 21
-529.08856 1026.2627 4501.0039 21
-503.06485 1027.5909 4506.8291 21
-477.61426 1030.3043 4518.7295 21
-450.31772 1029.1213 4513.5415 21
-426.5527 1036.3695 4545.3306 21
-399.63376 1036.4153 4545.5312 21
-372.66711 1036.3351 4545.1792 21
-345.99734 1037.1321 4548.6753 21
-319.09714 1037.3148 4549.4766 21
-291.74881 1035.9402 4543.4473 21
-263.64014 1031.3116 4523.1475 21
-236.74503 1030.9197 4521.4287 21
-210.45671 1033.4075 4532.3394 21
-183.85942 1034.884 4538.8154 21
-157.26178 1036.8644 4547.5005 21
-134.32101 1068.7605 4687.3916 21
-108.3553 1086.9449 4767.145 21
-81.01284 1099.2747 4821.2212 21
-53.408424 1119.5485 4910.1382 21
-23.808086 1096.4385 4808.7817 21
4.6394243 1084.6654 4757.1475 21
34.673069 1145.5132 5024.0146 21
64.22123 1141.51 5006.4575 21
94.357452 1147.1862 5031.3525 21
124.60552 1151.1699 5048.8242 21
154.69398 1152.4218 5054.3149 21
185.22308 1156.0177 5070.0859 21
214.31921 1150.9146 5047.7046 21
241.33424 1137.2548 4987.7949 21
268.29822 1126.3615 4940.019 21
296.94528 1123.9823 4929.5845 21
324.53595 1118.3889 4905.0527 21
355.6217 1124.7695 4933.0371 21
390.14734 1140.2341 5000.8618 21
416.55273 1131.4585 4962.3735 21
434.50858 1102.4026 4834.9399 21
440.99878 1049.6517 4603.584 21
468.65036 1050.4806 4607.2188 21
494.02148 1046.3879 4589.2695 21
510.07379 1024.014 4491.1416 19
536.64691 1023.9332 4490.7871 19
563.83185 1024.9723 4495.3442 19
590.11859 1024.3585 4492.6523 19
617.17657 1025.0786 4495.8105 19
645.41608 1027.6202 4506.958 19
672.23737 1027.7916 4507.7095 19
696.47601 1024.1522 4491.7476 19
722.4917 1023.2977 4487.9995 19
752.21912 1027.5742 4506.7559 19
781.85095 1031.4314 4523.6729 19
807.14764 1029.5033 4515.2168 19
830.91632 1025.8127 4499.0303 19
861.93225 1031.0206 4521.8711 19
889.12219 1031.4757 4523.8672 19
905.1897 1019.3788 4470.812 19
944.7135 1033.6339 4533.3325 18
973.388 1035.5585 4541.7734 18
997.9483 1033.1201 4531.0796 18
1017.7147 1025.9769 4499.7505 18
985.10889 967.74921 4244.374 131084
992.26025 950.50494 4168.7441 262150
975.68622 911.92377 3999.5337 1313035
989.97168 903.33118 3961.8484 5587774
1030.8379 918.82947 4029.8208 8943207
1069.8572 932.01678 4087.658 9797231
1089.9702 928.51453 4072.2979 9600107
1102.5931 918.92151 4030.2244 9665385
1127.6345 919.86572 4034.3657 9204834
1155.2175 922.80096 4047.239 9401956
1170.6652 916.12 4017.9377 9336421
1192.7577 914.80194 4012.157 9139298
1214.8186 913.51154 4006.4973 9534056
1245.386 918.54462 4028.5718 9468262
1269.9932 919.07513 4030.8982 9468263
1297.6189 921.73016 4042.543 9402726
1317.6005 918.95752 4030.3823 9073761
1337.1923 916.0166 4017.4841 8745053
1360.5472 915.71136 4016.1455 9205860
1381.575 913.87726 4008.1013 9468519
1411.5601 917.93005 4025.8762 9731690
1428.7084 913.6391 4007.0569 9205345
1454.2559 914.77191 4012.0251 9336931
1471.6398 910.81561 3994.6738 9073759
1495.0134 910.63324 3993.8735 9073758
1521.3521 912.23425 4000.8955 9468260
1547.2721 913.539 4006.6179 9534310
1569.6761 912.7597 4003.2 9336931
1592.0309 911.97552 3999.7607 8876383
1616.3856 912.34314 4001.3728 8810846
1640.8712 912.77295 4003.2581 8876638
1658.1138 909.21869 3987.6697 8547674
1676.2318 906.23779 3974.5962 8416088
1717.6086 915.73987 4016.2705 8744794
1724.265 906.72394 3976.7285 8613465
1741.9946 903.69574 3963.447 9074016
1774.9075 908.51996 3984.6052 9139553
1795.3134 906.8996 3977.4985 9008224
1806.0989 900.52441 3949.5383 7758157
1837.4044 904.41284 3966.5923 8810589
1870.047 908.85284 3986.0654 8810846
1891.1407 907.63928 3980.7429 9271139
1938.8999 919.09583 4030.9893 8679258
1948.9991 912.63885 4002.6702 6244917
2000.5942 925.53442 4059.2278 6047538
1989.7329 909.57263 3989.2222 7363141
2025.868 915.21704 4013.9775 7297605
2044.76 913.03101 4004.3899 8021327
2065.0227 911.50012 3997.6758 8481879
2076.4556 906.1507 3974.2141 8547416
2097.6665 905.14056 3969.7839 8218709
2116.7991 903.26593 3961.562 8613467
2133.0037 900.19672 3948.1011 8547674
2159.075 901.31293 3952.9966 8481881
2179.146 899.92731 3946.9197 8481881
2199.7649 898.79498 3941.9534 8284502
2210.8301 893.82391 3920.1509 7692365
2235.9915 894.59595 3923.5371 7692365
2268.5261 898.27179 3939.6584 8415831
2282.2217 894.48883 3923.0674 8021070
2300.2004 892.44409 3914.0996 8415828
2337.8621 898.00067 3938.4695 8350038
2339.4839 889.74084 3902.2432 8415830
2408.2427 906.92603 3977.6145 8481622
2407.7078 897.93536 3938.1833 8481622
2450.7268 905.20465 3970.0649 9205088
2461.042 900.37103 3948.8655 8942173
2494.5962 904.05023 3965.002 8613465
2510.0757 901.17163 3952.377 8679258
2534.1709 901.41083 3953.4258 8481879
2535.5791 893.64978 3919.3875 7626313
2552.9783 891.61432 3910.4604 8021328
2625.8459 908.81348 3985.8926 7889743
2611.0273 895.62793 3928.0632 7231557
2663.5051 905.55518 3971.6025 7758158
2682.7595 904.11218 3965.2734 7626572
2715.7358 907.27832 3979.1597 7626572
2721.6809 901.43713 3953.5413 5258024
2740.6487 899.97198 3947.1152 8021587
2739.865 892.10046 3912.5925 7561292
2782.7588 898.46326 3940.4983 7364170
2784.1804 891.44147 3909.7021 7363914
2793.8459 887.15344 3890.8955 7758674
2779.9963 875.5296 3839.9155 8021846
2781.1504 868.78156 3810.3198 7692882
2791.1599 864.88617 3793.2354 7363146
2801.6321 861.19519 3777.0474 7429194
2835.8403 864.80127 3792.8628 10192499
2899.1038 877.14124 3846.9839 9994606
2940.5664 882.74426 3871.5579 9600102
2999.6624 893.51294 3918.7874 10126444
3049.5266 901.38751 3953.3237 10192237
3075.0732 902.00891 3956.0491 12033926
3126.1208 910.04449 3991.2915 10651761
3127.2256 903.52972 3962.719 9467744
3143.9644 901.5954 3954.2351 9468000
3164.7053 900.82898 3950.8738 12495246
3245.2793 916.97998 4021.7095 13614239
3237.988 908.24957 3983.4194 14074533
3262.6375 908.53998 3984.6931 13877667
3283.1694 907.68787 3980.9561 11376509
3295.5583 904.61267 3967.4685 12099463
3302.7441 900.1629 3947.9529 11113082
3354.7175 907.89679 3981.8721 10586997
3376.7004 907.46289 3979.969 8218706
3345.2815 892.78326 3915.5869 7428680
3328.1213 882.08496 3868.6663 6902595
3228.8333 849.91479 3727.5737 6704963
3220.6599 842.00275 3692.8728 2036236
3259.5344 846.41455 3712.2219 590594
3336.9707 860.7135 3774.9348 5389108
3369.0608 863.20367 3785.8562 3482912
3379.6436 860.18677 3772.6248 4270623
3409.8938 862.18243 3781.3774 6507838
3437.3218 863.44324 3786.907 8876130
3496.3091 872.56372 3826.9077 10257783
3485.8752 864.35309 3790.8972 11178885
3525.4136 868.55927 3809.3447 11902352
3456.5398 846.1723 3711.1599 10849920
3393.5701 825.50464 3620.5151 9534318
3412.8325 824.97443 3618.1895 9073510
3538.7957 850.08221 3728.3079 10060662
3590.4819 857.14655 3759.2908 10520955
0 0 0 0
0 0 0 0
0 0 0 0
0 0 0 0
0 0 0 0
-3729.8916 963.35809 4118.0811 1320
-3707.2393 963.8136 4120.0283 807
-3681.6355 963.50281 4118.6997 547
-3641.6147 959.38965 4101.1172 285
-3593.7119 953.13074 4074.3623 284
-3566.2302 952.24005 4070.5547 279
-3530.0879 949.00879 4056.7419 275
-3482.3997 942.60803 4029.3804 19
-3455.3052 941.73169 4025.6345 18
-3425.2073 940.0188 4018.3123 18
-3410.8669 942.63678 4029.5034 18
-3380.2009 940.74811 4021.4299 18
-3353.1174 939.83667 4017.5337 18
-3326.0117 938.90601 4013.5552 18
-3296.7705 937.3548 4006.9243 18
-3258.2971 933.13702 3988.8945 18
-3249.7097 937.47906 4007.4558 18
-3225.0742 937.22137 4006.3542 18
-3187.6995 933.23053 3989.2942 274
-3159.0354 931.74908 3982.9614 18
-3128.2073 929.60217 3973.7842 16
-3128.4431 936.724 4004.2283 16
-3093.9639 933.4809 3990.3647 16
-3067.5085 932.62732 3986.7158 16
-3041.4714 931.88861 3983.5581 16
-3030.1162 935.67194 3999.7307 16
-2998.5417 933.22217 3989.2588 16
-2961.1396 928.9054 3970.8059 16
-2958.6123 935.5473 3999.198 18
-2931.8826 934.58148 3995.0696 18
-2902.9268 932.88477 3987.8164 18
-2873.8857 931.13239 3980.3254 18
-2842.7183 928.65649 3969.7417 18
-2814.1951 927.01019 3962.7043 18
-2787.1995 925.84375 3957.718 15
-2765.5464 926.44702 3960.2969 16
-2622.6658 886.10242 3787.8352 16
-2587.1179 881.63812 3768.7517 16
-2559.834 879.93671 3761.4788 16
-2536.7061 879.64673 3760.2388 16
-2521.2849 882.04755 3770.502 16
-2495.2483 880.74438 3764.9312 16
-2472.1462 880.46295 3763.7283 16
-2446.1802 879.14716 3758.1033 16
-2424.2615 879.27502 3758.6499 16
-2410.5112 882.39545 3771.989 16
-2386.54 881.79773 3769.4338 17
-2368.6191 883.44531 3776.4771 18
-2343.5337 882.42688 3772.123 18
-2320.3521 882.1123 3770.7786 18
-2296.4802 881.52679 3768.2756 18
-2280.8562 884.12683 3779.3901 19
-2256.8354 883.49133 3776.6736 19
-2227.0671 880.57056 3764.1882 19
-2208.1055 881.90692 3769.9006 19
-2181.512 880.19116 3762.5664 19
-2163.1326 881.78839 3769.394 19
-2142.8293 882.62665 3772.9773 19
-2117.8774 881.54767 3768.3647 18
-2101.167 883.91248 3778.4739 18
-2103.7502 894.53217 3823.8701 20
-2086.666 896.92932 3834.1172 21
-2101.0757 913.06549 3903.0947 21
-2080.2285 914.06897 3907.384 21
-2062.1772 916.33722 3917.0803 21
-2042.6115 917.97656 3924.0881 20
-2025.2097 920.63733 3935.4622 21
-2006.6575 922.83112 3944.8398 19
-1987.5419 924.81439 3953.3179 19
-1966.0452 925.72388 3957.2056 19
-1943.9707 926.37988 3960.01 19
-1925.0082 928.5531 3969.2998 19
-1900.0447 927.84961 3966.2927 19
-1882.3933 930.74402 3978.6653 19
-1860.7185 931.6972 3982.74 19
-1840.9258 933.62933 3990.999 22
-1820.2953 935.18134 3997.6338 21
-1799.9907 936.94403 4005.1687 20
-1778.6151 938.18884 4010.4897 21
-1756.5387 939.09265 4014.3535 21
-1734.4119 939.99408 4018.2065 21
-1711.4359 940.45386 4020.1721 21
-1692.0826 942.94543 4030.823 21
-1671.6144 944.87823 4039.085 21
-1650.6107 946.56006 4046.2744 21
-1630.8094 948.99121 4056.6667 21
-1610.8658 951.41101 4067.011 21
-1588.0933 952.20813 4070.4182 21
-1569.3314 955.47168 4084.3689 18
-1544.5331 955.10474 4082.8003 19
-1530.2695 961.34418 4109.4722 19
-1508.8015 963.18622 4117.3467 19
-1483.385 962.52686 4114.5278 19
-1459.1388 962.61743 4114.915 19
-1437.1539 964.22833 4121.8013 19
-1414.9952 965.77637 4128.4185 19
-1393.6661 967.95496 4137.7314 21
-1371.6346 969.71509 4145.2554 21
-1348.4325 970.69659 4149.4512 21
-1325.6383 972.01367 4155.0815 21
-1300.9385 971.95691 4154.8389 21
-1277.0994 972.55353 4157.3892 19
-1254.6898 974.28363 4164.7847 19
-1231.4364 975.41479 4169.6201 19
-1209.3666 977.54889 4178.7427 19
-1187.2443 979.729 4188.062 19
-1164.2036 981.22803 4194.4702 19
-1141.1748 982.80292 4201.2021 19
-1117.8492 984.18658 4207.1172 19
-1094.1318 985.28052 4211.7935 19
-1071.8407 987.74011 4222.3071 19
-1049.8121 990.56488 4234.3823 19
-1027.787 993.53125 4247.0625 19
-1005.7805 996.6651 4260.459 21
-983.8092 999.99597 4274.6978 21
-960.77612 1002.3954 4284.9546 21
-938.2702 1005.4899 4298.1826 21
-914.91907 1007.8261 4308.1689 21
-891.73212 1010.4825 4319.5244 21
-869.0799 1013.9196 4334.2173 21
-845.77094 1016.7766 4346.4302 21
-823.43402 1021.0185 4364.563 21
-799.84857 1023.9373 4377.0396 21
-775.09949 1025.5117 4383.7705 21
-749.90125 1026.5808 4388.3403 21
-725.23334 1028.4789 4396.4536 21
-700.10712 1029.844 4402.2896 21
-676.51837 1033.6641 4418.6191 21
-650.91382 1034.5876 4422.5674 21
-625.97858 1036.6973 4431.5854 21
-600.62988 1038.2769 4438.3379 21
-575.21509 1039.8818 4445.1987 21
-549.57043 1041.2054 4450.856 21
-523.87097 1042.5532 4456.6177 21
-498.54755 1044.8322 4466.3594 21
-473.66708 1048.347 4481.3848 21
-447.9744 1050.3752 4490.0547 21
-421.41437 1050.4973 4490.5767 21
-394.39011 1049.4006 4485.8887 21
-368.04703 1050.089 4488.8311 21
-341.57367 1050.4839 4490.519 21
-315.18378 1051.2239 4493.6826 21
-288.88126 1052.4189 4498.7905 21
-262.43396 1053.2756 4502.4531 21
-235.96725 1054.2399 4506.5747 21
-209.62369 1056.0704 4514.3999 21
-188.33163 1087.6089 4649.2183 21
-156.83096 1060.8994 4535.0425 21
-137.36572 1121.3948 4793.6426 21
-103.06459 1060.7439 4534.3779 21
-78.033813 1086.3728 4643.9336 21
-52.901371 1137.7418 4863.522 21
-23.380997 1104.7562 4722.5181 21
4.6555252 1116.7194 4773.6567 21
34.474075 1168.5414 4995.1812 21
63.594826 1159.7557 4957.625 21
93.325783 1164.1342 4976.3418 21
121.78541 1154.3595 4934.5576 21
152.21683 1163.4412 4973.3789 21
181.02435 1159.1779 4955.1548 21
209.53252 1154.4553 4934.9673 21
238.50052 1153.1128 4929.2285 21
267.40369 1151.7841 4923.5483 21
295.66721 1148.2327 4908.3672 21
323.2543 1142.9259 4885.6821 21
353.59265 1147.4193 4904.8906 21
383.20847 1149.0637 4911.9199 21
402.26947 1121.0613 4792.2173 21
412.00928 1072.4884 4584.582 21
436.61862 1066.2371 4557.8594 21
462.62076 1063.9172 4547.9429 21
488.39822 1061.3647 4537.0312 21
502.5766 1035.187 4425.1294 19
529.06738 1035.7089 4427.3604 19
555.66815 1036.3864 4430.2563 19
584.28723 1040.5974 4448.2573 19
607.33173 1034.9452 4424.0957 19
631.18109 1031.0757 4407.5547 19
659.12665 1033.9392 4419.7954 19
685.24762 1033.8311 4419.333 19
709.1347 1030.4846 4405.0283 19
734.76324 1029.8167 4402.1729 18
761.83447 1031.1472 4407.8604 18
786.03625 1028.6345 4397.1191 18
819.13202 1037.5486 4435.2241 19
845.60034 1037.7745 4436.1904 19
873.17938 1039.3091 4442.75 19
892.12976 1030.7839 4406.3076 18
926.65332 1040.2257 4446.6685 18
949.33685 1036.2217 4429.5522 18
974.12433 1034.6677 4422.9097 18
1001.7258 1036.1058 4429.0566 18
1021.7864 1029.8699 4402.4004 65551
1007.0301 989.72595 4230.7964 131086
982.29596 941.96417 4026.6282 262153
1006.0508 941.86328 4026.1968 327683
1067.8165 976.52826 4174.3799 1969164
1090.0044 974.24878 4164.6357 4599593
1073.5253 938.27472 4010.8569 6507840
1083.7791 926.7179 3961.4548 8086355
1098.512 919.40002 3930.1731 9402472
1127.0861 923.72986 3948.6819 9336420
1152.947 925.70526 3957.126 9139298
1170.1738 920.80768 3936.1902 9468263
1191.3867 919.17676 3929.2188 9534056
1216.6539 920.67639 3935.6292 9599849
1221.9165 907.26648 3878.3054 9468262
1262.8749 920.36621 3934.303 9599592
1290.2136 923.24506 3946.6091 8941919
1316.5364 925.30737 3955.4253 8941919
1323.0314 913.60565 3905.4038 9270627
1364.6488 926.14288 3958.9968 9007712
1380.7422 921.22662 3937.9812 9468262
1404.498 921.50122 3939.1553 9534055
1423.4615 918.67401 3927.0693 9599846
1445.1503 917.66821 3922.7698 9534053
1470.5536 919.01569 3928.53 9139551
1497.3479 921.17688 3937.7686 9074015
1519.9966 920.7605 3935.9885 9139552
1536.5226 916.7038 3918.6475 9468516
1566.4308 920.633 3935.4436 8415831
1595.6531 924.0498 3950.0493 8679260
1608.8878 918.2431 3925.2275 8942432
1638.9474 922.06769 3941.5762 8284502
1649.2557 914.82861 3910.6316 8021329
1675.6721 916.60168 3918.2107 8613464
1699.7747 917.0777 3920.2456 8744794
1725.6913 918.50641 3926.353 8942429
1750.938 919.54553 3930.7947 9007965
1772.4365 918.61444 3926.8149 8876123
1771.8237 906.39636 3874.5859 8350036
1796.0874 907.05396 3877.397 8481622
1833.9734 914.48749 3909.1731 8547672
1862.1688 916.96368 3919.7585 8810843
1894.2991 921.29279 3938.2639 9074016
1915.8612 920.43909 3934.6147 9337188
1947.0007 924.15192 3950.4858 9074016
1963.5237 920.92114 3936.6753 8745051
1979.2273 917.38641 3921.5652 8416086
1990.6915 911.99164 3898.5042 7955534
2023.4298 916.35498 3917.1562 6968640
2043.1727 914.8009 3910.5132 7626571
2068.4939 915.75122 3914.5754 8153173
2075.7915 908.78979 3884.8171 8481881
2096.0554 907.59528 3879.7112 8613210
2121.3357 908.57544 3883.9009 8350295
2123.3066 899.65814 3845.782 7494984
2158.998 905.0661 3868.8997 7626571
2180.6785 904.54865 3866.6877 7889743
2204.439 904.89569 3868.1714 7823951
2227.3777 904.90192 3868.1978 7626572
2252.7405 905.88269 3872.3904 7757388
2272.5486 904.63263 3867.0466 8283987
2301.304 906.93353 3876.8821 8218450
2325.3857 907.3653 3878.7278 7955277
2364.4189 913.56549 3905.2322 8349779
2384.3071 912.32007 3899.908 8218450
2418.4771 916.51074 3917.822 8350036
2432.7607 913.15717 3903.4866 8481879
2456.2852 913.3028 3904.1089 8745051
2464.0818 907.65222 3879.9543 8152914
2505.8364 914.49908 3909.2229 8087121
2504.5298 905.64929 3871.3926 8284499
2537.5076 909.24512 3886.7637 8087120
2564.0574 910.49359 3892.1006 8218708
2623.4629 923.28302 3946.7715 8087123
2616.2358 912.60321 3901.1187 7758158
2639.6035 912.68927 3901.4863 7494986
2667.0007 914.15497 3907.752 7692366
2696.0405 916.15369 3916.2957 7100228
2697.769 908.91669 3885.3596 6903105
2716.7983 907.58167 3879.6528 7758928
2715.0979 899.40222 3844.688 7758927
2739.4783 899.92651 3846.9292 8351065
2741.8054 893.25726 3818.4202 8745822
2754.0706 889.90851 3804.1052 8350554
2764.3459 885.97644 3787.2966 7956053
2746.3313 873.11371 3732.3123 7692367
2765.6711 872.23737 3728.5662 7231817
2755.4175 862.11578 3685.2991 7100228
2788.9023 865.73059 3700.7515 7297094
2842.0281 875.33838 3741.8218 9731689
2900.0754 886.30151 3788.686 9534053
2901.4985 879.92395 3761.4241 9534051
2933.5691 882.86713 3774.0054 9205086
