# .PCD v0.7 - Point Cloud Data file format
VERSION 0.7
FIELDS x y z rgb
SIZE 4 4 4 4
TYPE F F F U
COUNT 1 1 1 1
WIDTH 1380
HEIGHT 1
VIEWPOINT 0 0 0 1 0 0 0
POINTS 1380
DATA ascii
2896.9146 735.83246 4519.3232 7427909
2928.271 736.98364 4526.3936 7888460
2952.6575 736.37561 4522.6592 8217425
2949.8606 729.06018 4477.7295 8349011
2981.2866 730.258 4485.0859 7691081
2974.8936 722.25281 4435.9199 9006941
3005.4714 723.28516 4442.2603 8743513
3036.6975 724.45422 4449.4404 8611927
3061.5984 724.10712 4447.3086 9072482
3086.2495 723.70746 4444.854 7295813
3129.7573 727.69885 4469.3682 7690572
3111.5347 717.39075 4406.0581 7953484
3101.0676 709.02747 4354.6929 9532516
3168.7446 718.52173 4413.0044 10321262
3245.4004 729.87976 4482.7627 10388079
3317.7275 740.08771 4545.458 8152141
3405.2781 753.49988 4627.8325 7034174
3409.1987 748.34033 4596.144 5257764
3450.9409 751.49896 4615.5435 6835767
3494.6775 755.03876 4637.2842 6836794
3533.229 757.4118 4651.8589 6507829
3580.3857 761.57861 4677.4502 6638902
3641.7217 768.67407 4721.0293 8546898
3608.5005 755.85504 4642.2974 10388844
3604.5991 749.32501 4602.1914 11309690
3616.6235 746.17883 4582.8682 11375225
3655.3142 748.54022 4597.3716 12690829
3671.637 746.32007 4583.7358 13349014
3691.2207 744.79065 4574.3423 13019793
3688.0188 738.71936 4537.0537 12888462
3677.1267 731.20673 4490.9131 13151124
3755.3013 741.38605 4553.4321 13151894
3810.6614 746.94806 4587.5928 13151894
3769.2173 733.59052 4505.5537 10388077
3826.4844 739.49774 4541.8345 9269852
3859.0586 740.58362 4548.5039 9335648
3855.9448 734.85309 4513.3081 8612185
3853.562 729.33997 4479.4478 7625037
3849.2002 723.53027 4443.7656 7295816
3830.6658 715.15344 4392.3174 6440253
3686.7009 683.6311 4198.7139 3480084
3569.5989 657.47925 4038.0947 1902855
3555.9802 650.60907 3995.8997 1311489
3617.3464 657.45856 4037.9678 2232336
3643.7703 657.90881 4040.7332 2823446
3734.2822 669.8493 4114.0688 851968
3787.4172 674.97369 4145.542 983040
3780.4333 669.38708 4111.23 983040
3763.5203 662.12506 4066.6284 1245696
3741.2666 654.02191 4016.8606 2362375
3705.8135 643.72833 3953.6396 11176568
3746.5535 646.71631 3971.9912 11438184
3748.2998 642.97809 3949.0317 12754038
3757.6414 640.58099 3934.3093 11305573
0 0 0 0
0 0 0 0
0 0 0 0
0 0 0 0
0 0 0 0
0 0 0 0
-3451.2024 647.21997 3835.4827 14
-3433.3628 648.14319 3840.9536 14
-3430.8164 651.98492 3863.72 13
-3409.9631 652.37604 3866.0376 14
-3475.9275 669.49414 3967.4812 13
-3489.2214 676.63159 4009.7783 14
-3463.6382 676.27618 4007.6721 12
-3376.6699 663.84772 3934.0198 11
-3408.6726 674.79834 3998.9146 268
-3398.7085 677.53632 4015.1399 268
-3420.2639 686.64062 4069.0928 268
-3480.0388 703.6015 4169.6045 12
-3341.2793 680.37787 4031.979 268
-3231.863 662.83777 3928.0349 268
-3292.1462 680.10022 4030.3335 267
-3187.7104 663.33807 3930.9998 269
-3134.1218 656.98804 3893.3689 270
-3248.2292 685.95758 4065.0449 14
-3126.2039 665.12115 3941.5667 14
-3217.8708 689.77795 4087.6848 14
-3085.6196 666.44586 3949.4167 14
-3004.2507 653.83093 3874.6594 14
-3069.0327 673.07416 3988.6965 14
-3191.4678 705.35828 4180.0151 14
-3169.0854 705.8905 4183.1694 14
-3148.2952 706.78845 4188.4907 14
-3120.2646 706.06244 4184.188 14
-2905.3818 662.70459 3927.2456 14
-2830.8608 650.9209 3857.4146 14
-2841.3953 658.66205 3903.2891 14
-2815.7507 658.07471 3899.8088 14
-2809.5635 662.06274 3923.4421 14
-2914.2839 692.4704 4103.6406 270
-2810.614 673.45703 3990.9656 16
-2785.5481 673.11517 3988.9397 16
-3014.2249 734.60809 4353.3521 16
-2943.1082 723.4682 4287.3359 16
-2936.8276 728.21088 4315.4419 16
-2696.5178 674.49768 3997.1326 18
-2838.0012 716.1792 4244.1411 20
-2730.2012 695.13605 4119.4375 20
-2770.0042 711.63354 4217.2031 19
-2745.4788 711.75452 4217.9199 19
-2746.9851 718.68842 4259.0107 19
-2659.5532 702.2663 4161.6919 19
-2609.501 695.49939 4121.5908 274
-2540.0886 683.39594 4049.8645 274
-2572.2715 698.65588 4140.2964 18
-2561.9978 702.56714 4163.4746 15
-2586.7725 716.25897 4244.6138 16
-2497.8069 698.41663 4138.8784 16
-2451.7036 692.3241 4102.7734 16
-2383.8853 679.91595 4029.2419 16
-2357.0298 679.05823 4024.1589 16
-2337.708 680.37555 4031.9656 16
-2318.4395 681.73578 4040.0261 16
-2300.041 683.38287 4049.7871 16
-2281.8083 685.1145 4060.0488 14
-2233.073 677.62695 4015.677 14
-2237.2366 686.20325 4066.5007 14
-2226.2073 690.25562 4090.5156 14
-2171.5115 680.70898 4033.9412 14
-2146.1055 680.23352 4031.1238 14
-2127.4307 681.90485 4041.0283 14
-2113.1914 685.05231 4059.6802 14
-2094.0391 686.66113 4069.2141 15
-2074.4185 688.15204 4078.0493 16
-2096.2651 703.59631 4169.5737 16
-2110.1606 716.70844 4247.2773 16
-2053.6355 705.93036 4183.4053 16
-2087.991 726.51044 4305.3647 17
-1935.0903 681.63849 4039.4497 17
-2047.3585 730.21857 4327.3394 17
-1995.829 720.86926 4271.9346 18
-1963.1554 718.17773 4255.9844 18
-1878.584 696.18347 4125.6445 19
-1825.9116 685.58643 4062.8455 19
-1902.4652 723.87585 4289.752 19
-1878.7113 724.5191 4293.564 19
-1853.2123 724.49786 4293.438 19
-1854.6073 735.13629 4356.4824 19
-1832.3116 736.552 4364.8721 19
-1808.8342 737.52637 4370.646 19
-1767.2401 731.03491 4332.1772 19
-1743.1589 731.70331 4336.1382 19
-1716.3738 731.23969 4333.3906 19
-1693.0745 732.26959 4339.4941 19
-1675.5402 735.8631 4360.7896 19
-1625.7784 725.19391 4297.563 19
-1601.405 725.69006 4300.5034 18
-1578.8408 727.0354 4308.4756 18
-1568.6753 734.22821 4351.1011 20
-1545.4254 735.43494 4358.252 20
-1521.2251 736.2226 4362.9199 21
-1497.9323 737.48431 4370.397 21
-1475.5161 739.22968 4380.7402 21
-1464.937 747.07416 4427.2271 21
-1426.2396 740.60364 4388.8823 20
-1402.0367 741.5592 4394.5449 19
-1383.4792 745.59332 4418.4517 20
-1354.1892 743.88751 4408.3428 21
-1336.0582 748.36505 4434.877 21
-1297.6053 741.41101 4393.667 21
-1272.0355 741.68384 4395.2837 21
-1235.0295 735.16058 4356.6265 21
-1217.6184 740.27191 4386.9165 21
-1183.7623 735.3902 4357.9868 21
-1159.4501 736.35175 4363.6851 21
-1134.8221 737.1521 4368.4282 21
-1110.2024 737.99536 4373.4253 21
-1082.3394 736.67139 4365.5796 21
-1059.8813 739.05145 4379.6841 21
-1048.8489 749.71808 4442.8955 21
-1022.7168 749.86285 4443.7534 21
-994.32721 748.31635 4434.5884 21
-972.81641 752.00323 4456.4375 21
-941.72101 748.28015 4434.374 21
-917.29889 749.79803 4443.3691 21
-892.60297 751.17523 4451.5303 21
-866.47266 751.39233 4452.8169 21
-841.31604 752.49402 4459.3457 21
-816.04504 753.56146 4465.6714 21
-790.07684 754.0351 4468.4785 21
-765.05811 755.47925 4477.0366 21
-737.97174 754.91205 4473.6753 21
-712.97815 756.52313 4483.2227 21
-687.62183 757.85919 4491.1401 21
-663.09717 760.25641 4505.3462 21
-637.55048 761.63367 4513.5083 21
-611.17072 762.0929 4516.2295 21
-586.84308 765.2702 4535.0586 21
-559.89545 765.17194 4534.4761 21
-533.55817 765.93988 4539.0273 21
-507.99939 767.96637 4551.0361 21
-482.37451 770.11444 4563.7661 21
-455.24271 769.96912 4562.9048 21
-428.91553 771.2522 4570.5083 21
-401.45248 770.5282 4566.2178 21
-374.94519 771.6665 4572.9634 20
-348.5332 773.1936 4582.0132 20
-321.6683 773.8891 4586.1348 21
-294.85901 774.85913 4591.8833 21
-268.09976 776.1712 4599.6587 21
-241.54402 778.43628 4613.0815 21
-214.47067 779.39832 4618.7832 21
-186.34831 776.27209 4600.2568 21
-159.22716 776.9599 4604.3325 21
-131.90829 776.76782 4603.1948 21
-104.55154 776.19446 4599.7969 21
-77.535172 778.63489 4614.2588 21
-50.277473 779.99042 4622.292 21
-22.917463 781.10437 4628.8931 21
4.531497 784.07227 4646.4814 21
32.145576 785.98041 4657.7891 21
59.842697 787.2179 4665.1226 21
87.636414 788.54242 4672.9717 21
115.75056 791.42169 4690.0347 21
143.54163 791.40479 4689.9341 21
171.5885 792.57489 4696.8687 21
213.34094 847.88898 5024.6646 21
219.79337 766.54224 4542.5967 21
256.52786 797.03473 4723.2979 21
300.75598 842.51971 4992.8462 21
330.77988 843.6297 4999.4238 21
342.43936 801.57043 4750.1768 21
371.11038 802.69617 4756.8481 21
399.26529 802.62537 4756.4287 21
428.18839 804.00641 4764.6128 21
455.89691 803.07709 4759.1055 21
484.54163 803.80908 4763.4434 21
514.04456 805.80573 4775.2759 21
542.96582 806.72986 4780.752 19
570.69006 805.87201 4775.6685 19
599.48016 806.52917 4779.563 19
628.41364 807.31128 4784.1978 19
656.94269 807.52869 4785.4858 19
684.59283 806.69244 4780.5303 19
713.19086 806.99524 4782.3247 19
740.01312 805.34229 4772.5293 21
769.38702 806.48578 4779.3057 19
796.91974 805.68665 4774.5698 19
823.92065 804.4231 4767.082 19
851.91168 804.17786 4765.6289 19
876.72577 801.04572 4747.0674 19
903.56317 799.89954 4740.2749 19
929.21655 797.80591 4727.8677 19
955.27252 796.17035 4718.1758 19
983.07886 796.04529 4717.4341 19
1007.7329 793.44507 4702.0249 18
1036.1051 793.83337 4704.3267 17
1062.2819 792.56354 4696.8013 16
1084.924 788.78864 4674.4307 13
1099.7889 779.68817 4620.5005 196615
1097.7749 759.35419 4499.9995 1116168
1159.7307 783.18463 4641.2212 5259577
1174.3112 774.65869 4590.6958 8811620
1195.3669 770.69391 4567.1997 8481880
1215.3406 766.22229 4540.7007 8744793
1248.3191 769.96588 4562.8857 9731432
1267.8533 765.43402 4536.0293 8941916
1292.5833 764.16211 4528.4917 8744538
1325.6599 767.776 4549.9082 8744281
1346.0629 764.052 4527.8394 9336164
1369.2654 762.03156 4515.8662 8612183
1398.1251 763.17664 4522.6519 8875356
1408.4237 754.33752 4470.2705 9664872
1446.9281 760.65253 4507.6938 9467493
1470.093 758.8208 4496.8389 8743513
1487.0461 753.90509 4467.708 9138528
1511.8464 753.07013 4462.7598 9270114
1541.083 754.43555 4470.8516 9664614
1565.1602 753.27185 4463.9551 9138271
1595.3879 755.05774 4474.5386 9138270
1620.077 754.20673 4469.4956 8677720
1654.8915 758.021 4492.0991 8151376
1679.7129 757.20972 4487.2915 8546391
1702.4348 755.49194 4477.1118 9204064
1725.817 754.11548 4468.9546 9270114
1762.8115 758.63879 4495.7603 8480598
1763.0901 747.46167 4429.5234 9336162
1791.8872 748.52557 4435.8281 9270112
1825.3436 751.47687 4453.3179 9204575
1850.4641 750.96112 4450.2617 9270367
1869.5841 748.05902 4433.0635 9401954
1898.5806 749.13428 4439.4355 9204574
1932.224 751.98871 4456.3511 9007196
1959.1309 752.17975 4457.4834 9138782
1983.8046 751.51965 4453.5718 9467747
2017.7869 754.35706 4470.3862 9270368
2041.6194 753.37549 4464.5693 9138525
2056.6211 749.20209 4439.8374 9270367
2105.7974 757.42627 4488.5747 9401700
2127.1504 755.5625 4477.5298 9401700
2185.8232 766.83722 4544.3447 9006685
2239.2754 776.02832 4598.812 9072735
2240.9089 767.25635 4546.8286 8941148
2245.6533 759.74536 4502.3179 9139041
2262.2498 756.37335 4482.335 9139041
2314.7385 764.94086 4533.1069 8875869
2331.0339 761.48834 4512.647 8283989
2331.5491 753.01764 4462.4487 8810076
2350.585 750.65137 4448.4258 8678747
2372.9958 749.40356 4441.0312 8612697
2399.167 749.35748 4440.7583 8546649
2509.5344 775.32507 4594.6445 8612185
2503.4482 765.14276 4534.3032 8546135
2482.3638 750.64142 4448.3672 5914667
2472.542 739.81482 4384.2075 12296074
2490.1123 737.3241 4369.4478 9532767
2515.9138 737.29706 4369.2871 10123874
2535.187 735.37671 4357.9072 8940373
2544.4387 730.61761 4329.7041 9664353
2568.9868 730.30182 4327.833 9862245
2559.156 720.31592 4268.6553 9796195
2563.9526 714.60217 4234.7954 8020042
2581.6626 712.56348 4222.7139 8151885
2620.4099 716.3147 4244.9438 8283474
2711.4233 734.14612 4350.6147 8810329
2752.0308 738.12231 4374.1777 8744536
2789.7729 741.263 4392.7896 8679001
2871.4211 755.90375 4479.5522 8810587
2919.6189 761.55121 4513.0195 7757642
2935.6619 758.78497 4496.6265 5389350
2916.3513 747.01294 4426.8643 8152659
2890.7043 733.8421 4348.813 8744797
2878.7339 724.34534 4292.5342 9468776
2834.4651 706.95929 4189.5029 10455673
2844.9658 703.41687 4168.5103 10850687
2898.9277 710.58881 4211.0117 9797743
2986.0159 725.6889 4300.4961 9534314
3047.9019 734.46033 4352.4766 9665900
3079.0273 735.73431 4360.0264 8678493
3080.9695 730.0719 4326.4702 10454903
3113.7087 731.7403 4336.3574 8677722
3147.1167 733.53735 4347.0068 7822410
3180.6572 735.33582 4357.6646 8217424
3289.9553 754.47864 4471.1069 8021071
3262.397 742.18134 4398.2319 8218449
3367.2832 759.97076 4503.6538 7889482
3423.9302 766.67871 4543.4053 7560517
3391.6682 753.52905 4465.4795 7493955
3379.0764 744.91937 4414.4575 7691075
3415.9382 747.26019 4428.3296 7690820
3436.1318 745.9469 4420.5469 6901303
3471.1545 747.84839 4431.8154 7427647
3511.6221 750.8855 4449.8135 9335901
3532.1375 749.64288 4442.4497 10585710
3545.2888 746.86725 4426.001 11638654
3555.2161 743.45813 4405.7983 12164998
3612.8088 749.99384 4444.5293 12165254
3585.5042 738.93835 4379.0137 11902340
3621.7964 741.05426 4391.5527 13086357
3642.9548 740.06549 4385.6934 14072742
3621.3362 730.46228 4328.7837 13349532
3628.2021 726.69928 4306.4839 12230538
3683.4685 732.61542 4341.5435 11638405
3755.0081 741.66357 4395.1636 10125423
3772.3828 739.96259 4385.0835 9401442
3728.2844 726.30927 4304.1724 9204322
3669.5708 710.01361 4207.603 7888978
3667.4512 704.81415 4176.7905 5651761
3628.0718 692.57184 4104.2417 5652272
3551.1685 673.37726 3990.4929 6244410
3590.7534 676.37915 4008.2825 5454894
3603.9192 674.39783 3996.5408 4468770
3631.5522 675.1319 4000.8911 5784635
3649.4868 674.06512 3994.5693 1903368
3771.9062 692.18622 4101.9565 2428679
3774.3508 688.19958 4078.3313 1048576
3754.4275 680.21106 4030.9907 786432
3740.1777 673.34503 3990.3018 8809810
3729.9497 667.28479 3954.3884 11307626
3742.6941 665.38428 3943.1257 12294006
3769.2119 665.9408 3946.4238 11634539
0 0 0 0
0 0 0 0
0 0 0 0
0 0 0 0
0 0 0 0
0 0 0 0
-3517.8042 682.87866 3909.5002 13
-3484.8901 680.9743 3898.5979 17
-3465.8706 681.77777 3903.1978 20
-3454.0229 684.01227 3915.9902 22
-3450.6663 687.96985 3938.6475 22
-3430.1653 688.54004 3941.9119 20
-3400.9409 687.35492 3935.1267 274
-3369.0486 685.61053 3925.1401 270
-3350.4207 686.55994 3930.5757 270
-3327.8999 686.71942 3931.4885 12
-3302.5715 686.29767 3929.0742 11
-3279.1819 686.2757 3928.9482 12
-3260.634 687.2738 3934.6628 12
-3260.9678 692.29498 3963.4092 12
-3206.2925 685.62598 3925.2288 11
-3181.3562 685.26532 3923.1638 14
-3151.5083 683.83362 3914.9673 14
-3003.9609 656.65198 3759.3518 14
-3114.3865 685.87732 3926.6677 16
-3088.5798 685.31445 3923.4453 16
-3067.6101 685.82452 3926.3655 16
-3045.7698 686.14624 3928.2073 14
-3025.0703 686.73193 3931.5605 14
-2916.2759 667.17279 3819.5835 14
-2893.0281 667.03162 3818.7754 14
-2903.0818 674.62689 3862.2588 15
-2843.5938 666.05426 3813.1802 15
-2849.9277 672.88519 3852.2876 15
-2857.4971 680.12054 3893.71 269
-2797.2468 671.20026 3842.6411 270
-2769.4412 669.9826 3835.6702 270
-2731.6377 666.30621 3814.6223 270
-2721.7617 669.43726 3832.5479 269
-2699.7422 669.60913 3833.5317 16
-2671.9746 668.34613 3826.3013 16
-2637.8108 665.44794 3809.709 16
-2658.2703 676.39862 3872.4019 16
-2650.6677 680.33746 3894.9519 15
-2681.7034 694.34979 3975.1726 18
-2628.1858 686.5238 3930.3687 274
-2568.7893 677.00842 3875.8931 274
-2533.8445 673.82379 3857.6609 274
-2508.4724 673.15002 3853.8035 274
-2484.7646 672.91461 3852.4558 18
-2465.6941 673.94232 3858.3396 274
-2496.199 688.66638 3942.6353 274
-2540.7927 707.59247 4050.9873 18
-2389.2983 671.74945 3845.7852 18
-2479.5374 703.8338 4029.469 15
-2461.8767 705.61621 4039.6733 16
-2443.7664 707.30341 4049.3328 16
-2411.2026 704.7995 4034.9976 16
-2391.804 706.13196 4042.6262 16
-2506.5583 747.49823 4279.4492 16
-2542.9373 766.09833 4385.9351 16
-2504.543 762.3233 4364.3232 16
-2330.8203 716.84912 4103.9819 16
-2231.8357 693.64398 3971.1321 14
-2266.9019 712.05066 4076.5107 14
-2215.6531 703.44958 4027.2695 14
-2193.5476 704.01489 4030.5056 14
-2333.917 757.3125 4335.6362 13
-2320.1206 761.216 4357.9839 13
-2292.2642 760.54236 4354.1274 14
-2161.8608 725.44244 4153.1792 15
-2110.3074 716.29803 4100.8271 15
-2091.9207 718.32935 4112.4565 17
-2063.2229 716.82623 4103.8511 17
-2048.8564 720.32581 4123.8862 18
-2068.7632 736.10486 4214.2217 17
-1992.9564 717.79663 4109.4067 18
-1986.9205 724.47565 4147.644 19
-2092.3276 772.46545 4422.3872 19
-2062.3799 771.06714 4414.3818 19
-1927.2372 729.79828 4178.1162 19
-1858.5342 712.94171 4081.6121 20
-1876.4882 729.32098 4175.3838 20
-1843.6696 726.14081 4157.1772 21
-1846.0415 736.92224 4218.9014 21
-1816.9822 735.2804 4209.5015 19
-1770.8475 726.58673 4159.7305 18
-1788.5955 744.22894 4260.7324 18
-1752.5142 739.65759 4234.5615 19
-1732.5223 741.84265 4247.0708 19
-1711.818 743.78253 4258.1768 19
-1688.3085 744.54352 4262.5332 19
-1673.167 749.07385 4288.4697 19
-1645.9478 748.2533 4283.772 19
-1624.5676 750.10321 4294.3628 20
-1603.5798 752.19598 4306.3438 20
-1577.8063 752.07526 4305.6528 20
-1553.3033 752.56622 4308.4634 21
-1531.2778 754.29388 4318.3545 21
-1506.2358 754.56915 4319.9302 21
-1483.9396 756.25323 4329.5718 21
-1457.4525 755.82324 4327.1104 21
-1431.6779 755.75397 4326.7134 21
-1408.1207 756.87408 4333.126 21
-1383.667 757.54492 4336.9668 21
-1351.5155 753.9469 4316.3682 21
-1334.2115 758.65265 4343.3086 21
-1307.2308 757.93292 4339.188 21
-1286.1146 760.65277 4354.7593 21
-1261.6908 761.48773 4359.5396 21
-1232.3983 759.35773 4347.3452 21
-1210.1649 761.57916 4360.063 21
-1183.8352 761.26337 4358.2549 21
-1170.8744 769.72211 4406.6816 21
-1146.5325 770.91425 4413.5063 21
-1121.5286 771.70654 4418.0425 21
-1096.8467 772.76361 4424.0942 21
-1059.3069 764.59186 4377.3105 21
-1131.0872 836.89606 4791.2544 21
-1105.6085 839.10876 4803.9219 21
-1009.2527 786.22394 4501.1548 21
-1048.9316 839.31775 4805.1187 21
-931.14368 765.85938 4384.5674 21
-908.86548 768.99475 4402.5176 21
-884.18127 770.2196 4409.5298 21
-857.53351 769.75647 4406.8784 21
-850.68298 787.59326 4508.9946 21
-823.2403 786.90363 4505.0464 21
-852.50439 842.18854 4821.5537 21
-759.24835 776.07269 4443.0386 21
-734.40216 777.64429 4452.0361 21
-708.56354 778.24298 4455.4639 21
-681.65521 777.6676 4452.1699 21
-658.75751 781.80566 4475.8604 21
-633.19073 782.99054 4482.6436 21
-607.38257 783.96753 4488.2373 21
-581.43097 784.84045 4493.2344 21
-555.77258 786.21191 4501.0859 21
-529.46826 786.76178 4504.2339 21
-503.03128 787.16254 4506.5283 21
-476.95776 788.20874 4512.5181 21
-451.90805 791.17175 4529.4814 21
-425.89658 792.71887 4538.3389 21
-400.0517 794.80554 4550.2852 19
-373.08301 794.79974 4550.2515 19
-346.55219 795.79846 4555.9697 19
-319.88443 796.625 4560.7012 18
-293.09116 797.26263 4564.3521 21
-266.69916 799.23254 4575.6294 21
-240.30556 801.64294 4589.4292 21
-213.29182 802.33582 4593.396 21
-185.39029 799.40332 4576.6069 21
-156.65154 791.237 4529.8545 21
-131.28575 800.25269 4581.4702 21
-103.57864 795.97729 4556.9932 21
-77.158707 802.06659 4591.8545 21
-49.986183 802.70557 4595.5127 21
-22.803684 804.52203 4605.9121 21
4.5004158 806.04169 4614.6118 21
31.929451 808.11346 4626.4731 21
59.456245 809.60223 4634.9961 21
87.047974 810.75476 4641.5947 21
115.00992 813.974 4660.0249 21
142.52376 813.38934 4656.6777 21
170.55348 815.46082 4668.5371 21
197.83235 813.86511 4659.4014 21
243.12878 877.70441 5024.8833 21
268.81064 864.52905 4949.4541 21
297.99829 864.11182 4947.0654 21
311.18878 821.53687 4703.3228 21
338.91928 821.19196 4701.3477 21
367.36322 822.49664 4708.8174 21
396.12164 824.27161 4718.979 21
424.79947 825.65576 4726.9033 21
452.60461 825.2774 4724.7373 21
480.40131 824.92859 4722.7402 21
508.45825 825.04053 4723.3813 21
536.78815 825.56061 4726.3584 19
565.09955 826.00201 4728.8857 19
593.14893 826.0368 4729.085 19
621.27673 826.17273 4729.8633 19
649.73273 826.71454 4732.9648 19
677.50977 826.38342 4731.0688 19
705.29926 826.09308 4729.4072 19
732.45428 825.11035 4723.7808 21
759.41321 823.98706 4717.3501 19
786.87659 823.4715 4714.3984 19
813.86121 822.50745 4708.8794 19
840.24603 821.0213 4700.3706 19
864.75647 817.85773 4682.2593 19
890.1535 815.70337 4669.9253 19
914.40497 812.66071 4652.5063 19
941.98132 812.66479 4652.5293 19
968.96106 812.16833 4649.6875 19
991.89624 808.4032 4628.1318 19
1019.9019 808.86182 4630.7573 18
1044.0284 806.30066 4616.0947 17
1070.49 805.62769 4612.2417 65552
1096.7706 804.8551 4607.8193 15
1116.4794 799.41486 4576.6733 196618
1116.1112 780.19812 4466.6567 262146
1145.4346 782.14618 4477.8096 3812134
1155.5754 771.20422 4415.1665 7627344
1193.777 779.05908 4460.1357 8350291
1221.8074 780.07977 4465.9795 8151885
1238.5065 773.97589 4431.0347 7625541
1255.6425 768.39288 4399.0718 9401952
1277.219 765.69922 4383.6504 9270367
1301.5243 764.71613 4378.022 9204577
1338.7061 771.18927 4415.0811 9664870
1361.5327 769.3031 4404.2827 9599077
1394.0785 772.87628 4424.7393 9072990
1415.0375 770.01239 4408.3433 8941403
1438.5975 768.64203 4400.498 8283473
1468.8578 770.83667 4413.0625 9007196
1482.1321 764.19647 4375.0469 8744024
1506.3689 763.33972 4370.1421 9138013
1536.0323 765.21539 4380.8804 9204063
1562.3778 765.4032 4381.9556 9401698
1588.2048 765.33508 4381.5659 9270113
1610.8776 763.77356 4372.626 9401699
1637.8505 764.26819 4375.4575 8678231
1664.9926 764.82501 4378.6455 9204575
1684.7682 762.03284 4362.6602 9336161
1704.448 759.28235 4346.9136 9467491
1726.7883 757.78137 4338.3203 9467490
1758.8674 760.53546 4354.0879 9401697
1785.3051 760.80579 4355.6353 9336161
1808.3544 759.64508 4348.9902 9533540
1826.3674 756.43109 4330.5898 9204575
1856.5673 758.28369 4341.1963 9072732
1885.1274 759.42511 4347.731 8875610
1919.3649 762.79199 4367.0063 9401954
1942.0944 761.55658 4359.9336 9402210
1970.2114 762.43866 4364.9834 9402467
1993.5388 761.46832 4359.4282 9336931
2028.7389 764.99969 4379.6455 9205345
2044.3715 761.15656 4357.6436 9139297
2072.2444 761.90979 4361.9556 8613211
2122.1611 770.6496 4411.9912 8744540
2147.9399 770.51764 4411.2358 9073505
2172.2778 769.8783 4407.5757 8744541
2197.4521 769.54706 4405.6792 8678746
2203.2451 762.51593 4365.4258 8086610
2248.2568 769.0636 4402.9116 8086610
2275.1558 769.33618 4404.4722 8349782
2282.7024 763.133 4368.9585 8481622
2325.3262 768.66412 4400.6245 8481623
2350.4231 768.34302 4398.7861 9072732
2350.9539 760.08661 4351.5181 8743768
2402.8816 768.44617 4399.3765 8217679
2416.3623 764.46271 4376.5713 8020301
2420.8376 757.74518 4338.1133 8481109
2434.7776 754.10022 4317.2456 8677718
2481.6145 760.61389 4354.5366 9006682
2491.4224 755.76093 4326.7534 8085066
2498.4082 750.15961 4294.6855 8085322
2510.7068 746.25031 4272.3047 8611923
2511.8274 739.12976 4231.5396 9006681
2534.7178 738.49268 4227.8921 8282958
2556.2104 737.46484 4222.0078 8151628
2593.897 741.08356 4242.7251 7954249
2614.2649 739.73236 4234.9893 7756870
2655.6501 744.29724 4261.1235 8546385
2699.0967 749.34857 4290.0425 8283471
2742.1526 754.19812 4317.8062 8152658
2759.8433 752.04602 4305.4854 8349779
2771.4275 748.28473 4283.9517 8284244
2794.5759 747.68561 4280.522 8218707
2782.4578 737.74664 4223.6211 9205091
2751.2668 722.97302 4139.0415 9074020
2749.9685 716.24609 4100.5298 9929074
2811.6541 725.89795 4155.7871 10060403
2813.1035 719.96576 4121.8252 9994867
2834.4089 719.17383 4117.291 9600111
2850.6333 717.11719 4105.5166 9468524
2875.2283 717.18317 4105.8945 9665903
2905.8777 718.74567 4114.8398 9797232
2958.877 725.76416 4155.021 9665646
3015.8845 733.64185 4200.1211 9336680
3038.5754 733.11108 4197.0825 9468264
3078.5762 736.73138 4217.8086 9336932
3165.0112 751.31598 4301.3057 8349781
3239.3953 762.82965 4367.2222 7165507
3258.9309 761.34729 4358.7354 7428934
3273.5403 758.74634 4343.8447 7231555
3336.8125 767.37714 4393.2563 7691849
3321.4058 757.92035 4339.1162 7297348
3336.3557 755.48285 4325.1611 7297092
3364.4976 756.04681 4328.3901 7231554
3379.5754 753.68896 4314.8911 7099710
3403.8528 753.40265 4313.252 6639416
3375.5574 741.57092 4245.5151 6507830
3420.8132 745.95312 4270.6035 7823432
3427.0442 741.82355 4246.9614 8415824
3463.749 744.30255 4261.1538 11178359
3538.2092 754.79999 4321.252 12099202
3559.6985 753.92749 4316.2568 11967359
3586.5693 754.1991 4317.812 12362118
3621.9958 756.25336 4329.5723 13151891
3596.095 745.56378 4268.3745 12230276
3597.1377 740.57074 4239.7891 11638142
3691.5566 754.73773 4320.8955 9993319
3712.4871 753.78821 4315.4595 9335134
3736.1355 753.3999 4313.2363 8940892
3700.4309 741.12946 4242.9878 8020050
3582.7751 712.72211 4080.3547 5783600
3532.5164 698.01306 3996.145 3546899
3556.8184 698.13477 3996.8418 7955532
3592.8608 700.54401 4010.6348 7560517
3597.9189 696.91992 3989.8867 5521192
3649.0239 702.20416 4020.1394 6705469
3678.0095 703.19098 4025.7888 5323562
3756.2795 713.52692 4084.9624 3218193
3749.5647 707.69055 4051.5491 3546644
3756.4424 704.47754 4033.1543 1049856
3755.4314 699.83502 4006.5757 4731166
3615.9993 669.6178 3833.5813 11637359
3704.8281 681.78369 3903.2317 11636075
3759.3408 687.52289 3936.0884 9530194
0 0 0 0
0 0 0 0
0 0 0 0
0 0 0 0
0 0 0 0
0 0 0 0
-3503.1108 703.09821 3893.1711 18
-3481.2251 703.33783 3894.4978 23
-3460.3774 703.79169 3897.0112 28
-3453.8108 707.17584 3915.7498 543
-3458.9041 713.00922 3948.0503 283
-3437.5632 713.4361 3950.4136 538
-3419.0364 714.45667 3956.0649 276
-3397.7439 714.90942 3958.572 271
-3374.6641 714.98987 3959.0171 270
-3350.168 714.76923 3957.7957 14
-3325.053 714.41254 3955.8206 11
-3303.8699 714.90149 3958.5278 11
-3278.2285 714.4259 3955.8948 11
-3235.8411 710.2677 3932.8699 13
-3243.1638 717.03973 3970.3679 13
-3183.0173 708.88477 3925.2124 14
-3210.7041 720.31494 3988.5032 14
-3176.0117 717.81616 3974.6672 14
-3127.4094 712.11285 3943.0869 16
-3094.9033 710.01636 3931.4783 16
-3108.3152 718.5022 3978.4656 16
-3080.6465 717.54919 3973.1887 15
-3033.4629 712.0011 3942.468 13
-3007.3281 711.3457 3938.8389 13
-2981.6748 710.7948 3935.7883 13
-2987.5918 717.82056 3974.6912 13
-2963.1226 717.59906 3973.4648 13
-2897.3611 707.29395 3916.4038 16
-2805.5142 690.40314 3822.8765 16
-2780.9368 689.92627 3820.2361 16
-2758.73 690.03448 3820.8352 16
-2828.814 713.42004 3950.325 16
-2725.9548 693.21613 3838.4524 16
-2685.3049 688.62512 3813.0312 16
-2662.3762 688.53931 3812.5562 16
-2645.9519 690.14856 3821.4668 16
-2634.5701 693.11218 3837.8772 16
-2670.0586 708.56567 3923.4453 15
-2588.3345 692.91211 3836.769 18
-2531.1279 683.60278 3785.2217 274
-2490.873 678.74622 3758.3301 274
-2592.1187 712.7077 3946.3806 274
-2610.8594 724.3963 4011.1023 274
-2569.3889 719.44031 3983.6602 274
-2522.8289 712.95404 3947.7446 274
-2464.3015 702.93268 3892.2546 18
-2478.6853 713.71619 3951.9646 18
-2467.5898 717.29877 3971.802 18
-2436.7224 715.14758 3959.8906 15
-2412.7617 715.00128 3959.0806 16
-2383.0388 713.12793 3948.7073 16
-2362.4248 713.97015 3953.3711 16
-2312.4736 705.87415 3908.542 16
-2321.1277 715.68445 3962.8633 15
-2284.9209 711.72168 3940.9209 14
-2272.5457 715.177 3960.0535 270
-2253.8608 716.69806 3968.4758 269
-2239.3308 719.58624 3984.468 270
-2193.7781 712.46088 3945.0139 270
-2177.2764 714.71844 3957.5144 270
-2189.8066 726.659 4023.6313 270
-2140.9077 718.25366 3977.0896 16
-2137.4294 725.06897 4014.8271 16
-2103.5466 721.6076 3995.6609 16
-2067.2212 717.22003 3971.366 16
-2054.1111 720.8786 3991.6243 15
-2040.9128 724.59125 4012.1816 18
-2042.0416 733.53784 4061.7205 18
-2019.7799 734.19543 4065.3616 18
-1997.3328 734.8006 4068.7124 18
-1953.2936 727.38 4027.6235 19
-1928.1844 726.91229 4025.0337 19
-1926.3134 735.30322 4071.4958 19
-1925.4032 744.27838 4121.1929 19
-1905.7607 746.15021 4131.5571 19
-1877.522 744.66113 4123.312 19
-1898.0265 762.72034 4223.3086 18
-1870.4164 761.66888 4217.4868 19
-1855.0209 765.63043 4239.4224 19
-1799.0826 752.73761 4168.0327 19
-1777.7893 754.18311 4176.0366 19
-1770.4794 761.68524 4217.5771 19
-1747.1846 762.42682 4221.6836 19
-1720.137 761.5285 4216.7095 19
-1695.4742 761.67517 4217.5215 19
-1669.7933 761.36194 4215.7871 19
-1649.161 763.3761 4226.9399 19
-1629.7207 766.0127 4241.5391 19
-1603.5134 765.50146 4238.7085 19
-1583.9557 768.19879 4253.644 19
-1561.5009 769.55566 4261.1572 19
-1527.4257 765.13605 4236.6851 21
-1504.464 766.229 4242.7368 21
-1480.9283 767.06171 4247.3477 21
-1464.6396 771.7417 4273.2617 21
-1441.5889 772.96075 4280.0117 21
-1418.3065 774.09705 4286.3037 21
-1395.3392 775.44989 4293.7944 21
-1372.8875 777.14471 4303.1792 21
-1307.584 754.18787 4176.063 21
-1324.0814 778.43646 4310.3315 21
-1296.4672 777.19537 4303.4595 21
-1276.0635 780.31366 4320.7261 21
-1251.5624 781.00293 4324.5425 21
-1229.572 783.3205 4337.375 21
-1204.6843 783.85168 4340.3169 21
-1179.4199 784.1557 4342 21
-1155.8204 785.60492 4350.0244 21
-1131.0162 786.28278 4353.7778 21
-1105.725 786.64575 4355.7876 21
-1081.1847 787.573 4360.9224 21
-1057.7408 789.36389 4370.8389 21
-1032.5304 789.89349 4373.771 21
-1007.9563 790.94946 4379.6182 21
-983.66779 792.29144 4387.0488 21
-959.18152 793.54254 4393.9766 21
-932.40686 792.91754 4390.5156 21
-907.69476 794.06091 4396.8467 21
-882.36212 794.71295 4400.4575 21
-857.14014 795.50757 4404.8569 21
-833.12286 797.50513 4415.918 21
-809.18652 799.71228 4428.1396 21
-783.19122 799.96436 4429.5352 21
-757.1474 800.18268 4430.7441 21
-730.18994 799.41632 4426.501 21
-704.74805 800.31409 4431.4717 21
-681.32397 803.66138 4450.0063 21
-655.1615 803.91815 4451.4277 21
-629.3551 804.65161 4455.4893 21
-604.65094 806.92041 4468.0518 21
-578.83722 807.84833 4473.1899 21
-552.89752 808.68115 4477.8013 21
-526.66675 809.1507 4480.4014 21
-500.39383 809.60193 4482.8999 21
-474.6113 810.94165 4490.3184 21
-449.21301 813.13611 4502.4692 21
-423.16306 814.35358 4509.2104 19
-396.98856 815.47925 4515.4438 19
-370.05795 815.10236 4513.3569 18
-344.02277 816.79266 4522.7163 19
-317.86035 818.44104 4531.8438 19
-291.45157 819.70074 4538.8188 18
-265.22305 821.77515 4550.3047 21
-238.7471 823.46558 4559.665 21
-211.92097 824.22559 4563.8735 21
-184.45512 822.3559 4553.521 21
-156.13858 815.40295 4515.021 21
-130.44077 822.07819 4551.9829 21
-103.70061 823.95215 4562.3594 21
-76.626083 823.55444 4560.1572 21
-49.780369 826.52228 4576.5908 21
-22.695522 827.87207 4584.0649 21
4.4739642 828.49042 4587.4888 21
31.735424 830.45367 4598.3594 21
59.045292 831.28436 4602.9595 21
86.443573 832.44159 4609.3667 21
113.9137 833.56866 4615.6079 21
141.61862 835.64484 4627.104 21
169.29126 836.88782 4633.9863 21
197.3531 839.43933 4648.1143 21
225.56592 841.92914 4661.9014 21
265.98587 884.46753 4897.4429 21
281.35504 843.53101 4670.771 21
308.83136 842.9751 4667.6929 21
336.6973 843.48663 4670.5254 21
365.00601 844.9455 4678.603 21
392.7431 844.96844 4678.7305 21
421.62332 847.28571 4691.561 21
448.01859 844.63135 4676.8633 21
476.40753 845.82599 4683.4785 21
521.93854 875.64801 4848.6079 21
532.76062 847.16559 4690.8965 19
560.83508 847.58154 4693.1992 19
587.81683 846.38483 4686.5728 19
615.75031 846.60468 4687.79 19
644.82953 848.31262 4697.2476 19
672.58087 848.20483 4696.6504 19
699.33307 846.89551 4689.4009 19
726.81128 846.53186 4687.3872 21
753.29047 845.07428 4679.3164 19
779.98126 843.94916 4673.0864 19
807.33923 843.59839 4671.144 19
834.85907 843.43439 4670.2358 19
858.66931 839.6535 4649.3003 19
883.20105 836.79114 4633.4512 19
907.12012 833.53857 4615.4409 19
934.59589 833.64886 4616.0518 19
958.21912 830.41425 4598.1411 18
982.2804 827.72754 4583.2646 18
1011.0887 829.07806 4590.7427 18
1033.0347 824.87805 4567.4863 17
1059.0874 824.08826 4563.1133 17
1083.9578 822.44049 4553.9893 16
1106.4739 819.13 4535.6582 15
1128.573 815.67511 4516.5283 12
1129.4028 797.36414 4415.1372 262149
1128.0487 778.37531 4309.9932 721666
1161.6212 783.79401 4339.9971 5193268
1181.0156 779.61847 4316.8765 8810847
1205.5112 778.91602 4312.9868 9073760
1228.2267 777.11646 4303.0225 9139039
1251.6238 775.81256 4295.8027 9336674
1281.0826 778.24316 4309.2612 9467747
1304.8971 777.21674 4303.5781 8020556
1314.467 767.90826 4252.0352 7098941
1346.0737 771.58148 4272.3745 7756871
1372.51 772.21008 4275.855 5980715
1404.7738 776.03516 4297.0352 7888456
1428.6759 775.18713 4292.3394 8546387
1460.4153 778.54663 4310.9419 8151885
1475.4846 773.05676 4280.5435 9072732
1497.3323 771.24384 4270.5049 9401441
1528.1735 774.04657 4286.0239 9007196
1542.1432 768.35162 4254.4902 9533540
1576.1141 772.64496 4278.2632 9730919
1608.8857 776.22369 4298.0791 9467746
1631.6414 774.93384 4290.937 9599333
1658.9264 775.80182 4295.7432 9467746
1680.933 774.2124 4286.9424 9862504
1695.7188 769.39404 4260.2622 9599333
1718.2877 768.19672 4253.6323 9599333
1742.2797 767.66089 4250.6655 9007196
1779.157 772.73688 4278.772 9072989
1785.1719 764.45416 4232.9092 9138782
1818.052 767.74591 4251.1362 9401954
1841.5325 767.03253 4247.186 9664869
1867.2048 767.23907 4248.3296 9599332
1900.2623 770.43433 4266.0225 9467747
1920.0629 768.24139 4253.8799 9401954
1948.6804 769.58728 4261.3325 9138525
1980.0234 771.96143 4274.4785 9007453
1997.475 768.92804 4257.6821 9138783
2027.1322 770.61035 4266.9971 8941405
2049.5242 769.52332 4260.978 9006941
2102.77 779.90625 4318.4702 8348755
2116.7097 775.63641 4294.8271 8349267
2130.0459 771.24945 4270.5361 8546904
2161.8059 773.55817 4283.3198 7428680
2161.4683 764.46106 4232.9478 9073248
2194.7236 767.31744 4248.7637 8810076
2235.6609 772.76428 4278.9238 9139042
2268.2004 775.21881 4292.5151 9271138
2297.9143 776.664 4300.5171 9139552
2310.1267 772.22687 4275.9482 9205345
2310.8225 764.07819 4230.8276 7099712
2334.2683 763.54602 4227.8809 7625284
2403.3977 777.80963 4306.8608 7888713
2401.0552 768.88623 4257.4502 8349263
2418.0718 766.2832 4243.0371 8743764
2443.9656 766.51807 4244.3374 8612436
2457.656 762.95966 4224.6338 8546644
2480.9558 762.42603 4221.6792 8414801
2493.0022 758.47931 4199.8257 8217423
2508.218 755.56543 4183.6909 8151630
2548.1084 760.06866 4208.626 8152656
2577.9053 761.50293 4216.5679 7955278
2586.1289 756.59833 4189.4102 7955278
2620.8354 759.46106 4205.2617 8218450
2649.6006 760.56451 4211.3716 8284499
2671.5742 759.716 4206.6733 8218964
2697.9338 760.11884 4208.9038 8152914
2734.1328 763.26111 4226.3032 7560778
2729.4216 755.02948 4180.7231 6837060
2740.1567 751.18036 4159.4102 2498070
2708.0242 735.75305 4073.9863 9732977
2740.1089 737.8916 4085.8281 8219225
2765.8999 738.31274 4088.1599 8416348
2778.1694 735.14844 4070.6387 8744801
2783.6897 730.26807 4043.6155 8482399
2815.0281 732.1864 4054.2375 8416093
2833.6216 730.78528 4046.4792 8810594
2826.6023 722.85767 4002.5828 8416093
2857.3464 724.63898 4012.446 8547678
2865.8977 720.80908 3991.2393 9008487
2908.7019 725.58649 4017.6924 7495761
2906.4287 719.13281 3981.9575 9732980
2917.1992 715.9845 3964.5249 11509390
2924.873 712.13257 3943.196 12101015
2978.2471 719.38031 3983.3279 10522236
3133.656 750.96625 4158.2246 8350553
3201.5916 761.26025 4215.2241 8218708
3167.448 747.31091 4137.9844 8547673
3244.2629 759.55365 4205.7744 8416086
3288.1636 763.96259 4230.1875 7889742
3316.4324 764.70038 4234.2725 6705210
3331.3538 762.37262 4221.3833 6047280
3352.1362 761.41083 4216.0576 6310195
3343.8589 753.91144 4174.5322 7560004
3372.4121 754.76501 4179.2588 7888712
3465.282 769.89563 4263.0396 7494211
3443.783 759.58136 4205.9277 7757126
3502.1345 766.90112 4246.4585 11309947
3513.7888 763.96356 4230.1929 13283993
3513.46 758.48065 4199.833 13546908
3552.5195 761.51825 4216.6528 12691598
3541.4824 753.84967 4174.1904 12099463
3554.4561 751.36298 4160.4214 13678494
3607.8115 757.38806 4193.7832 12823185
3703.5024 772.15723 4275.5625 11639167
3634.0024 752.51849 4166.8193 10981238
3588.1621 738.01111 4086.4897 9730658
3580.4873 731.49554 4050.4121 9139551
3575.8208 725.67725 4018.1951 9139553
3604.1304 726.58374 4023.2146 7955025
3620.2566 725.03845 4014.658 7955281
3591.7034 714.6236 3956.9895 6968641
3628.9377 717.34851 3972.0774 6639677
3626.8037 712.30615 3944.1572 7297348
3579.0154 698.41937 3867.2637 7231296
3650.53 707.84229 3919.4399 6968635
3675.6733 708.21143 3921.4839 2956819
3738.0913 715.71271 3963.0198 11639419
3749.707 713.45416 3950.5139 9730139
3740.8721 707.35681 3916.7517 8348748
0 0 0 0
0 0 0 0
0 0 0 0
0 0 0 0
0 0 0 0
0 0 0 0
-3478.5994 721.08887 3865.9302 30
-3452.8989 720.50665 3862.8088 33
-3440.8323 722.78064 3875.0002 546
-3437.9011 727.01697 3897.7122 290
-3440.8176 732.55566 3927.4065 540
-3421.8918 733.48779 3932.4038 538
-3381.4451 729.78815 3912.5691 277
-3357.2349 729.56573 3911.3767 274
-3336.6147 730.12579 3914.3792 15
-3312.4128 729.90442 3913.1924 13
-3305.7837 733.57953 3932.8955 13
-3279.0974 732.82434 3928.8472 14
-3237.1741 728.62878 3906.3535 14
-3242.0791 734.98889 3940.4514 14
-3213.9517 733.8985 3934.6057 15
-3189.2295 733.57526 3932.8728 15
-3144.865 728.69604 3906.7144 16
-3142.9089 733.64386 3933.2405 16
-3004.5874 706.59613 3788.231 16
-3073.4817 728.2395 3904.2664 16
-3076.427 734.46643 3937.6506 16
-3050.2854 733.79138 3934.0315 16
-3011.2427 729.97845 3913.5894 16
-2989.0981 730.23456 3914.9624 16
-2950.8438 726.5282 3895.0918 16
-2939.4639 729.43237 3910.6619 16
-2926.6147 732.0152 3924.509 16
-2894.4404 729.76703 3912.4561 16
-2866.7437 728.62061 3906.3096 16
-2823.8904 723.5719 3879.2422 16
-2821.8638 728.98724 3908.2754 16
-2806.5508 731.03156 3919.2354 15
-2776.6929 729.28973 3909.897 16
-2766.7458 732.79218 3928.6743 16
-2720.2715 726.59741 3895.4629 16
-2682.3079 722.58936 3873.9746 16
-2725.2622 740.49878 3969.9915 16
-2679.4563 734.39252 3937.2544 15
-2604.6707 720.16638 3860.9846 274
-2553.9795 712.40906 3819.3955 274
-2595.6196 730.49811 3916.3755 274
-2565.7815 728.61572 3906.2837 274
-2483.8784 711.7793 3816.0195 274
-2540.533 734.70337 3938.9209 274
-2522.677 736.30487 3947.5068 274
-2500.5098 736.6662 3949.4438 274
-2465.3704 733.17651 3930.7351 18
-2453.5151 736.6109 3949.1475 18
-2446.6836 741.63422 3976.0786 16
-2364.4517 723.67767 3879.8093 16
-2235.6726 690.98212 3704.5208 16
-2347.3301 732.68701 3928.1106 16
-2311.874 728.84796 3907.5286 16
-2280.5222 726.23828 3893.5374 16
-2243.323 721.69409 3869.1748 16
-2239.3735 727.86322 3902.249 16
-2214.5481 727.30487 3899.2559 16
-2203.814 731.41156 3921.2727 269
-2185.6875 733.12616 3930.4648 269
-2153.2463 730.02454 3913.8364 270
-2135.6721 731.95062 3924.1626 16
-2112.426 731.9538 3924.1799 16
-2146.7209 752.11707 4032.2798 16
-2120.5774 751.3208 4028.011 16
-1974.4001 707.49432 3793.0464 16
-1960.0569 710.44293 3808.8547 16
-1994.5909 731.38275 3921.1184 18
-1998.9348 741.6156 3975.979 18
-2031.076 762.52856 4088.0981 19
-2004.903 761.789 4084.1335 19
-1980.2762 761.62616 4083.2605 19
-1959.4753 762.9491 4090.3528 19
-1937.9089 764.00323 4096.0044 19
-1919.2429 766.24207 4108.0073 19
-1895.9354 766.66156 4110.2563 19
-1869.4945 765.80847 4105.6826 19
-1842.4537 764.68384 4099.6533 19
-1829.3724 769.40033 4124.9395 19
-1807.881 770.65942 4131.6899 19
-1782.2974 770.18481 4129.1455 19
-1741.1262 762.86737 4089.9148 19
-1745.2705 775.47839 4157.5254 19
-1728.2858 778.92786 4176.019 19
-1715.3019 784.30682 4204.8569 19
-1694.7827 786.34821 4215.8013 19
-1672.7463 787.73627 4223.2427 19
-1641.7559 784.88562 4207.96 19
-1618.892 785.89215 4213.3564 19
-1593.4742 785.67108 4212.1709 19
-1568.5992 785.71466 4212.4048 19
-1548.3361 788.1073 4225.2319 19
-1524.8965 788.93512 4229.6699 21
-1500.9097 789.50262 4232.7129 21
-1474.9606 789.03992 4230.2319 21
-1454.5466 791.57336 4243.8145 21
-1431.627 792.80823 4250.4351 21
-1407.0422 793.14899 4252.2617 21
-1382.639 793.60614 4254.7129 21
-1359.4031 794.76288 4260.9141 21
-1311.2399 781.11389 4187.7388 21
-1437.0743 872.58954 4678.1616 21
-1405.9772 870.50092 4666.9639 21
-1263.4802 797.97211 4278.1196 21
-1239.6536 798.95587 4283.394 21
-1214.9244 799.38702 4285.7051 21
-1190.3101 799.91357 4288.5283 21
-1167.1766 801.48004 4296.9268 21
-1143.5157 802.74622 4303.7148 21
-1228.9104 882.37341 4730.6152 21
-1203.8624 884.56799 4742.3809 21
-1077.5693 810.69678 4346.3398 21
-1142.957 880.94788 4722.9727 21
-1120.3397 885.19244 4745.729 21
-1093.7563 886.44122 4752.4238 21
-1062.6099 883.96008 4739.1216 21
-951.34863 812.88934 4358.0942 21
-935.22235 821.40955 4403.7734 21
-899.78485 812.97083 4358.5312 21
-876.3385 815.18774 4370.417 21
-851.69037 816.38782 4376.8506 21
-826.98193 817.60352 4383.3687 21
-803.30975 819.95587 4395.98 21
-777.84381 820.57367 4399.292 21
-751.11829 819.85938 4395.4624 21
-726.39862 821.36188 4403.5176 21
-700.92273 822.08929 4407.418 21
-677.02826 824.7998 4421.9492 21
-652.15125 826.48334 4430.9751 21
-625.2326 825.61206 4426.3042 21
-601.25885 828.72357 4442.9858 21
-576.02039 830.29712 4451.4219 21
-550.73334 831.94818 4460.2739 21
-524.60114 832.42487 4462.8291 21
-498.57962 833.13696 4466.647 21
-472.68198 834.14758 4472.0649 21
-446.89978 835.49396 4479.2832 21
-420.88605 836.55035 4484.9468 19
-394.98694 837.99219 4492.6768 18
-368.50082 838.30719 4494.3657 18
-342.18716 839.09412 4498.5845 19
-315.91586 840.12665 4504.1201 19
-289.75397 841.66754 4512.3813 19
-263.75815 844.05322 4525.1719 19
-237.43607 845.81677 4534.6265 21
-210.64873 846.16156 4536.4751 21
-183.5997 845.40216 4532.4038 21
-154.52489 833.45624 4468.3584 21
-128.77657 838.22168 4493.9072 21
-102.29799 839.47949 4500.6509 21
-76.50872 849.27618 4553.1729 21
-49.519283 849.16693 4552.5874 21
-22.556803 849.81213 4556.0464 21
4.4498935 851.07312 4562.8071 21
31.553196 852.77948 4571.9551 21
58.720509 853.8399 4577.6406 21
85.941055 854.7597 4582.5713 21
113.35851 856.72577 4593.1123 21
149.78055 912.80719 4893.7783 21
176.62943 901.81622 4834.853 21
206.71182 908.09845 4868.5337 21
235.00616 905.94885 4857.0088 21
264.66507 908.95471 4873.124 21
279.5097 865.49695 4640.1367 21
306.82095 864.96918 4637.3071 21
335.07986 866.98035 4648.0894 21
362.92453 867.69537 4651.9229 21
390.91116 868.625 4656.9067 21
418.91211 869.46167 4661.3926 21
445.84857 868.12219 4654.2109 21
473.98621 869.1413 4659.6748 21
503.10757 871.75281 4673.6758 21
528.72321 868.33423 4655.3477 19
556.18713 868.13971 4654.3047 19
583.95856 868.42072 4655.8115 19
611.48859 868.33368 4655.3447 19
639.11902 868.3905 4655.6499 19
666.1861 867.70892 4651.9956 19
693.31628 867.16046 4649.0552 19
721.73407 868.20276 4654.6431 21
748.55615 867.31952 4649.9077 19
774.60992 865.64032 4640.9053 19
801.30078 864.76385 4636.2065 19
828.82953 864.81982 4636.5063 19
852.31171 860.78534 4614.8765 19
875.2663 856.48547 4591.8242 19
899.99463 854.12823 4579.1865 19
927.48358 854.45227 4580.9233 19
949.98145 850.29059 4558.6113 18
975.00641 848.55835 4549.3247 18
999.93561 846.83826 4540.103 18
1024.9086 845.24438 4531.5576 18
1051.5448 845.06854 4530.6152 17
1077.931 844.70569 4528.6694 16
1096.2689 838.20654 4493.8262 16
1120.6406 836.51984 4484.7832 13
1140.2131 831.4118 4457.3979 65548
1151.1278 820.36487 4398.1729 262151
1128.698 786.57007 4216.9907 918790
1150.0229 784.0708 4203.5913 4930098
1176.6152 785.1925 4209.605 8284246
1209.0663 790.09619 4235.895 9007710
1243.2489 795.90894 4267.0586 7560006
1256.3622 788.27051 4226.1074 6506803
1273.7344 783.55066 4200.8027 7098939
1294.2592 780.91388 4186.6665 6375472
1317.7452 780.12952 4182.4609 8283725
1349.6178 784.24725 4204.5376 7625795
1371.8043 782.68945 4196.1855 5849385
1428.3212 800.42554 4291.2734 6638900
1445.3195 795.78265 4266.3813 7164989
1475.4846 798.42419 4280.5435 8480337
1477.4263 785.96216 4213.7314 8283471
1513.0085 791.51312 4243.4912 7362369
1538.5847 791.73346 4244.6729 9072730
1562.4678 791.08954 4241.2207 9336417
1576.955 785.78418 4212.7773 9336161
1604.5419 787.06995 4219.6704 9599076
1631.9397 788.22485 4225.8623 9862249
1648.5851 784.22986 4204.4443 9599333
1671.2495 783.17456 4198.7866 9467747
1692.7062 781.59253 4190.3047 9401954
1714.952 780.41541 4183.9941 9336161
1738.65 779.92316 4181.355 9072732
1767.5388 781.7406 4191.0986 8743767
1796.7069 783.62939 4201.2251 8875610
1822.1543 783.86603 4202.4937 9336161
1846.5497 783.64984 4201.3345 9467747
1869.9418 783.01917 4197.9536 9731175
1892.3934 782.01654 4192.5781 9534309
1920.9749 783.54022 4200.7466 9139552
1937.2531 780.07062 4182.1455 9271138
1963.1244 780.50287 4184.4629 9270883
1993.6422 782.74847 4196.5024 9139298
2018.4917 782.74091 4196.4614 8876125
2043.222 782.68768 4196.1763 8810332
2075.4634 785.47845 4211.1382 8350039
2096.2065 783.90289 4202.6914 8415319
2117.7654 782.66589 4196.0596 9073249
2141.6282 782.29913 4194.0933 8612955
2179.0718 786.84479 4218.4634 8941919
2201.333 785.86725 4213.2227 9139298
2223.0195 784.7088 4207.0117 8810587
2224.7446 776.60779 4163.5806 9007965
2271.9011 784.36981 4205.1943 8942172
2290.55 782.22784 4193.7109 8613208
2291.0732 774.00848 4149.645 8415057
2321.6274 776.0014 4160.3296 8283470
2356.467 779.36993 4178.3887 8086092
2379.6714 778.86005 4175.6553 7164990
2409.8616 780.6236 4185.1104 8349265
2414.4263 774.13501 4150.3232 8415572
2457.8389 780.10742 4182.3428 8677973
2483.2007 780.28845 4183.3135 8283214
2499.1521 777.53827 4168.5688 7757127
2527.751 778.73828 4175.0024 7164734
2550.1875 778.03485 4171.2314 7559492
2577.3296 778.76685 4175.1558 7428164
2603.4568 779.18121 4177.377 7955277
2618.0825 776.17786 4161.2754 8152657
2641.9524 775.94556 4160.0303 8218708
2660.4167 774.14478 4150.3755 8021329
2685.9468 774.41406 4151.8193 7889744
2692.3794 769.22223 4123.9849 7692365
2716.7678 769.20782 4123.9072 6903106
2664.813 747.77081 4008.9788 2826521
2726.644 758.36017 4065.7505 9469293
2722.4399 750.55835 4023.9233 8219228
2749.105 751.32867 4028.053 8219224
2756.2937 746.80859 4003.8198 8350814
2759.8206 741.38208 3974.7271 8285021
2772.6235 738.51813 3959.3726 7363920
2774.9431 732.93329 3929.4312 8351071
2816.2766 737.66028 3954.7737 10456190
2823.168 733.3623 3931.7312 9732724
2822.5295 727.19476 3898.6655 10785667
2845.771 727.22986 3898.8535 9403754
2829.2593 717.18726 3845.0127 9469544
2838.9375 713.89105 3827.3411 10719863
2918.469 728.07343 3903.376 9666407
2970.4939 735.22467 3941.7156 8284243
3013.5625 740.06476 3967.6646 9929327
3045.042 742.00604 3978.072 9731692
3106.8494 751.25073 4027.6353 9337192
3142.2754 754.02405 4042.5037 9139812
3235.1184 770.42902 4130.4546 8745054
3255.939 769.56464 4125.8203 8942432
3279.2649 769.30078 4124.4058 8744797
3225.8687 751.17535 4027.231 8020817
3324.3164 768.41486 4119.6562 7099713
3353.0437 769.4046 4124.9624 6638648
3357.4517 764.84003 4100.4907 6441270
3433.4788 776.53888 4163.2109 5914668
3476.0908 780.56738 4184.8086 7822663
3528.3606 786.69214 4217.645 9138778
3534.855 782.59625 4195.686 10783859
3514.417 772.6366 4142.29 12034182
3477.4797 759.21289 4070.3225 12560271
3472.8708 752.98358 4036.9255 12822930
3533.1882 760.8205 4078.9409 13350301
3571.7776 763.90387 4095.4714 13547679
3560.8889 756.43494 4055.429 13217943
3593.1753 758.17639 4064.7654 12100233
3641.0054 763.15259 4091.4438 10849910
3648.2395 759.61029 4072.4529 9336672
3626.0103 750.02032 4021.0386 8415316
3618.2817 743.53528 3986.2708 8612696
3576.9763 730.2793 3915.2024 8481367
3521.3892 714.29724 3829.5188 7494472
3555.2268 716.54309 3841.5591 7626056
3557.8018 712.49957 3819.8811 7954507
3605.6248 717.51147 3846.7507 7954249
3654.218 722.61261 3874.0994 7361856
3676.7512 722.52905 3873.6514 7625028
3744.0522 731.18933 3920.0813 8085322
0 0 0 0
0 0 0 0
0 0 0 0
0 0 0 0
0 0 0 0
0 0 0 0
-3501.7031 748.94055 3891.6064 545
-3480.8484 749.41589 3894.0764 546
-3527.9924 764.63525 3973.1582 546
-3534.9653 771.29413 4007.7588 290
-3512.8535 771.65411 4009.6294 541
-3459.5774 765.12671 3975.7119 539
-3437.604 765.48022 3977.5488 533
-3406.8818 763.87701 3969.2183 530
-3374.3918 761.85236 3958.6978 275
-3343.97 760.26947 3950.4731 272
-3417.5364 782.47339 4065.8479 17
-3392.937 782.35712 4065.2437 16
-3381.7031 785.34308 4080.7593 16
-3246.2979 759.32764 3945.5791 16
-3201.2622 754.22607 3919.0708 16
-3174.8179 753.46216 3915.1013 16
-3201.1074 765.29407 3976.5818 16
-3050.0054 734.57776 3816.9749 16
-3023.3672 733.60272 3811.9087 16
-3037.1208 742.48773 3858.0767 16
-2982.4753 734.65912 3817.3979 16
-2952.4946 732.83282 3807.9082 16
-2966.7209 742.03546 3855.7263 16
-2942.1467 741.60083 3853.4678 16
-2919.9771 741.7702 3854.3479 16
-2887.988 739.42816 3842.1785 16
-2845.9419 734.45337 3816.3289 16
-2860.0901 744.01727 3866.0242 16
-2786.9871 730.85504 3797.6311 16
-2759.8386 729.62756 3791.2529 16
-2722.3779 725.63123 3770.4875 16
-2885.6389 775.51263 4029.6787 16
-2853.0725 773.15881 4017.448 16
-2876.7339 786.13098 4084.8533 16
-2801.7729 772.14386 4012.1741 16
-2787.3003 774.73004 4025.6121 16
-2658.2366 745.23523 3872.3528 16
-2600.1511 735.29877 3820.7214 15
-2598.6272 741.32336 3852.0261 18
-2547.1416 733.07562 3809.1697 18
