# .PCD v0.7 - Point Cloud Data file format
VERSION 0.7
FIELDS x y z rgb
SIZE 4 4 4 4
TYPE F F F U
COUNT 1 1 1 1
WIDTH 1392
HEIGHT 1
VIEWPOINT 0 0 0 1 0 0 0
POINTS 1392
DATA ascii
-823.57245 1228.9524 3878.0361 21
-803.31561 1233.1357 3891.2371 21
-782.2359 1236.266 3901.1147 21
-761.72205 1240.5084 3914.502 21
-738.86798 1241.0864 3916.3257 21
-717.52179 1244.3168 3926.5193 21
-691.21918 1238.8804 3909.3643 21
-667.36633 1237.6099 3905.355 21
-644.66406 1238.4584 3908.0327 21
-622.84729 1241.1346 3916.4778 21
-600.16699 1242.2308 3919.937 21
-575.36548 1238.8479 3909.262 21
-553.30341 1241.3271 3917.0852 21
-530.013 1241.147 3916.5168 21
-506.50067 1240.4069 3914.1812 21
-482.85678 1239.2579 3910.5559 21
-459.34811 1238.3579 3907.7156 21
-436.97379 1240.5826 3914.7361 21
-417.64612 1252.1914 3951.3684 21
-391.22235 1242.6398 3921.2275 21
-366.27841 1236.8793 3903.0496 21
-342.24744 1233.6328 3892.8052 21
-318.05838 1229.306 3879.1519 21
-295.84116 1232.5199 3889.2937 21
-274.67151 1241.0103 3916.0854 21
-250.77628 1237.6165 3905.376 21
-226.66937 1232.3818 3888.8577 21
-204.60461 1238.3217 3907.6016 21
-180.04121 1228.7253 3877.3196 19
-157.46976 1231.9043 3887.3511 19
-133.81622 1226.2571 3869.531 18
-110.81335 1225.4696 3867.0459 18
-87.496574 1219.895 3849.4551 18
-64.393211 1214.4133 3832.157 18
-41.563019 1210.9166 3821.1233 18
-18.896938 1209.554 3816.8232 21
3.7053745 1204.0315 3799.3967 21
26.202007 1203.1406 3796.5854 21
48.543686 1199.2448 3784.292 21
70.250549 1187.0842 3745.9185 19
92.360092 1185.9341 3742.2891 19
113.94961 1179.845 3723.0745 19
136.30074 1182.338 3730.9412 19
158.18127 1180.6228 3725.5288 19
179.5939 1176.2629 3711.7712 19
201.91963 1178.1826 3717.8286 19
223.89102 1177.8604 3716.8118 19
245.61177 1176.3953 3712.1887 19
267.11975 1174.2358 3705.3745 19
288.86206 1173.3563 3702.5991 19
310.02625 1170.4183 3693.3281 19
330.91187 1166.8856 3682.1804 19
352.52386 1166.1929 3679.9946 19
373.94763 1164.9945 3676.2131 19
394.86057 1162.4243 3668.1025 19
417.2673 1164.2903 3673.991 19
439.43661 1165.3418 3677.3088 19
461.41348 1165.8075 3678.7783 19
481.08694 1160.6742 3662.5796 19
503.49396 1162.2941 3667.6917 19
520.77563 1152.4381 3636.5903 19
507.26993 1077.9425 3401.5149 19
523.28839 1069.4821 3374.8174 19
542.86176 1068.6423 3372.1677 19
562.35559 1067.7114 3369.2302 19
577.09607 1058.1289 3338.9917 19
591.50574 1048.5951 3308.9072 19
612.94275 1051.7312 3318.8035 19
634.51166 1054.8917 3328.7766 19
656.22528 1058.0948 3338.8843 19
673.91895 1054.8184 3328.5452 19
682.99835 1038.6287 3277.4578 19
701.69666 1037.5574 3274.0769 19
719.28406 1034.9451 3265.8337 19
736.76605 1032.3221 3257.5569 19
767.55176 1047.9977 3307.022 18
745.25098 992.21423 3130.9939 18
798.87439 1037.7695 3274.7466 18
821.82782 1042.2673 3288.9397 18
834.40778 1033.7057 3261.9229 16
805.62573 975.45062 3078.0955 65551
813.27417 962.90863 3038.5183 65549
813.93726 942.8186 2975.1228 196615
815.34814 924.42822 2917.0911 919046
834.6264 926.63861 2924.0662 4141609
848.73584 923.13727 2913.0173 6640967
863.17511 920.12701 2903.5183 7824467
887.32086 927.37921 2926.4031 8745053
897.65472 920.19464 2903.7314 8942175
914.21027 919.53821 2901.6602 8810846
929.43433 917.59149 2895.5173 8679260
946.47406 917.47552 2895.1511 8350295
962.88177 916.76184 2892.8992 8284245
984.58136 921.02338 2906.3467 9008224
1000.3261 919.66376 2902.0564 9008224
1020.2397 922.11804 2909.801 8811359
1038.6084 923.11755 2912.9551 8680030
1057.9521 924.93677 2918.6958 8811615
1076.6598 926.15045 2922.5256 8416601
1096.6686 928.42725 2929.71 8547934
1110.2642 925.28821 2919.8047 8745569
1127.2113 924.99585 2918.8821 8613983
1159.5372 937.14148 2957.2085 8548446
1163.6544 926.46655 2923.5232 7956053
1180.8757 926.38501 2923.2656 6508607
1184.8458 916.06055 2890.686 8021845
1211.8368 923.57513 2914.3992 8810590
1226.0403 921.26996 2907.1248 8547673
1227.0801 909.27411 2869.2712 8613466
1242.974 908.46295 2866.7114 9140068
1259.8921 908.41193 2866.5505 8416091
1281.7892 911.9046 2877.5718 8547933
1293.9929 908.49988 2866.8281 8350296
1310.0051 907.82269 2864.6912 8021329
1337.8394 915.25055 2888.1304 7692621
1351.8993 913.1864 2881.6167 6376246
1364.2792 910.0531 2871.7295 6639162
1381.0909 909.91699 2871.2998 6705212
1388.8032 903.86188 2852.1926 7626572
1427.9786 918.18311 2897.3843 7560522
1422.4008 903.72992 2851.7761 8350295
1437.8939 902.84637 2848.988 6771265
1458.7872 905.33472 2856.8403 7560781
1489.912 914.04291 2884.3196 7034180
1497.9796 908.56866 2867.0452 7758160
1513.1337 907.46716 2863.5693 8416090
1531.7308 908.43219 2866.6145 8548187
1556.2036 912.82251 2880.4683 8482394
1580.1255 916.79767 2893.0125 8613466
1602.3717 919.72607 2902.2529 7889745
1622.5907 921.4408 2907.6638 8349525
1652.2931 928.44836 2929.7769 8744540
1680.5326 934.49677 2948.863 6770494
1696.0573 933.4231 2945.4749 6375220
1724.6068 939.46649 2964.5452 5849135
1751.8082 944.66107 2980.937 4927522
1745.7382 931.98926 2940.9504 5388843
1767.4425 934.24939 2948.0823 5257257
1769.1433 925.99506 2922.0352 7955283
1785.7195 925.61127 2920.8242 7692367
1793.8171 920.88226 2905.9014 7626574
1813.807 922.29016 2910.3442 7560781
1835.9368 924.74939 2918.1045 8218454
1830.8384 913.57617 2882.8467 8284503
1852.2117 915.69641 2889.5374 8284247
1862.9009 912.54443 2879.5908 8416090
1872.7412 909.03741 2868.5244 8153175
1890.677 909.48792 2869.9458 8284761
1903.4243 907.45667 2863.5361 8284249
1925.9701 910.09143 2871.8503 8350043
1936.9287 907.25269 2862.8926 8415836
1951.5756 906.17578 2859.4941 7889492
1965.6168 904.83856 2855.2747 7823699
1987.2087 906.97046 2862.002 7889492
2006.4663 908.00983 2865.2817 7692626
2017.7147 905.43768 2857.165 7429711
2046.3822 910.65997 2873.6445 7627346
2057.4307 908.0202 2865.3145 6377023
2088.3413 914.11774 2884.5557 7956313
2116.8713 919.08282 2900.2231 6179645
2118.2915 912.2923 2878.7954 6245695
2127.2979 908.85126 2867.937 5259313
2124.3462 900.39655 2841.2576 6707019
2133.1655 897.0246 2830.6172 5325629
2130.9473 889.10016 2805.6111 196608
2129.0496 881.43109 2781.4106 327680
2102.8005 863.87567 2726.0137 3420205
2111.3882 860.79065 2716.2786 8746856
2173.043 879.22339 2774.4443 8351583
2159.4531 867.1637 2736.3892 8746334
2185.7668 871.18817 2749.0886 7890514
2205.0198 872.35968 2752.7856 8680030
2197.5505 863.01971 2723.3125 8613980
2228.5271 868.80426 2741.5662 8548187
2237.0906 865.83051 2732.1821 8153687
2251.905 865.30133 2730.5122 8811616
2263.8313 863.67792 2725.3894 7035208
2259.5898 855.95288 2701.0127 4469025
2283.137 858.78925 2709.9629 8679004
2285.7776 853.77686 2694.1462 9140064
2317.2546 859.53021 2712.3013 9994860
2402.7417 885.10016 2792.9888 6968637
2436.4719 891.38489 2812.8206 7296322
2425.5435 881.35681 2781.1765 6769724
2416.374 872.09894 2751.9626 7690311
2442.7344 875.70233 2763.3335 7624516
2464.937 877.77716 2769.8809 8808273
2469.0894 873.43939 2756.1924 7623996
2483.8706 872.89368 2754.4707 9664084
2477.0923 864.82812 2729.0193 11243116
2477.7319 859.44025 2712.0176 7296059
2514.5808 866.60065 2734.6123 8349265
2522.4666 863.75159 2725.6221 8217681
2530.9497 861.14209 2717.3877 9402212
2558.7058 865.08167 2729.8191 9402468
2572.3276 864.22308 2727.1099 8218450
2609.4631 871.22565 2749.207 8547417
2637.0615 874.97705 2761.0447 10258293
0 0 0 0
0 0 0 0
0 0 0 0
0 0 0 0
0 0 0 0
0 0 0 0
0 0 0 0
0 0 0 0
-2623.8499 953.93085 2954.9297 18
-2730.7874 999.47986 3096.0237 19
-2565.8838 945.47693 2928.7424 19
-2552.4426 946.92944 2933.2417 18
-2542.2273 949.60675 2941.5352 20
-2527.886 950.76923 2945.1362 21
-2506.1396 949.14349 2940.1001 21
-2487.1943 948.56311 2938.3022 21
-2479.5544 952.31665 2949.9294 21
-2460.6853 951.78015 2948.2673 21
-2446.5334 953.07355 2952.2739 21
-2431.7639 954.14331 2955.5876 21
-2414.7268 954.33221 2956.1729 21
-2397.0396 954.26526 2955.9653 21
-2381.5894 955.09436 2958.5337 21
-2365.9624 955.86438 2960.9189 21
-2341.0737 952.87622 2951.6626 21
-2327.5195 954.49109 2956.665 23
-2307.0002 953.25262 2952.8286 23
-2292.9617 954.6933 2957.2915 22
-2281.9749 957.43677 2965.7898 23
-2297.543 971.45068 3009.1997 22
-2316.1709 986.98785 3057.3281 21
-2406.0186 1033.3582 3200.9663 21
-2286.6382 989.89014 3066.3184 21
-2256.4106 984.62933 3050.0222 21
-2197.1753 966.52307 2993.9358 21
-2174.8276 964.48102 2987.6101 21
-2208.137 987.29028 3058.2649 21
-2218.1724 999.98499 3097.5884 21
-2328.6848 1058.566 3279.0513 21
-2283.5378 1046.7783 3242.5371 21
-2154.2397 995.88831 3084.8984 21
-2138.0486 996.86298 3087.9177 21
-2129.6956 1001.5407 3102.4075 21
-2113.3948 1002.5295 3105.4707 21
-2098.5171 1004.2169 3110.6975 21
-2084.606 1006.4008 3117.4622 21
-2068.3174 1007.4657 3120.761 21
-2070.5195 1017.6377 3152.27 21
-2051.8032 1017.6202 3152.2158 21
-2167.0217 1084.6395 3359.8174 21
-2131.2925 1076.6488 3335.0649 21
-2126.6208 1084.3444 3358.9031 21
-2102.1863 1082.0132 3351.6819 21
-2096.1245 1089.1844 3373.896 21
-2071.2651 1086.6322 3365.99 21
-2065.6375 1094.2179 3389.4875 21
-2045.5618 1094.2239 3389.5061 21
-1998.3893 1079.5914 3344.1802 21
-1883.6304 1027.7878 3183.7114 21
-1886.9197 1039.9996 3221.5396 21
-1938.6176 1079.4149 3343.6335 21
-1943.7222 1093.4335 3387.0579 21
-1918.035 1090.2421 3377.1719 18
-1924.9142 1105.6896 3425.0229 19
-1905.1677 1106.0094 3426.0134 18
-1885.1219 1106.1605 3426.4814 19
-1873.4447 1111.2789 3442.3367 20
-1857.474 1113.9351 3450.5645 20
-1846.3716 1119.6027 3468.1204 20
-1830.8969 1122.7166 3477.7661 20
-1800.5214 1116.66 3459.0054 21
-1787.0568 1121.073 3472.6748 21
-1774.7025 1126.2931 3488.845 21
-1766.9163 1134.5696 3514.4827 21
-1748.6044 1136.2043 3519.5464 21
-1730.688 1138.1385 3525.5376 21
-1715.6261 1142.0201 3537.5615 21
-1694.9149 1142.1907 3538.0898 21
-1657.4589 1130.9401 3503.2393 21
-1621.8124 1120.6543 3471.3777 21
-1541.5991 1078.9135 3342.0798 21
-1630.0782 1155.6848 3579.8896 21
-1593.2798 1144.491 3545.2153 21
-1480.3215 1077.5594 3337.886 21
-1464.3081 1080.3391 3346.4963 21
-1443.7609 1079.8043 3344.8396 21
-1419.5831 1076.5013 3334.6082 21
-1417.0305 1089.7356 3375.603 21
-1395.7836 1088.7665 3372.6011 21
-1367.9807 1082.5811 3353.4409 21
-1350.894 1084.8188 3360.3726 21
-1336.4061 1089.2415 3374.0725 21
-1324.0776 1095.5853 3393.7236 21
-1299.6935 1091.9958 3382.6047 21
-1282.1979 1094.1724 3389.3464 21
-1264.5255 1096.2648 3395.8284 21
-1268.8807 1117.8302 3462.6301 21
-1224.964 1096.8802 3397.7346 21
-1208.675 1100.3823 3408.5828 21
-1192.7344 1104.3259 3420.7986 21
-1194.1383 1124.7426 3484.042 20
-1177.4996 1128.5846 3495.9431 21
-1157.6611 1129.4423 3498.5999 21
-1134.8306 1127.3589 3492.1465 21
-1116.6686 1129.9222 3500.0867 21
-1095.7518 1129.7423 3499.5293 21
-1075.8016 1130.5712 3502.0969 21
-1058.0903 1133.832 3512.1978 21
-1042.4807 1139.5208 3529.8196 21
-1022.2057 1140.2386 3532.0432 21
-998.41119 1136.9784 3521.9438 21
-978.88086 1138.5386 3526.7771 21
-958.74896 1139.4521 3529.6067 21
-941.05792 1143.3717 3541.7483 21
-923.82898 1148.0447 3556.2231 21
-963.72125 1225.5775 3796.3916 21
-948.40179 1234.9249 3825.3469 21
-923.12506 1231.4474 3814.5745 21
-905.86096 1238.7523 3837.2024 21
-880.34491 1234.8585 3825.1409 21
-856.52911 1233.2068 3820.0244 21
-837.46912 1238.4985 3836.4165 21
-811.98602 1234.3217 3823.478 21
-788.32831 1232.7596 3818.6394 21
-769.91827 1239.5537 3839.6851 21
-748.05334 1241.03 3844.2581 21
-728.13177 1245.9244 3859.4192 21
-706.77563 1248.6018 3867.7126 21
-683.93799 1248.7539 3868.1838 21
-654.57611 1236.5912 3830.5081 21
-631.84058 1236.5225 3830.2952 21
-610.65112 1239.587 3839.7881 21
-587.9292 1239.6576 3840.0068 21
-567.81415 1245.4518 3857.9551 20
-544.67126 1244.8123 3855.9741 20
-523.55896 1248.9607 3868.8245 21
-500.76697 1249.2988 3869.8716 21
-478.1618 1250.1576 3872.5322 21
-454.866 1249.2065 3869.5859 21
-434.09122 1255.4454 3888.9119 21
-412.71786 1260.5558 3904.7419 21
-386.25839 1249.8162 3871.4741 21
-362.42786 1246.7635 3862.0183 21
-339.21701 1245.5751 3858.3367 21
-315.68103 1242.9343 3850.157 21
-292.94852 1243.2922 3851.2654 21
-270.24731 1243.8549 3853.0083 21
-246.86237 1241.0837 3844.4243 21
-224.01306 1240.7158 3843.2847 21
-200.69186 1237.3551 3832.8745 21
-177.67288 1235.2378 3826.3159 21
-154.8262 1233.8741 3822.0918 21
-132.30795 1235.109 3825.9167 21
-110.09382 1240.2806 3841.9368 21
-86.348389 1226.4001 3798.9402 21
-63.68021 1223.4253 3789.7249 21
-41.134197 1220.8345 3781.6995 21
-18.657598 1216.5673 3768.4812 21
3.6710587 1215.1884 3764.21 21
25.892094 1211.1433 3751.6799 21
48.014931 1208.3645 3743.0723 21
69.821823 1201.9033 3723.0576 19
91.304565 1194.3049 3699.5208 19
113.14168 1193.387 3696.677 19
135.89807 1200.89 3719.9192 19
156.464 1189.644 3685.083 19
178.0556 1187.9961 3679.9783 19
201.72064 1199.0323 3714.1646 19
223.90509 1199.9623 3717.0454 19
241.74051 1179.5057 3653.6785 19
263.83234 1181.4731 3659.7727 19
284.92267 1178.9977 3652.1042 19
307.16656 1181.308 3659.261 19
327.98267 1178.1847 3649.5862 19
348.29236 1173.7412 3635.822 19
370.3381 1175.3252 3640.7285 19
390.83014 1172.0752 3630.6614 19
413.39194 1175.0477 3639.8689 19
434.01672 1172.4924 3631.9539 19
452.68787 1165.1504 3609.2107 19
472.89825 1162.2538 3600.238 19
495.37537 1164.9377 3608.552 19
517.04108 1165.5704 3610.512 19
536.16199 1160.6442 3595.252 19
519.97003 1082.5731 3353.4165 19
538.94708 1080.7762 3347.8506 19
557.32635 1077.9509 3339.0986 19
573.17853 1070.5991 3316.3252 19
588.44379 1062.6748 3291.7788 19
609.74481 1065.8093 3301.4883 19
625.84412 1059.9392 3283.3047 19
643.37964 1056.7821 3273.5254 19
663.9422 1058.6365 3279.2693 19
676.11646 1047.3907 3244.4343 19
694.78455 1046.5485 3241.8254 19
709.89594 1040.5385 3223.2083 19
729.17188 1040.7875 3223.9797 19
752.88684 1047.1981 3243.8376 18
771.88696 1046.8949 3242.8984 18
794.20575 1050.9982 3255.6086 18
813.58527 1051.1095 3255.9534 18
826.10193 1042.5544 3229.4531 15
805.09943 993.04285 3076.0845 65552
809.66113 976.5578 3025.0195 65551
809.72229 955.47614 2959.7163 65549
818.94098 945.86523 2929.9451 262151
823.47736 931.35767 2885.0061 852997
836.26526 926.58295 2870.2158 4075304
850.92987 924.03662 2862.3284 6640452
867.71881 923.85156 2861.7549 8153174
881.56348 920.59888 2851.6794 8416088
896.0011 918.07629 2843.8652 8284245
913.63654 918.86279 2846.3015 7823951
929.84045 918.20728 2844.271 8416087
947.84467 919.32104 2847.7212 8086866
960.65308 915.44476 2835.7136 8810845
983.89087 921.46942 2854.3757 8876639
1003.2127 923.68488 2861.2385 8810846
1022.6885 925.96606 2868.3049 8416344
1042.9298 928.85449 2877.2522 8351065
1059.8086 928.70337 2876.7839 8482651
1079.0984 930.63629 2882.7717 8745569
1094.7074 929.38422 2878.8931 8679776
1110.186 928.06146 2874.7957 8613726
1126.7891 927.70441 2873.6897 8942948
1140.2911 924.84296 2864.8259 8811361
1165.6511 931.54193 2885.5769 8679519
1168.3297 920.18311 2850.3914 6903362
1176.2223 913.19611 2828.7483 8744797
1193.5938 913.66125 2830.189 8613210
1209.2208 912.79675 2827.5112 8416088
1229.8724 915.6969 2836.4949 8547674
1245.882 915.10919 2834.6743 8876639
1255.1058 909.61938 2817.6687 8679260
1271.9482 909.72253 2817.9883 8613469
1288.7761 909.81281 2818.2681 8218709
1303.1099 908.16254 2813.156 8152403
1325.4116 912.03693 2825.1575 8284502
1340.6119 910.98895 2821.9114 8284503
1353.2343 908.23663 2813.3855 8350295
1384.1489 917.67896 2842.6343 8481881
1394.6904 913.54932 2829.8423 8679260
1416.3734 916.729 2839.6917 8350294
1423.1703 910.31226 2819.8152 7692367
1433.4446 906.24298 2807.2102 8086868
1459.4619 912.1059 2825.3711 7626574
1477.217 912.73083 2827.3069 7560781
1489.5299 910.01678 2818.8999 8218712
1506.6562 910.27118 2819.6877 8416088
1529.2206 913.76929 2830.5237 8218965
1555.4347 919.34875 2847.8069 7955537
1572.5605 919.49438 2848.2581 8810845
1632.1371 944.19482 2924.771 8349782
1620.9672 927.87915 2874.231 7297094
1635.9706 926.72931 2870.6692 7560010
1644.646 922.05542 2856.1912 7165508
1696.6227 941.50574 2916.4412 7428680
1692.4362 929.71167 2879.9072 7494988
1732.8691 942.41919 2919.2708 7823696
1721.9821 927.24109 2872.2544 7692109
1736.3618 925.83246 2867.8911 6376505
1714.9205 905.5365 2805.0215 7560523
1758.2278 919.49127 2848.2483 7561036
1777.6556 920.8114 2852.3376 6573885
1766.6681 906.50006 2808.0063 5586992
1792.0759 910.95654 2821.811 7494987
1814.7721 913.96497 2831.1299 6508348
1810.3126 903.36725 2798.302 8350297
1843.3688 911.51288 2823.5342 7823953
1843.5114 903.38293 2798.3508 7955285
1858.3154 902.51874 2795.6738 7955285
1884.0656 906.9389 2809.3657 8613215
1899.4601 906.34033 2807.5115 8547422
1926.7444 911.37622 2823.1108 7626321
1939.3086 909.42261 2817.0593 7955286
1953.5879 908.29968 2813.5808 7757906
1979.4041 912.51434 2826.6362 7757906
1998.2292 913.46234 2829.573 7561297
2020.8854 916.13135 2837.8406 7627347
2041.9673 918.04858 2843.7793 7824470
2049.1482 913.73566 2830.4197 7298126
2086.6506 922.90381 2858.8191 7890264
2092.0615 917.84479 2843.1482 6706245
2106.7715 916.91382 2840.2642 6969670
2121.158 915.85791 2836.9937 7429191
2127.2603 911.2699 2822.7815 7363143
2120.3555 901.22498 2791.666 6508354
2124.6379 896.05365 2775.6472 2693909
2133.2393 892.76929 2765.4734 1840145
2137.7449 887.83417 2750.186 9602159
2154.4194 887.98926 2750.6665 8877923
2167.1543 886.53046 2746.1477 8680288
2184.4856 886.95959 2747.4771 8482396
2194.7859 884.54883 2740.0093 7362373
2197.3167 879.065 2723.0227 4336154
2231.949 886.41028 2745.7756 6508093
2203.9705 868.9635 2691.7319 5784627
2220.0444 869.01141 2691.8801 7100231
2249.9468 874.43286 2708.6738 6508094
2250.0962 868.29614 2689.6646 6442301
2261.7969 866.67194 2684.6333 6573890
2276.1077 866.06354 2682.7488 7298372
2330.6228 880.65527 2727.9487 8022098
2357.4038 884.63855 2740.2874 10586998
2376.9722 885.87903 2744.1301 8218709
2421.1687 896.2193 2776.1602 7626573
2432.2456 894.24298 2770.0383 7428938
2435.7915 889.54297 2755.4795 6507067
2448.9993 888.41046 2751.9714 7165511
2449.2019 882.60638 2733.9924 7362631
2460.8352 880.97076 2728.9258 7033409
2476.8826 880.92633 2728.7881 7559754
2486.6365 878.65869 2721.7639 7888461
2516.1252 883.34863 2736.2917 7822668
2503.2095 873.18689 2704.8142 8414802
2510.4192 870.12994 2695.345 9797739
2530.0029 871.37347 2699.1968 9336674
2565.8342 878.16211 2720.2256 9205088
2585.5732 879.3927 2724.0376 8481880
2615.908 884.18951 2738.8965 8481880
0 0 0 0
0 0 0 0
0 0 0 0
0 0 0 0
0 0 0 0
0 0 0 0
0 0 0 0
0 0 0 0
-2723.2732 1008.2525 3066.8984 19
-2582.4229 962.52863 2927.8157 19
-2562.3066 961.49097 2924.6594 20
-2662.0967 1005.7397 3059.2549 21
-2540.2104 966.27167 2939.2014 21
-2513.821 962.83563 2928.7498 21
-2500.5132 964.39709 2933.4993 21
-2481.1985 963.64746 2931.219 21
-2466.7861 964.80463 2934.739 21
-2452.7573 966.12933 2938.7683 21
-2437.592 967.02216 2941.4841 21
-2416.0305 965.37207 2936.4648 21
-2390.4443 962.07819 2926.4458 21
-2371.4792 961.42047 2924.4451 20
-2356.2466 962.27747 2927.0518 21
-2342.0564 963.57605 2931.0017 21
-2329.6604 965.63757 2937.2725 21
-2313.3867 966.11084 2938.7119 22
-2294.8367 965.63336 2937.2598 23
-2282.8508 967.93195 2944.2515 23
-2325.2461 993.50104 3022.0276 22
-2260.9028 973.50726 2961.2107 21
-2279.8789 989.3573 3009.4231 21
-2281.1638 997.71967 3034.8596 21
-2252.9805 993.22382 3021.1843 21
-2254.2722 1001.7542 3047.1316 21
-2238.3154 1002.6954 3049.9949 21
-2225.5784 1005.106 3057.3274 21
-2174.8389 990.25281 3012.1472 21
-2173.6921 997.92145 3035.4734 21
-2154.8901 997.54504 3034.3286 21
-2271.4854 1060.3679 3225.4231 21
-2165.8516 1019.6367 3101.5266 21
-2138.7073 1015.4753 3088.8689 21
-2120.7422 1015.6384 3089.3647 21
-2120.9866 1024.6007 3116.6262 21
-2089.0571 1018.0416 3096.6748 21
-2074.3972 1019.8565 3102.1953 21
-2063.8867 1023.7621 3114.0757 21
-2161.0139 1081.6123 3290.0439 21
-2145.0078 1083.3756 3295.4075 21
-2136.8704 1089.1821 3313.0701 21
-2124.4255 1092.8805 3324.3196 21
-2116.885 1099.1947 3343.5259 21
-2090.3289 1095.6609 3332.7769 21
-2080.7354 1101.0356 3349.126 21
-2041.7642 1090.8188 3318.0483 21
-2044.9701 1103.1556 3355.5745 21
-2030.3749 1106.0378 3364.3413 21
-2010.1223 1105.8645 3363.8145 21
-1996.9409 1109.6172 3375.229 21
-1976.9454 1109.621 3375.2407 21
-1961.4163 1112.1572 3382.9556 21
-1943.97 1113.6478 3387.4897 21
-1925.6543 1114.6663 3390.5874 21
-1911.7251 1118.272 3401.5552 21
-1896.0604 1120.9285 3409.636 21
-1875.5269 1120.733 3409.0413 21
-1863.4398 1125.6353 3423.9531 21
-1845.39 1127.0042 3428.1167 21
-1839.2086 1135.7323 3454.666 21
-1821.6155 1137.5308 3460.1365 21
-1807.2454 1141.4056 3471.9231 21
-1791.1923 1144.2946 3480.7107 21
-1771.5427 1144.9266 3482.6333 21
-1765.2837 1154.3297 3511.2356 21
-1748.8081 1157.1967 3519.9563 21
-1728.5869 1157.6245 3521.2578 21
-1712.9154 1161.147 3531.9722 21
-1694.8063 1163.0835 3537.8628 21
-1682.271 1168.9419 3555.6826 21
-1664.624 1171.3518 3563.0132 21
-1649.1472 1175.3704 3575.2368 21
-1628.1357 1175.4974 3575.6235 21
-1497.7157 1095.5946 3332.5752 21
-1482.3934 1098.8765 3342.5579 21
-1464.4481 1100.2764 3346.8164 21
-1449.8453 1104.2606 3358.9358 21
-1432.1383 1105.9586 3364.1006 21
-1417.4976 1110.1058 3376.7156 21
-1398.8549 1111.193 3380.0222 21
-1378.6233 1111.0311 3379.5298 21
-1362.3324 1114.0869 3388.8254 21
-1342.7146 1114.473 3389.9995 21
-1326.8064 1117.9967 3400.7178 21
-1310.3511 1121.1608 3410.3423 21
-1290.6449 1121.599 3411.6753 21
-1273.5334 1124.3419 3420.0188 21
-1256.5837 1127.3186 3429.0732 21
-1241.4082 1132.0111 3443.3467 21
-1222.6163 1133.5074 3447.8984 21
-1191.1925 1123.1445 3416.3767 21
-1186.6355 1138.1931 3462.1514 20
-1166.2679 1138.3395 3462.5964 21
-1144.4606 1137.0605 3458.7063 21
-1128.6102 1141.7612 3473.0049 21
-1111.6324 1145.4751 3484.3015 21
-1090.6125 1145.0853 3483.116 21
-1071.3232 1146.5327 3487.5186 21
-1052.3561 1148.3885 3493.1636 21
-1032.7992 1149.6624 3497.0383 21
-1015.6202 1153.6895 3509.2878 21
-998.71973 1158.208 3523.0325 21
-972.34924 1151.7026 3503.2446 21
-1011.3878 1224.0776 3723.3945 21
-992.73792 1228.304 3736.2502 21
-971.64008 1229.6251 3740.269 21
-950.12775 1230.4712 3742.8423 21
-930.86163 1234.3362 3754.5991 21
-908.94897 1234.7953 3755.9954 21
-888.578 1237.4242 3763.9922 21
-869.05304 1241.3972 3776.0771 21
-846.99921 1241.8723 3777.5222 21
-824.7984 1242.1517 3778.3723 21
-802.59521 1242.4431 3779.2585 21
-781.64075 1244.74 3786.2451 21
-759.28174 1244.8695 3786.6392 21
-737.08313 1245.2782 3787.8821 21
-715.31049 1246.4546 3791.4607 21
-693.97742 1248.4982 3797.677 21
-673.7262 1252.6903 3810.4282 21
-650.71429 1251.8621 3807.9092 21
-628.13873 1251.844 3807.8542 21
-606.06323 1252.8583 3810.9395 21
-583.34271 1252.5662 3810.0508 21
-561.09601 1253.3086 3812.3093 21
-538.82544 1254.0581 3814.5889 21
-517.6861 1257.6213 3825.4275 21
-495.22073 1258.142 3827.011 21
-473.16525 1259.8038 3832.0664 21
-452.5285 1265.6012 3849.7007 21
-431.46158 1270.7472 3865.3535 21
-404.49985 1258.1353 3826.9907 21
-381.94016 1258.5302 3828.1921 21
-358.55563 1256.0856 3820.7561 21
-336.02417 1256.5013 3822.0205 21
-312.85361 1254.4144 3815.6729 21
-290.1882 1254.1857 3814.9768 21
-268.61026 1259.0155 3829.6682 21
-244.57919 1252.1772 3808.8679 21
-222.67223 1255.9292 3820.2805 21
-200.07558 1256.2002 3821.1047 21
-177.27618 1255.1047 3817.7727 21
-153.89214 1248.9441 3799.033 21
-130.41048 1239.7439 3771.0481 21
-108.07985 1239.9435 3771.6553 21
-85.547256 1237.3262 3763.6938 21
-63.458347 1241.5433 3776.5215 21
-40.571381 1226.2349 3729.9565 21
-18.491352 1227.861 3734.9026 21
3.6449862 1228.7069 3737.4758 21
25.695974 1224.0343 3723.2627 21
47.491051 1217.1206 3702.2324 21
69.363319 1215.9294 3698.6091 19
91.269814 1215.7661 3698.1125 19
113.00364 1213.8114 3692.1667 19
134.92545 1214.1826 3693.2957 19
155.54167 1204.3412 3663.3601 19
176.7849 1201.1705 3653.7158 19
197.26445 1194.0693 3632.1155 19
218.25574 1191.1583 3623.2605 19
239.88962 1191.9615 3625.7039 19
260.66733 1188.7285 3615.8694 19
281.27603 1185.2742 3605.3621 19
302.10287 1183.162 3598.9375 19
321.38092 1175.6627 3576.1262 19
343.71078 1179.5647 3587.9951 19
364.63077 1178.4553 3584.6208 19
385.92154 1178.6005 3585.0623 19
406.82513 1177.6097 3582.0488 19
424.92883 1169.0146 3555.9041 19
448.95126 1176.7452 3579.4192 19
470.29715 1177.0793 3580.4353 19
491.6561 1177.4159 3581.459 19
508.88226 1168.2371 3553.5386 19
530.21765 1168.8462 3555.3918 19
550.23077 1166.6053 3548.5754 19
530.69617 1083.7667 3296.5972 19
550.03998 1083.3876 3295.4441 19
567.41473 1079.2889 3282.9768 19
581.98932 1070.3125 3255.6721 19
598.82648 1065.9396 3242.3706 19
615.18665 1061.0159 3227.3938 19
634.31458 1061.0187 3227.4023 19
657.33838 1067.3472 3246.6526 19
668.48462 1054.5781 3207.8118 19
684.29401 1049.6683 3192.8772 19
705.29376 1052.7703 3202.3125 19
727.08838 1056.865 3214.7676 19
743.59613 1053.2621 3203.8083 18
765.29895 1057.0138 3215.2205 18
782.68701 1054.7687 3208.3911 18
803.32489 1056.9056 3214.8914 18
815.88995 1048.5686 3189.5317 18
826.17896 1037.75 3156.624 15
774.64526 951.47565 2894.1948 16
789.49438 948.70886 2885.7788 16
809.97522 952.68323 2897.8682 65548
813.19452 936.61133 2848.9807 196615
828.76483 935.12939 2844.4729 1247497
837.24353 925.86444 2816.2908 3680801
850.28308 921.90643 2804.2515 6509122
870.63757 925.87939 2816.3364 7824466
883.67737 922.07043 2804.7502 8482651
899.96289 921.72626 2803.7034 7627341
917.76135 922.91602 2807.3223 7363400
936.65826 925.14844 2814.1128 9074018
953.83069 925.62915 2815.575 8086866
970.79169 925.89172 2816.3738 9139554
987.33844 925.75702 2815.9639 9008481
1005.6915 927.2923 2820.6338 8811615
1025.7831 930.35406 2829.9473 8350809
1044.731 932.29675 2835.8567 7889744
1058.9835 930.05432 2829.0356 8416090
1076.3749 930.59546 2830.6816 8547676
1093.5641 930.94781 2831.7534 8153432
1112.276 932.56641 2836.6768 8153432
1127.3041 931.09406 2832.198 8152918
1145.3298 932.10443 2835.2715 8087636
1153.5968 925.25836 2814.4473 7890258
1173.4202 927.74445 2822.0093 7956307
1182.4268 921.72864 2803.7104 8350294
1193.8165 917.71161 2791.4915 8547674
1210.5477 917.85443 2791.9258 8152916
1232.4919 921.89258 2804.209 8021330
1239.7281 914.96808 2783.1462 8547674
1251.8623 911.79303 2773.4883 8416089
1267.8959 911.50348 2772.6077 8218709
1285.9615 912.66351 2776.1362 8152916
1297.4619 909.19379 2765.582 8152916
1317.5874 911.77911 2773.446 7955280
1336.4847 913.46143 2778.5632 8152659
1344.8518 907.9931 2761.9297 8152660
1365.2903 910.70831 2770.189 8679003
1380.2661 909.75854 2767.3 8481624
1396.2589 909.49365 2766.4941 8481883
1414.5874 910.73853 2770.2808 8152918
1431.0315 910.75562 2770.3328 8218454
1446.5217 910.17206 2768.5579 7757903
1458.2803 907.28003 2759.7607 7099973
1472.5748 906.01233 2755.9048 7428938
1492.5081 908.20367 2762.5703 7889488
1521.7312 915.93915 2786.0999 7823951
1534.019 913.42438 2778.4507 8087123
1565.0854 922.02606 2804.6152 8810333
1594.1497 929.27979 2826.6794 8547674
1601.2445 923.70911 2809.7346 6179125
1639.6467 936.1275 2847.509 7429192
1643.1526 928.57245 2824.5278 7955537
1631.4578 912.66626 2776.1445 7363656
1654.6256 916.38562 2787.4583 7692878
1675.7251 918.8974 2795.0984 7757901
1680.8376 912.67908 2776.1836 7560779
1697.6603 912.87836 2776.7896 6968642
1713.3075 912.44757 2775.4795 6902849
1728.1915 911.62262 2772.97 7166020
1748.4896 913.64209 2779.1128 7166021
1774.5386 918.60101 2794.1968 7626575
1777.8959 911.83014 2773.6013 7758160
1779.7281 904.40845 2751.0261 7955028
1796.2374 904.51227 2751.3418 7889491
1820.7921 908.62903 2763.8643 7165769
1828.8892 904.5329 2751.4045 9139559
1844.1305 904.01123 2749.8179 8942181
1865.4838 906.46869 2757.2927 7889492
1882.8812 906.97797 2758.8418 8218457
1902.3978 908.49023 2763.4421 8415580
1915.5345 906.9563 2758.7759 7955286
1942.0546 911.73114 2773.3003 7692114
1952.8864 909.12268 2765.3657 7692883
1943.1259 897.05096 2728.6462 8087641
1963.4254 898.94147 2734.3965 7956056
1990.8949 904.05676 2749.9563 8877158
2011.5192 906.00598 2755.8853 7890265
2031.6498 907.70306 2761.0476 7890006
2064.2153 914.88446 2782.8918 8285022
2078.9702 914.12073 2780.5686 8021848
2111.5181 921.13086 2801.8921 7363918
2126.5737 920.46045 2799.853 6375997
2129.5942 914.63135 2782.1221 7823953
2136.3923 910.50189 2769.561 4535075
2140.335 905.22778 2753.5183 8284502
2150.7197 902.73749 2745.9431 5126700
2166.8687 902.68573 2745.7856 5850419
2165.9343 895.57117 2724.1448 3349778
2157.3198 885.40979 2693.2358 4468255
2151.8921 876.69604 2666.7305 3942424
2147.9922 868.72711 2642.4907 6047543
2193.4797 880.70319 2678.9194 6837827
2213.6995 882.43475 2684.1865 7166021
2228.9297 882.16693 2683.3718 7166790
2249.6726 884.06927 2689.1582 7626828
2263.1399 883.10571 2686.2273 7297349
2304.2622 892.87164 2715.9333 6902847
2306.1904 887.42004 2699.3508 6771004
2340.4641 894.40454 2720.5962 7757643
2355.2686 893.90417 2719.0742 9204834
2354.949 887.70959 2700.2314 7954768
2385.4829 893.15033 2716.7812 8020817
2394.3 890.44177 2708.5422 7823438
2427.9443 896.9411 2728.3118 7560267
2425.4641 890.09729 2707.4944 7494732
2433.8799 887.31586 2699.0339 7034437
2442.9175 884.79596 2691.3689 7757903
2461.2085 885.63849 2693.9316 7494731
2464.1797 880.99298 2679.801 7823952
2480.3657 881.10132 2680.1306 7692367
2489.8503 878.8429 2673.2607 7758932
2512.7239 881.30902 2680.7622 8613726
2528.2893 881.19708 2680.4216 7627086
2564.4009 888.20276 2701.7317 8350553
2602.1558 895.68719 2724.4978 7890259
0 0 0 0
0 0 0 0
0 0 0 0
0 0 0 0
0 0 0 0
0 0 0 0
0 0 0 0
0 0 0 0
-2700.4558 1017.8275 3041.2019 19
-2686.4028 1019.3339 3045.7029 19
-2547.8928 973.31683 2908.207 19
-2542.3811 977.82574 2921.6792 19
-2533.7 981.16895 2931.6685 18
-2520.7197 982.8819 2936.7869 18
-2501.9382 982.34113 2935.1709 19
-2483.6541 981.98944 2934.1201 21
-2455.3835 977.65637 2921.1733 21
-2440.5183 978.63733 2924.1042 21
-2425.5449 979.58862 2926.9465 21
-2410.5391 980.54041 2929.7905 21
-2396.0769 981.72882 2933.3413 21
-2365.7019 976.36707 2917.3208 21
-2349.1123 976.65771 2918.1892 21
-2339.4521 979.85492 2927.7424 23
-2315.7605 977.17902 2919.7471 23
-2303.6689 979.39478 2926.3674 23
-2288.324 980.25037 2928.9241 23
-2270.4385 980.0224 2928.2427 23
-2274.05 989.14154 2955.4902 22
-2234.9072 979.66101 2927.1631 22
-2222.5938 981.88464 2933.8071 22
-2209.2644 983.6911 2939.2046 21
-2193.5725 984.46594 2941.5198 21
-2178.0105 985.31183 2944.0474 21
-2199.6985 1003.1592 2997.374 21
-2213.5154 1017.6784 3040.7563 21
-2179.9116 1010.4548 3019.1729 21
-2113.4111 987.73706 2951.2937 21
-2118.0349 998.15851 2982.4321 21
-2136.335 1015.2548 3033.5149 21
-2118.302 1015.2281 3033.4351 22
-2111.467 1020.6136 3049.5269 22
-2090.1355 1019.0245 3044.7786 22
-2079.5391 1022.6872 3055.7222 23
-2066.459 1025.1819 3063.1765 23
-2050.0322 1026.0459 3065.7581 23
-2044.2789 1032.3153 3084.4905 21
-2018.5308 1028.5096 3073.1196 21
-2146.229 1103.5327 3297.2837 21
-2122.3423 1101.2776 3290.5452 21
-2126.0178 1113.415 3326.8113 21
-2104.5862 1112.5077 3324.1001 21
-2079.8997 1109.8464 3316.1487 21
-2063.1267 1111.3976 3320.7832 21
-2047.3711 1113.5319 3327.1602 21
-2041.574 1121.1765 3350.002 21
-2009.3894 1114.3378 3329.5684 21
-2000.8704 1120.6176 3348.332 21
-1980.3534 1120.2362 3347.1926 21
-1964.9437 1122.7655 3354.75 21
-1953.3616 1127.5559 3369.0635 21
-1933.4152 1127.5673 3369.0972 21
-1911.2332 1126.2615 3365.1956 19
-1899.6622 1131.2469 3380.0918 20
-1888.2144 1136.4127 3395.5266 21
-1873.9536 1139.9786 3406.1816 21
-1864.4337 1146.5376 3425.7793 21
-1849.8961 1150.1215 3436.4875 21
-1826.0698 1147.9457 3429.9866 21
-1809.5629 1150.3741 3437.2427 21
-1795.677 1154.543 3449.699 21
-1757.8478 1143.2362 3415.9148 21
-1726.9186 1136.2056 3394.9077 21
-1713.1173 1140.4111 3407.4739 21
-1639.1639 1104.1965 3299.2671 21
-1598.4229 1089.7507 3256.1038 21
-1578.2205 1089.1255 3254.2356 21
-1565.0277 1093.382 3266.9539 21
-1565.5381 1107.4385 3308.9536 21
-1528.7711 1095.1476 3272.2295 21
-1521.3472 1103.8311 3298.175 21
-1502.7228 1104.5083 3300.1982 21
-1484.5704 1105.5548 3303.3254 21
-1463.1921 1104.1948 3299.262 18
-1449.4066 1108.6055 3312.4407 18
-1431.5781 1110.0026 3316.615 19
-1412.1919 1110.2139 3317.2463 21
-1393.5306 1111.009 3319.6223 21
-1380.8491 1116.6628 3336.5154 21
-1362.6472 1117.9517 3340.3665 21
-1342.8726 1117.9692 3340.4187 21
-1331.7646 1125.3104 3362.354 21
-1313.026 1126.329 3365.3972 21
-1295.2727 1128.2373 3371.0991 21
-1276.8204 1129.587 3375.1318 21
-1255.1909 1128.1239 3370.7605 21
-1237.3624 1130.0852 3376.6204 21
-1218.2521 1130.9208 3379.1172 21
-1200.7612 1133.313 3386.2649 21
-1184.8672 1137.3191 3398.2351 21
-1162.526 1135.1685 3391.8091 20
-1144.0162 1136.7493 3396.5325 20
-1128.7517 1141.6689 3411.2322 21
-1109.5168 1142.6791 3414.2502 21
-1089.0551 1142.4396 3413.5347 21
-1071.9249 1145.7523 3423.4329 21
-1055.7874 1150.274 3436.9436 21
-1035.4778 1150.3392 3437.1382 21
-1017.0649 1152.5563 3443.7625 21
-996.41254 1152.274 3442.9197 21
-976.56079 1152.9253 3444.8655 21
-961.61743 1159.5232 3464.5793 21
-1003.0258 1235.8405 3692.6104 21
-980.45862 1234.979 3690.0364 21
-959.11603 1235.6559 3692.0586 21
-943.7887 1244.2948 3717.8713 21
-916.78583 1237.5857 3697.825 21
-892.68524 1234.5618 3688.7898 21
-870.00623 1233.4015 3685.3228 21
-849.44293 1235.2581 3690.8701 21
-832.04163 1241.9325 3710.813 21
-809.74695 1241.467 3709.4221 21
-791.19226 1246.8695 3725.5645 21
-771.59003 1250.884 3737.5593 21
-747.98499 1248.4548 3730.301 21
-727.58954 1251.3976 3739.0942 21
-708.08093 1256.0988 3753.1409 21
-688.7464 1261.4235 3769.0508 21
-668.87439 1266.088 3782.9878 21
-645.87976 1264.9602 3779.6182 21
-620.69769 1259.3132 3762.7456 21
-599.06232 1260.7096 3766.9175 21
-577.78516 1262.9968 3773.752 21
-553.96716 1259.6907 3763.8733 21
-534.22101 1265.7548 3781.9924 21
-511.97189 1266.1597 3783.2024 21
-489.34192 1265.6169 3781.5803 21
-466.71619 1265.0333 3779.8367 21
-450.67361 1283.1342 3833.9209 21
-428.77982 1285.6133 3841.3281 21
-401.83008 1272.3612 3801.7319 21
-377.88715 1267.6211 3787.5688 21
-355.45853 1267.6829 3787.7534 21
-332.25436 1264.8007 3779.1416 21
-311.57785 1271.8193 3800.113 21
-289.02899 1271.6936 3799.7373 21
-265.81989 1268.3961 3789.8845 21
-243.51566 1269.2063 3792.3052 21
-221.03098 1269.145 3792.1223 21
-197.4032 1261.7634 3770.0667 21
-173.60031 1251.2357 3738.6101 21
-151.0936 1248.3363 3729.9473 21
-129.30391 1251.3827 3739.0496 21
-106.98171 1249.4697 3733.3337 21
-84.835938 1249.157 3732.3992 21
-62.241142 1239.6802 3704.0833 21
-40.186581 1236.4995 3694.5796 21
-18.289118 1236.324 3694.0552 21
3.588439 1231.4506 3679.4937 21
25.572521 1240.1124 3705.3748 21
47.195633 1231.3533 3679.2026 21
68.874016 1229.1161 3672.5183 21
91.010406 1234.1642 3687.6018 21
111.34994 1217.6089 3638.1355 21
133.14981 1219.803 3644.6917 21
154.9619 1221.481 3649.7051 20
174.06857 1204.0344 3597.5759 19
195.25058 1203.1842 3595.0354 19
216.28639 1201.6888 3590.5674 19
237.53525 1201.5389 3590.1199 20
257.39291 1194.9552 3570.448 21
279.20795 1197.7683 3578.8535 21
277.9903 1108.3527 3311.6853 21
297.44672 1107.7222 3309.8013 21
339.55197 1186.2982 3544.5813 21
361.72122 1190.1256 3556.0173 19
383.12103 1191.1394 3559.0466 19
403.69037 1189.6002 3554.4478 19
424.69162 1189.4235 3553.9192 19
444.80249 1186.8872 3546.3416 19
466.02097 1187.4023 3547.8804 19
485.38617 1183.3546 3535.7859 19
505.67502 1181.8004 3531.1423 19
526.64526 1181.899 3531.437 19
545.95789 1178.4124 3521.0188 19
537.31714 1117.0679 3337.7256 19
544.80072 1092.4115 3264.054 19
562.21466 1088.675 3252.8899 19
575.53876 1077.5295 3219.5876 19
593.83978 1076.1178 3215.3696 19
611.0177 1072.8221 3205.5222 19
628.61536 1070.4401 3198.4048 19
652.43652 1078.4847 3222.4419 19
670.01385 1076.0444 3215.1501 19
685.54456 1070.5428 3198.7119 19
698.16711 1060.9185 3169.9548 19
721.35614 1067.4341 3189.4231 19
739.07196 1065.7249 3184.3159 18
757.4447 1065.0243 3182.2229 18
769.52301 1055.7223 3154.4292 18
786.51599 1053.4443 3147.6226 18
799.4165 1045.9175 3125.1328 18
754.19446 964.40851 2881.5894 15
764.13239 955.48181 2854.917 15
778.64868 952.54266 2846.135 15
808.89258 968.5603 2893.9946 65549
799.70905 937.68286 2801.7351 196620
812.75006 933.59052 2789.5073 196614
820.13855 923.29779 2758.7534 787205
843.08594 930.58112 2780.5154 2627344
863.39398 934.7276 2792.905 6377278
864.88452 918.72919 2745.1025 7495754
882.40131 920.03107 2748.9927 7692621
897.20709 918.51056 2744.4495 5850161
919.27917 924.35046 2761.8987 8613467
937.29108 925.97491 2766.7524 8613467
955.61871 927.8501 2772.3552 8547417
969.97955 925.87543 2766.4551 9073761
987.42151 926.85852 2769.3926 8943202
1006.7385 929.54071 2777.4067 8745566
1030.3632 936.04993 2796.856 8482651
1038.5859 928.5827 2774.5444 8351068
1054.7759 928.36035 2773.8799 8153433
1070.9558 928.13611 2773.21 8021847
1087.6047 928.31909 2773.7566 8021846
1102.8827 927.34375 2770.8425 8087638
1133.1805 938.84106 2805.1956 7363913
1134.2853 926.16907 2767.3325 7758927
1148.0896 924.07996 2761.0906 8021330
1166.0996 925.38721 2764.9963 7955537
1179.7175 923.22095 2758.5237 8021328
1194.6807 922.1524 2755.3311 8020815
1212.4927 923.28186 2758.7058 6244661
1230.2646 924.35132 2761.9011 7955024
1241.4929 920.54053 2750.5149 7757646
1251.1721 915.69489 2736.0364 7954767
1266.2015 914.83881 2733.4785 7889231
1281.7988 914.4093 2732.1953 7954767
1300.3323 916.0592 2737.125 8283989
1317.2875 916.57025 2738.6519 7231301
1337.6815 919.43243 2747.2039 7757646
1344.1447 912.76575 2727.2842 7428680
1364.6096 915.65271 2735.9104 8020817
1389.7349 921.56226 2753.5676 7560268
1401.3406 918.47357 2744.3389 7758160
1413.9596 916.11218 2737.2832 8021332
1423.061 911.55133 2723.6555 7823696
1443.3717 914.19226 2731.5466 7692367
1458.0365 913.23846 2728.6965 8218709
1480.3414 917.03827 2740.0503 8087123
1496.4368 916.95087 2739.7891 8416088
1519.25 920.93744 2751.7007 8021329
1536.3475 921.4115 2753.1172 7758157
1546.8947 917.98822 2742.8887 8152660
1571.3805 922.82196 2757.3315 8613468
1590.2306 924.28064 2761.6899 8152916
1608.8073 925.55231 2765.4895 7231813
1615.9478 920.28528 2749.7522 7429192
1635.2926 922.00439 2754.8889 7297350
1646.8278 919.32996 2746.8977 7494986
1653.5814 914.0647 2731.1655 7692365
1675.6448 917.28235 2740.7795 7757901
1695.9796 919.50116 2747.4092 7560522
1708.2097 917.32532 2740.908 7100228
1723.9512 917.05841 2740.1106 7297350
1734.1206 913.86011 2730.5542 7429193
1759.3536 918.58594 2744.6746 7692367
1757.0551 908.98206 2715.9788 7692366
1758.4701 901.4563 2693.4924 7034182
1762.5374 895.41339 2675.4365 8152662
1809.0647 910.85675 2721.5803 8481629
1815.55 906.04431 2707.2009 8481628
1841.4233 910.90686 2721.73 8152664
1869.5361 916.78326 2739.2883 7626321
1867.4717 907.88733 2712.708 8152664
1878.1549 905.28802 2704.9414 8152664
1915.9038 915.66809 2735.9563 8152407
1925.855 912.70007 2727.0881 7758676
1934.2589 909.05432 2716.1948 7824468
1942.5436 905.41315 2705.3152 7824470
1962.8625 907.39484 2711.2363 8153435
1982.9462 909.23639 2716.7388 7363666
1994.3868 907.11719 2710.4067 7890263
2024.8478 913.61371 2729.8181 8942951
2034.5299 910.7063 2721.1309 8087641
2053.0476 911.76843 2724.3044 8482143
2105.2439 927.65424 2771.77 7955285
2111.5598 923.23364 2758.5618 6310456
2122.1558 920.73822 2751.1055 6244920
2145.301 923.68384 2759.907 6113334
2146.0203 917.00232 2739.9429 4994598
2161.4448 916.65759 2738.9128 4862757
2160.2205 909.30981 2716.9583 6244922
2173.5212 908.13977 2713.4622 5784370
2164.3003 897.64594 2682.1072 7231816
2161.3354 889.88092 2658.906 6113335
2183.2439 892.3952 2666.4185 7034437
2193.3164 890.07019 2659.4714 6968645
2220.6616 894.73779 2673.418 6902848
2246.1792 898.60809 2684.9822 7758158
2242.5413 890.8421 2661.7778 8218709
2256.7075 890.20776 2659.8826 8284502
2297.5569 900.03503 2689.2456 8350039
2330.3298 906.58478 2708.8159 6902336
2342.3201 905.01501 2704.1255 6573372
2328.5576 893.58398 2669.9705 7100229
2358.3582 898.91174 2685.8894 7231305
2374.4385 898.97351 2686.074 7362890
2404.8413 904.42096 2702.3506 4204827
2386.719 891.66748 2664.2441 6573117
2411.1899 894.88977 2673.8721 6573115
2440.4902 899.85059 2688.6946 7099973
2451.8723 898.18329 2683.7126 7166023
2441.5269 888.62927 2655.166 7363402
2452.2505 886.81696 2649.751 7626574
2465.4133 885.90417 2647.0237 7759187
2461.9541 879.06787 2626.5972 7956309
2506.3171 889.28571 2657.1274 7890002
2521.3296 889.02679 2656.3538 7626319
2574.3093 902.07532 2695.342 6902597
0 0 0 0
0 0 0 0
0 0 0 0
0 0 0 0
0 0 0 0
0 0 0 0
0 0 0 0
0 0 0 0
-2547.0583 977.00958 2868.4487 22
-2537.1289 979.73962 2876.4639 21
-2519.6548 979.57343 2875.9758 21
-2620.2488 1025.6191 3011.1638 20
-2500.3882 985.41437 2893.1245 19
-2459.3975 975.95178 2865.343 18
-2443.9419 976.56116 2867.1321 19
-2462.5422 990.88269 2909.1792 20
-2445.0415 990.7771 2908.8694 21
-2429.4297 991.44092 2910.8184 21
-2413.7271 992.07697 2912.6858 21
-2392.5427 990.45294 2907.9175 21
-2377.9285 991.54492 2911.1235 21
-2359.5823 991.08521 2909.7739 20
-2341.1653 990.58887 2908.3167 22
-2324.635 990.8894 2909.1992 22
-2306.3193 990.42773 2907.8438 22
-2291.5752 991.50439 2911.0046 21
-2271.2915 990.18225 2907.123 21
-2253.4575 989.91632 2906.342 21
-2234.3184 989.06824 2903.8523 20
-2217.3835 989.19055 2904.2112 21
-2207.9724 992.69739 2914.5071 21
-2190.4429 992.58069 2914.1646 20
-2173.4666 992.71472 2914.5581 21
-2159.175 994.0871 2918.5874 21
-2145.282 995.66663 2923.2246 21
-2184.8962 1022.3077 3001.4417 21
-2133.2334 1006.3272 2954.5237 21
-2106.7888 1002.0771 2942.0457 21
-2143.5066 1028.0496 3018.2993 21
-2125.8738 1028.1725 3018.6604 21
-2119.7925 1033.9319 3035.5696 23
-2101.9639 1034.0109 3035.8015 22
-2185.1216 1084.1981 3183.1484 23
-2088.1082 1045.0848 3068.314 21
-2061.4509 1040.8065 3055.7532 21
-2053.7256 1046.0956 3071.2817 21
-2028.5662 1042.5195 3060.7825 21
-2140.8142 1110.1326 3259.2905 21
-2000.3979 1046.7631 3073.2412 21
-2102.9509 1110.5376 3260.48 21
-2085.8203 1111.7058 3263.9097 21
-2049.5024 1102.5736 3237.0981 21
-2070.8025 1124.5583 3301.6443 21
-2056.26 1127.3127 3309.7307 21
-2037.3644 1127.7104 3310.8984 21
-2024.0837 1131.254 3321.3022 21
-2006.6732 1132.5365 3325.0674 21
-1977.9635 1127.4041 3309.9988 21
-1847.4125 1063.5396 3122.4961 21
-1941.564 1129.0509 3314.8337 21
-1891.8217 1111.3695 3262.9224 21
-1913.9681 1135.991 3335.2097 21
-1895.0022 1136.4703 3336.6169 19
-1887.5021 1143.9086 3358.4551 19
-1873.8705 1147.7498 3369.7327 20
-1860.9089 1152.0885 3382.4709 20
-1840.5457 1151.8894 3381.8867 21
-1817.0857 1149.7267 3375.5369 21
-1805.589 1155.1694 3391.5166 21
-1788.3424 1157.0148 3396.9346 21
-1773.4893 1160.4684 3407.074 21
-1645.5352 1089.1423 3197.6646 21
-1736.3372 1162.631 3413.4233 21
-1705.7297 1155.5997 3392.7798 21
-1699.9978 1165.4541 3421.7119 21
-1682.9132 1167.6698 3428.217 21
-1675.6125 1176.8109 3455.0549 21
-1653.4127 1175.5848 3451.4553 21
-1631.0842 1174.2354 3447.4932 21
-1603.948 1169.3467 3433.1401 21
-1502.6621 1109.5796 3257.6672 19
-1495.3909 1118.5815 3284.0964 19
-1472.0645 1115.653 3275.4983 19
-1455.2802 1117.6705 3281.4219 19
-1434.3127 1116.4866 3277.9456 19
-1416.3489 1117.6401 3281.3325 19
-1401.5598 1121.3661 3292.2715 19
-1383.9669 1122.9221 3296.8401 19
-1361.9323 1120.8671 3290.8069 19
-1344.5474 1122.6348 3295.9966 21
-1328.1096 1125.2572 3303.6956 21
-1312.7026 1128.8444 3314.2275 21
-1294.4246 1130.0341 3317.7205 21
-1277.8633 1132.7822 3325.7888 21
-1259.4543 1133.953 3329.2263 21
-1239.1583 1133.4351 3327.7056 21
-1215.3013 1129.5905 3316.418 21
-1188.8628 1123.1807 3297.5991 21
-1198.0496 1150.7761 3378.6179 21
-1180.8453 1153.5291 3386.7007 21
-1162.0731 1154.8191 3390.4878 21
-1141.2981 1154.1292 3388.4622 20
-1120.8375 1153.738 3387.3142 21
-1102.0088 1155.0432 3391.146 21
-1082.5187 1155.6908 3393.0474 23
-1061.9442 1155.1833 3391.5574 23
-1043.9288 1157.4937 3398.3403 21
-1027.1682 1161.3136 3409.5557 20
-1009.1822 1163.8735 3417.0713 21
-991.05731 1166.375 3424.4155 21
-971.49878 1167.2583 3427.009 20
-1011.6042 1241.3966 3644.675 19
-985.27045 1235.4597 3627.2446 19
-916.82196 1175.2711 3450.5342 21
-898.08533 1177.5159 3457.1245 21
-928.75214 1246.1523 3658.6377 21
-907.32538 1246.5028 3659.6665 21
-884.30109 1244.6219 3654.1445 21
-862.33868 1244.1787 3652.843 21
-843.09784 1247.7405 3663.3003 21
-820.37061 1246.1946 3658.7615 21
-801.53644 1250.6389 3671.8101 21
-780.55823 1251.8926 3675.4907 21
-763.17615 1259.1516 3696.8027 21
-744.40619 1264.4822 3712.4529 21
-720.61908 1261.3555 3703.2729 21
-697.52197 1259.278 3697.1736 21
-674.30707 1256.8462 3690.0342 21
-657.84827 1267.2661 3720.6267 21
-636.79498 1269.2512 3726.4548 21
-615.96191 1271.8337 3734.0366 21
-594.49756 1273.2566 3738.2141 21
-571.21771 1270.7507 3730.8574 21
-550.40491 1273.7524 3739.6702 21
-527.64557 1272.3123 3735.4417 21
-501.2056 1261.4821 3703.645 21
-483.05408 1271.4767 3732.9883 21
-464.7543 1282.0216 3763.9478 21
-443.46033 1284.954 3772.5571 21
-418.76053 1277.8051 3751.5681 21
-398.41199 1283.8763 3769.3933 21
-373.61594 1275.4856 3744.7583 21
-350.58289 1272.434 3735.7988 21
-326.87558 1266.3586 3717.9622 21
-304.95844 1266.8417 3719.3804 21
-283.3985 1268.9996 3725.7158 21
-262.05151 1272.556 3736.1575 21
-239.96487 1272.8459 3737.0085 21
-216.93953 1267.7091 3721.9272 21
-195.49751 1271.7092 3733.6714 21
-173.14714 1270.0674 3728.8508 21
-150.30295 1263.7927 3710.429 21
-127.48225 1255.5992 3686.373 21
-106.17873 1262.0499 3705.3123 21
-83.295998 1248.1998 3664.6487 21
-61.662525 1249.9028 3669.6487 21
-39.782303 1245.7349 3657.4119 21
-18.077055 1243.6266 3651.2222 21
3.5556462 1241.8032 3645.8689 21
25.149607 1241.1995 3644.0962 21
46.442707 1233.1649 3620.5073 21
67.624023 1228.1781 3605.866 21
88.814575 1225.7135 3598.6301 21
110.00287 1224.1781 3594.1226 21
131.24591 1223.6515 3592.5762 21
152.42545 1222.7623 3589.9658 21
173.73618 1223.0145 3590.7063 21
194.29388 1218.4893 3577.4202 21
215.13313 1216.4464 3571.4224 21
236.30298 1216.4712 3571.4954 20
256.99927 1214.2545 3564.9873 19
277.63577 1212.1136 3558.7019 19
294.46777 1194.8379 3507.981 20
319.23575 1209.9182 3552.2561 20
337.27457 1199.2065 3520.8074 19
356.52527 1193.801 3504.937 19
378.22974 1196.7546 3513.6086 19
399.84985 1199.147 3520.6323 19
419.28339 1195.0697 3508.6616 19
441.36325 1198.5641 3518.9209 19
460.56067 1194.2687 3506.3101 19
477.47421 1184.6777 3478.1514 19
501.60217 1193.0397 3502.7017 19
519.33344 1186.1274 3482.4075 19
539.70483 1185.5427 3480.6912 19
550.67389 1165.1079 3420.6956 19
569.35553 1161.863 3411.1687 19
588.33417 1159.426 3404.0137 19
572.50763 1090.834 3202.6311 19
587.93597 1084.2849 3183.4033 19
607.27979 1085.1394 3185.9124 19
628.09668 1088.4956 3195.7656 19
647.52716 1089.3228 3198.1941 19
666.64191 1089.5867 3198.9692 19
674.47388 1071.9052 3147.0571 19
692.51251 1070.9595 3144.2805 19
713.25555 1074.1361 3153.6069 19
728.48846 1069.0643 3138.7166 18
738.96906 1057.4447 3104.6018 18
756.17609 1055.7811 3099.7175 18
773.75146 1054.6985 3096.5393 18
792.48511 1055.2083 3098.0359 18
743.49963 967.56757 2840.7273 18
760.51221 967.7937 2841.3914 18
775.43195 965.40466 2834.3772 18
805.12128 981.11499 2880.502 15
789.95312 942.64484 2767.5557 65549
800.45953 935.75397 2747.3242 12
820.05865 939.55518 2758.4846 131079
826.77704 928.73871 2726.728 919045
838.52795 923.88184 2712.4683 3615011
864.71106 934.80975 2744.5522 7167052
875.65845 929.16748 2727.9866 7034947
893.97943 931.41193 2734.5764 8350293
914.81897 936.15381 2748.4983 8021330
923.27197 928.27612 2725.3699 8876639
940.65808 929.49652 2728.9529 8876382
955.52112 928.22461 2725.2185 9074018
972.97827 929.47314 2728.884 8942432
995.16943 935.12921 2745.49 8613467
1007.3154 931.31598 2734.2947 7889487
1020.8348 928.87311 2727.1226 8284504
1041.8654 933.2345 2739.9272 8218711
1056.514 931.83331 2735.8135 8021331
1070.5304 929.92517 2730.2114 8218710
1085.7799 929.12909 2727.874 8548445
1094.5812 922.91937 2709.6426 8285271
1112.2999 924.29956 2713.6946 8351065
1132.8818 927.98566 2724.5168 8285272
1147.6224 926.85046 2721.1841 8351065
1166.3624 928.93207 2727.2957 8481881
1182.4355 928.86188 2727.0896 8021330
1197.96 928.36835 2725.6406 8679260
1219.1034 932.18445 2736.8445 7823695
