# .PCD v0.7 - Point Cloud Data file format
VERSION 0.7
FIELDS x y z rgb
SIZE 4 4 4 4
TYPE F F F U
COUNT 1 1 1 1
WIDTH 1367
HEIGHT 1
VIEWPOINT 0 0 0 1 0 0 0
POINTS 1367
DATA ascii
-48.690434 781.89764 4476.3867 21
-22.804876 804.56409 4606.1528 21
4.5382223 812.81293 4653.3774 21
32.546509 823.73077 4715.8828 21
59.651791 812.26495 4650.2402 21
87.66748 816.52484 4674.6284 21
118.27859 837.10779 4792.4668 21
145.86409 832.45276 4765.8164 21
168.44255 805.36792 4610.7549 21
192.89008 793.53308 4543 18
225.95656 815.71204 4669.9751 19
250.34915 805.15448 4609.5332 19
275.6293 799.24799 4575.7183 19
303.38565 800.93671 4585.3862 19
331.05121 802.12775 4592.2051 19
358.91058 803.5719 4600.4727 19
386.05408 803.32245 4599.0444 19
414.76257 806.14758 4615.2188 65554
444.27362 810.08667 4637.77 65554
473.14468 812.46783 4651.4019 65551
496.39743 805.47028 4611.3408 262151
539.58905 829.86829 4751.02 1181963
519.67169 759.6004 4348.7344 6048066
586.30127 816.50061 4674.4897 9204326
608.82159 809.60992 4635.0405 9466727
632.55109 804.85284 4607.8057 9466983
659.85791 804.85284 4607.8057 9532776
688.48816 806.40277 4616.6797 9928048
712.21362 802.30914 4593.2437 9796207
736.78186 799.43134 4576.7676 9073508
766.08258 801.71045 4589.8159 10126196
794.9455 803.39081 4599.4355 10060404
826.38202 807.47449 4622.8149 9863282
853.41553 807.1319 4620.8535 9534317
884.85199 810.84515 4642.1123 9534060
916.9751 814.94495 4665.5835 9599854
940.1463 811.08167 4643.4658 9402473
968.86658 812.08917 4649.2344 8744288
997.99011 813.36969 4656.5654 9139302
1026.824 814.35162 4662.1865 9270633
1054.2922 814.22742 4661.4756 9270632
1083.135 815.14386 4666.7227 9402219
1112.225 816.19623 4672.7471 9402219
1134.2095 812.10974 4649.3521 9467755
1166.0342 815.09583 4666.4473 9534061
1189.7853 812.43048 4651.1885 9665904
1211.2905 808.38715 4628.04 9468525
1239.8948 809.15552 4632.439 9468525
1269.7072 810.66199 4641.0635 9468524
1291.1356 806.8653 4619.3276 9534316
1318.9 807.10358 4620.6914 9665646
1343.8455 805.64203 4612.3242 8941923
1361.3258 799.85278 4579.1802 8942436
1392.6729 802.27789 4593.0645 9139558
1421.7233 803.31244 4598.9873 8876385
1444.5504 800.85791 4584.9346 9007971
1467.1929 798.39343 4570.8257 9073250
1494.5472 798.53595 4571.6416 9007714
1522.16 798.80902 4573.2046 9007714
1549.0619 798.70593 4572.6147 8612956
1572.1044 796.65063 4560.8481 8941921
1604.1039 799.12695 4575.0254 9270886
1635.3041 801.12958 4586.4902 8941921
1664.5828 802.14056 4592.2783 8678492
1706.1329 808.93756 4631.1909 8546906
1729.3188 806.94995 4619.812 8546906
1754.5898 805.98212 4614.271 8810334
1774.0488 802.41504 4593.8496 9139300
1807.8789 805.35785 4610.6973 9468008
1817.9185 797.77277 4567.2725 9336679
1860.337 804.41095 4605.2764 9007712
1872.7412 798.06659 4568.9546 8677978
1896.6399 796.73169 4561.312 6967614
1917.9689 794.36987 4547.791 7954764
1909.5996 779.94385 4465.2012 7954768
1944.5319 783.3562 4484.7373 8087123
1956.963 777.73419 4452.5508 7889487
1973.4518 773.85284 4430.3301 9732974
2001.6652 774.61072 4434.6689 10324853
2036.3845 777.83392 4453.1221 10522234
2106.0681 794.15906 4546.584 9535595
2102.9517 782.96692 4482.5088 9271655
2140.0996 786.85834 4504.7871 9140068
2179.9387 791.63116 4532.1113 8547932
2182.0737 782.76233 4481.3369 7626573
2233.1506 791.45227 4531.0874 7692623
2251.9888 788.64575 4515.02 7626829
2265.7129 784.13525 4489.1973 7758158
2296.3059 785.49982 4497.0093 7758158
2297.7332 776.9707 4448.1802 8152916
2318.9314 775.24475 4438.2988 8679003
2350.5332 776.99658 4448.3281 8284245
2376.3025 776.80292 4447.2197 8218196
2399.4297 775.75934 4441.2446 8349782
2439.5151 780.1615 4466.4478 7955025
2449.1118 774.82367 4435.8882 8086867
2478.0876 775.66498 4440.7046 8218196
2521.2585 780.88507 4470.5898 8152404
2529.1394 775.18024 4437.9297 8547418
2568.0098 778.99341 4459.7598 8481626
2589.6741 777.56262 4451.5688 8876384
2605.5925 774.45288 4433.7651 8481882
2594.3438 763.41101 4370.5503 7231561
2633.5151 767.2774 4392.6855 10784383
2645.2468 763.15179 4369.0664 10850178
2655.7881 758.76611 4343.958 8810082
2724.249 770.85339 4413.1582 6836547
2744.9211 769.31714 4404.3633 7363142
2770.7349 769.23743 4403.9067 6573370
2843.5295 782.08069 4477.4346 6902333
2839.2 773.67041 4429.2856 7428678
2851.3086 769.85254 4407.4282 7757900
2930.6626 784.0954 4488.9692 7889229
3018.4148 800.30878 4581.791 8086092
3088.0308 811.46722 4645.6733 9139550
3102.4187 808.04401 4626.0752 11047546
3121.1462 805.80103 4613.2344 11968391
3124.4771 799.65643 4578.0566 11771011
3148.4622 798.85846 4573.4878 13350555
3180.7156 800.15405 4580.9053 13679006
3209.6501 800.59973 4583.457 13481113
3217.5142 795.82648 4556.1294 13283994
3215.7234 788.76434 4515.6987 13481116
3258.1858 792.58386 4537.5659 12954517
3253.5796 784.98474 4494.0605 11704965
3260.9688 780.37958 4467.6958 9336161
3273.8899 777.16174 4449.2734 9205091
3321.9548 782.27118 4478.5254 8876126
3339.2312 780.10687 4466.1348 8218198
3383.2739 784.18054 4489.4565 7757647
3404.1265 782.8576 4481.8823 7494475
3419.4661 780.297 4467.2231 7691343
3445.554 780.20966 4466.7231 8086613
3427.8152 770.27515 4409.8477 7888720
3391.6033 756.37128 4330.2476 7953747
3273.1824 724.48022 4147.6704 1837830
3223.3552 708.13385 4054.0869 1179648
3299.3792 719.47284 4119.0029 1245440
3297.9473 713.87903 4086.9785 1705219
3272.9834 703.31018 4026.4714 1310976
3279.5371 699.61792 4005.3328 1507328
3313.9749 701.88434 4018.3083 2953480
3303.1729 694.60529 3976.6355 4927524
3321.438 693.49841 3970.2988 5388072
3354.2593 695.42499 3981.3284 10583918
3377.7727 695.40833 3981.2329 11439478
3398.4299 694.80804 3977.7961 12229242
3390.7524 688.46289 3941.47 10780516
3400.9548 685.81 3926.2822 11701618
3437.0659 688.38214 3941.0081 11503730
3462.9709 688.8894 3943.9121 10648682
3510.6106 693.68451 3971.364 11241588
3714.1538 729.01666 4173.6416 7558464
3821.7915 745.18146 4266.1855 8349007
3879.051 751.37543 4301.646 7427653
3861.1514 743.02521 4253.8408 6968386
3892.8091 744.25812 4260.8994 7955025
3862.2905 733.66437 4200.25 7165765
3784.7424 714.3299 4089.5596 6903106
3711.884 696.12103 3985.3135 7626572
3828.8472 713.51624 4084.9011 7626312
3956.1169 732.60144 4194.1646 10849146
3865.6677 711.38239 4072.6848 12033163
3885.0195 710.50751 4067.6763 12427152
0 0 0 0
0 0 0 0
0 0 0 0
0 0 0 0
0 0 0 0
0 0 0 0
0 0 0 0
-3438.2007 694.64526 3846.3657 16
-3646.6123 741.66931 4106.7456 16
-3606.2212 738.3822 4088.5447 16
-3606.7935 743.49481 4116.854 16
-3322.6106 689.57867 3818.3113 16
-3355.2463 701.12683 3882.2554 16
-3482.8267 732.8114 4057.6982 16
-3524.6143 746.75977 4134.9326 16
-3433.4819 732.54456 4056.2205 16
-3496.1492 751.17377 4159.3735 16
-3479.248 752.8504 4168.6572 16
-3444.3518 750.62921 4156.3584 16
-3395.8413 745.38776 4127.3354 16
-3357.2939 742.27307 4110.0889 16
-3316.1345 738.53107 4089.3689 16
-3344.2361 750.27264 4154.3838 16
-3319.9314 750.34381 4154.7778 16
-3258.4854 741.95892 4108.3496 16
-3267.0618 749.51202 4150.1724 16
-3235.8672 747.98651 4141.7251 16
-3186.2642 742.14984 4109.4067 16
-3075.0593 721.7644 3996.5291 16
-3161.427 747.79584 4140.6694 15
-3123.9492 744.7113 4123.5898 15
-3101.9634 745.30029 4126.8511 14
-2843.666 688.66949 3813.2771 14
-2822.3022 688.97083 3814.9458 14
-2767.9028 681.14746 3771.6262 14
-2744.6089 680.91357 3770.3313 14
-2748.5664 687.49231 3806.7588 14
-2913.9988 734.90338 4069.282 14
-2624.6892 667.46405 3695.8589 13
-2645.8296 678.50195 3756.9778 16
-2821.7854 729.76544 4040.8323 16
-2602.8804 678.91412 3759.26 16
-2779.3271 731.19537 4048.75 16
-2607.9019 692.0708 3832.1106 16
-2585.0415 692.03052 3831.8877 16
-2704.8728 730.52747 4045.0515 16
-2523.7185 687.69629 3807.8884 16
-2508.4854 689.71259 3819.0527 16
-2464.5569 683.80389 3786.3354 16
-2569.7214 719.53339 3984.1755 16
-2437.3069 688.7854 3813.9189 16
-2405.385 686.12701 3799.199 16
-2363.687 680.60339 3768.6135 16
-2352.5908 683.86993 3786.7009 17
-2343.4094 687.76147 3808.249 18
-2297.3545 680.80145 3769.7102 18
-2307.6323 690.56232 3823.7581 18
-2268.7703 685.66595 3796.6458 18
-2246.5972 685.76556 3797.1975 19
-2224.9048 686.01556 3798.5818 19
-2212.8721 689.27948 3816.6545 19
-2180.1997 686.11548 3799.135 19
-2151.2937 684.08301 3787.8811 18
-2112.5161 678.83557 3758.8252 21
-2072.8218 673.17859 3727.5015 21
-2022.473 663.90228 3676.137 21
-2006.8928 665.96149 3687.5391 21
-1995.7728 669.56238 3707.4778 21
-1966.6978 667.15259 3694.1343 21
-1942.957 666.51843 3690.6228 21
-1922.217 666.91101 3692.7969 21
-1902.1078 667.53394 3696.2458 21
-1886.504 669.77106 3708.6331 21
-1860.9493 668.48621 3701.5188 21
-1849.2819 672.21887 3722.1873 21
-1825.925 671.74115 3719.5422 21
-1822.4119 678.64136 3757.7498 23
-1832.8368 690.96686 3825.998 21
-1774.1851 677.23352 3749.9541 21
-1762.5278 681.31775 3772.5693 21
-1871.0055 732.54266 4056.21 21
-1721.4729 682.76904 3780.6055 21
-1704.6948 685.03009 3793.1252 21
-1830.3132 745.33813 4127.0605 21
-1834.7428 757.26105 4193.0796 21
-1812.4138 758.31543 4198.918 21
-1624.6771 689.22894 3816.375 21
-1736.5831 747.10254 4136.8306 21
-1736.3422 757.6955 4195.4854 21
-1548.5101 685.54694 3795.9871 21
-1637.5905 735.67151 4073.5349 21
-1674.4783 763.49811 4227.6152 21
-1501.4952 695.0235 3848.4602 21
-1474.1106 692.8717 3836.5454 24
-1459.7668 696.87817 3858.73 21
-1430.7429 693.89252 3842.1978 21
-1419.1202 699.38611 3872.6167 21
-1403.8387 703.22754 3893.8872 21
-1362.89 694.12476 3843.4839 21
-1345.5304 696.93097 3859.0222 21
-1317.8434 694.39246 3844.9661 21
-1312.0105 703.4826 3895.2996 21
-1296.7053 707.72839 3918.8093 23
-1371.2917 762.08563 4219.7944 23
-1325.8228 750.50305 4155.6597 23
-1302.0275 750.98291 4158.3169 23
-1264.1348 743.19342 4115.1851 23
-1237.3407 741.75079 4107.1968 23
-1162.4821 710.85864 3936.1418 23
-1143.9164 713.82941 3952.5918 23
-1125.118 716.77625 3968.9087 23
-1083.6345 705.08832 3904.1907 23
-1109.8976 737.93274 4086.0557 23
-1098.4387 746.60291 4134.064 23
-1014.5721 705.33075 3905.533 23
-1002.5729 713.26025 3949.4399 23
-992.64935 723.08069 4003.8176 23
-949.97687 708.94263 3925.5327 23
-916.95306 701.47595 3884.1885 20
-893.48065 701.11975 3882.2161 21
-871.98877 702.33997 3888.9727 21
-861.72131 712.9126 3947.5149 21
-841.28766 715.42981 3961.4534 21
-820.10828 717.43939 3972.5806 21
-802.27679 722.58282 4001.061 21
-779.17139 723.14508 4004.1741 21
-758.39948 725.97638 4019.8513 23
-736.35596 727.73444 4029.5862 23
-717.09827 732.45599 4055.73 23
-691.07166 730.35126 4044.0759 23
-665.04303 728.09314 4031.5725 23
-646.00336 733.60345 4062.0837 23
-620.61298 732.04926 4053.4783 23
-592.14752 726.59662 4023.2859 23
-569.66425 728.3349 4032.9109 23
-548.63336 732.16364 4054.1113 23
-525.07404 732.81427 4057.7141 23
-501.64825 733.72272 4062.7444 23
-476.55124 732.15515 4054.0642 23
-453.68079 734.02356 4064.4099 23
-432.13077 738.35754 4088.4082 23
-411.60226 745.05554 4125.4961 23
-383.08307 737.22186 4082.1194 23
-358.82849 737.09229 4081.4021 23
-335.45715 738.88947 4091.3535 23
-312.74719 742.53699 4111.5503 23
-285.36765 734.7774 4068.584 23
-277.77887 781.24658 4325.8916 23
-249.31558 772.48688 4277.3877 23
-234.64603 809.32056 4481.3418 22
-202.77017 788.63538 4366.8047 21
-175.05315 780.43915 4321.4209 21
-150.62608 786.61499 4355.6177 21
-125.8242 792.98315 4390.8789 21
-99.885826 793.64178 4394.5264 21
-73.993401 795.25909 4403.4814 21
-48.04464 797.70331 4417.0151 21
-21.885048 798.30823 4420.3647 21
4.3261065 801.11011 4435.8794 21
31.727154 830.2373 4597.1611 21
57.442894 808.72467 4478.0425 21
84.600479 814.69275 4511.0889 21
113.64079 831.57172 4604.5503 21
140.59689 829.61597 4593.7212 21
164.74588 814.41779 4509.5664 21
190.15553 808.82446 4478.5952 18
218.0186 813.75873 4505.917 19
242.99384 808.01343 4474.104 19
268.68591 805.54773 4460.4512 19
295.81183 807.4375 4470.915 19
324.50436 812.94116 4501.3901 19
350.13538 810.52173 4487.9932 19
380.21555 818.01605 4529.4902 19
407.38965 818.68201 4533.1777 19
434.55829 819.25519 4536.3516 18
461.92697 820.11682 4541.1226 18
488.88528 820.19507 4541.5557 65553
516.52649 821.35101 4547.9565 262155
554.9248 838.64954 4643.7412 721415
570.58569 821.57397 4549.1914 4535090
599.6156 824.42072 4564.9541 7099720
624.87891 822.06641 4551.918 7560528
652.76764 823.21796 4558.2944 8021078
668.74298 809.85077 4484.2778 9139303
701.19623 816.69757 4522.1895 9731439
722.09375 810.07648 4485.5278 9007971
747.5484 808.85651 4478.7725 9205349
785.00323 820.25928 4541.9116 8679262
816.31903 824.70386 4566.522 8810338
835.62604 817.12054 4524.5317 8021078
863.35248 817.9856 4529.3218 8283993
889.65387 817.48907 4526.5723 9731696
915.17566 816.32623 4520.1338 9665646
939.4859 814.17963 4508.2476 9599596
975.1543 821.72272 4550.0146 9731439
1002.3733 821.93152 4551.1709 9599853
1025.2798 818.68591 4533.1992 9599853
1053.4532 819.70416 4538.8379 9205095
1070.6302 812.32843 4497.9971 9007716
1089.1816 806.32843 4464.7739 9270632
1128.616 815.70624 4516.7002 9139303
1147.6765 810.26538 4486.5737 9336681
1176.675 811.92853 4495.7827 9271145
1202.1814 811.16162 4491.5361 9205352
1228.7013 811.09698 4491.1782 8941923
1260.2197 814.26477 4508.7188 8941923
1271.6613 804.59808 4455.1929 9271143
1299.8359 805.69666 4461.2759 8942179
1324.0719 804.35864 4453.8667 8745056
1352.892 805.80322 4461.8662 8547676
1374.8744 803.198 4447.4404 8810848
1403.8383 804.69263 4455.7163 9139813
1424.446 801.4306 4437.6543 8941921
1455.8623 804.25787 4453.3091 8810335
1478.364 802.1474 4441.623 8678749
1502.2357 800.84113 4434.3901 8546906
1535.2662 804.37842 4453.9766 8546649
1557.0631 802.00989 4440.8618 8744030
1565.9277 793.16974 4391.9121 8481370
1622.6755 808.47577 4476.6641 8678749
1646.144 806.97516 4468.355 8678749
1672.9005 807.10828 4469.0923 8612956
1706.7804 810.62048 4488.54 8481370
1725.9152 807.12939 4469.209 8612699
1747.9618 805.08484 4457.8882 8810335
1781.9808 808.53345 4476.9839 9007457
1806.9001 807.81274 4472.9932 8744542
1817.3512 800.73798 4433.8188 8678493
1838.0294 798.30676 4420.3569 8744284
1865.8912 799.02014 4424.3066 8152661
1880.9004 794.28619 4398.0942 8416089
1877.3905 781.96808 4329.8867 7890258
1902.554 781.7641 4328.7573 8416859
1940.6956 786.82739 4356.7935 9930610
1946.2452 778.71729 4311.8867 9798767
1980.5173 782.16058 4330.9526 10983041
1976.0826 770.42511 4265.9712 11113856
2032.8834 782.55847 4333.1562 10653305
2019.3519 767.65265 4250.6201 10192499
2025.3301 760.43927 4210.6782 10389622
2036.6012 755.36462 4182.5791 10718588
2063.7832 756.24231 4187.439 11310725
2134.178 772.74567 4278.8208 9995119
2185.1697 781.91846 4329.6118 9797740
2223.4053 786.36682 4354.2432 9336933
2167.4919 757.79669 4196.0459 9797740
2224.2805 768.83075 4257.1431 10652024
2239.4258 765.3844 4238.0601 10060143
2248.96 760.11798 4208.8994 9139298
2343.4983 783.38232 4337.7178 8349781
2359.1162 780.04669 4319.2476 8218709
2381.1309 778.87488 4312.7593 8547931
2441.5132 790.14496 4375.1636 8547672
2456.6057 786.67511 4355.9502 6902847
2497.5339 791.46466 4382.4707 5717805
2500.9653 784.39526 4343.3267 8020817
2524.2947 783.64709 4339.1836 7954769
2559.8308 786.66516 4355.8955 7823441
2525.7461 768.44147 4254.9878 10849662
2514.6587 757.50562 4194.4341 10980739
2517.4189 750.91431 4157.937 10520445
2543.8291 751.43701 4160.8311 8349019
2618.6504 766.11273 4242.0933 9796464
2620.4109 759.33807 4204.5806 8612188
2692.8745 772.98621 4280.1528 11573130
2738.7634 778.82251 4312.4692 10849404
2717.5249 765.63843 4239.4668 8086607
2832.3447 790.67798 4378.1147 6178867
2859.1519 790.91632 4379.4346 6047282
2935.1357 804.63153 4455.3779 7034433
3013.5142 818.75275 4533.5693 7100224
3048.6331 820.97498 4545.8745 6903102
3093.3127 825.71033 4572.0947 8284498
3062.0291 810.26233 4486.5566 9731687
3072.6267 806.06738 4463.3286 11310719
3087.3372 803.01385 4446.4204 10981496
3094.0132 797.93982 4418.3247 11902597
3134.2234 801.52679 4438.1865 13218457
3146.3396 797.92926 4418.2666 13020822
3165.3591 796.12738 4408.2891 12428683
3189.0586 795.52252 4404.9399 12626062
3247.0574 803.41394 4448.6362 12691855
3272.1404 803.09967 4446.896 12888978
3326.3469 809.88129 4484.4468 11375997
3283.4846 793.10889 4391.5752 10125677
3310.1101 793.25269 4392.3716 9138784
3335.6221 793.12939 4391.689 8086097
3179.3494 750.11884 4153.5322 7493961
3310.3337 775.0224 4291.4272 6902083
3348.6313 778.01154 4307.9785 5519662
3230.9734 744.9953 4125.1626 3151378
3232.3638 739.71893 4095.9463 2493705
3241.1152 736.1933 4076.4241 1509381
3279.6931 739.4444 4094.4263 3217940
3275.0417 732.97296 4058.5925 3612697
3293.3389 731.69434 4051.5129 786432
3309.1899 729.89478 4041.5483 983040
3320.417 727.10834 4026.1194 1048576
3315.0522 720.75446 3990.937 983040
3312.9158 715.18756 3960.1118 917760
3288.3257 704.88568 3903.0688 10321773
3303.8635 703.26947 3894.1194 11372901
3356.3997 709.49664 3928.6006 12623226
3379.3552 709.42816 3928.2214 10714468
3392.0264 707.21643 3915.9744 10714214
3403.2476 704.73444 3902.2314 9727835
3465.0176 712.68286 3946.2432 10582889
3487.905 712.58093 3945.6787 11373944
3682.2693 747.27991 4137.8125 11769473
3783.2993 762.7038 4223.2173 10519151
3803.844 761.80603 4218.2461 9138013
3829.5923 761.9552 4219.0723 7888202
3834.5989 758.00244 4197.1851 7164739
3845.509 755.26007 4182 7428424
3860.0906 753.26917 4170.9761 7362632
3845.4468 745.6369 4128.7148 7691854
3833.967 738.71069 4090.3635 7363146
3878.2009 742.53876 4111.5601 10126452
3834.6963 729.62506 4040.0547 10191730
3801.0332 718.7326 3979.7412 11310212
0 0 0 0
0 0 0 0
0 0 0 0
0 0 0 0
0 0 0 0
0 0 0 0
0 0 0 0
-3426.3638 714.96967 3833.1238 16
-3399.99 714.20129 3829.0042 16
-3382.1626 715.22986 3834.5186 16
-3382.4578 720.13068 3860.7932 16
-3360.5225 720.33319 3861.8789 16
-3326.2839 717.88312 3848.7434 16
-3310.406 719.38928 3856.8184 16
-3387.4561 741.25098 3974.0242 16
-3338.4199 735.63525 3943.9167 16
-3417.0164 758.26294 4065.2292 16
-3391.9556 758.04626 4064.0679 16
-3167.2546 712.89124 3821.9807 16
-3079.804 698.20068 3743.2209 16
-3071.5679 701.38544 3760.2954 16
-3063.1553 704.57617 3777.4016 16
-3264.9373 756.51794 4055.874 16
-3348.5024 781.63513 4190.5332 16
-3283.5789 772.20721 4139.9878 16
-3256.8616 771.68994 4137.2148 16
-3230.3562 771.21552 4134.6714 16
-3204.8494 770.974 4133.3765 16
-3175.6895 769.8432 4127.314 16
-2904.0205 709.45013 3803.5322 15
-2819.4204 694.17035 3721.6138 14
-2795.7964 693.78107 3719.5266 14
-2768.4602 692.45703 3712.4282 14
-3000.0544 756.39526 4055.2161 14
-2789.1641 708.90277 3800.5974 14
-2769.7161 709.69067 3804.8218 14
-2737.3647 707.15814 3791.2444 14
-2870.4263 747.66937 4008.4348 14
-2622.283 688.73444 3692.4705 13
-2581.303 683.67627 3665.3525 16
-2580.686 689.31348 3695.5747 16
-2555.5388 688.4389 3690.8857 16
-2594.7422 705.03442 3779.8584 16
-2564.2739 702.82306 3768.0029 16
-2506.9045 693.13501 3716.0627 16
-2523.1497 703.80933 3773.2905 16
-2493.0364 701.62769 3761.594 16
-2476.0925 703.14642 3769.7363 16
-2457.7405 704.28931 3775.8635 16
-2435.1553 704.22888 3775.54 16
-2423.2957 707.29797 3791.9939 16
-2398.5959 706.64172 3788.4756 15
-2501.1436 743.81512 3987.7712 18
-2490.6479 747.75922 4008.9163 18
-2337.6353 708.57965 3798.8655 18
-2315.1138 708.57697 3798.8511 18
-2253.5742 696.51495 3734.1836 18
-2249.0359 702.00586 3763.6216 18
-2245.6858 707.98138 3795.6577 19
-2199.3394 700.38544 3754.9341 19
-2191.5073 705.0246 3779.8059 19
-2162.3147 702.81677 3767.969 18
-2132.7146 700.42902 3755.1677 18
-2123.106 704.62573 3777.6675 19
-2092.8054 701.9715 3763.4373 20
-2052.5469 695.88391 3730.8005 20
-2011.605 689.42957 3696.1973 21
-1969.9827 682.59747 3659.5684 21
-1977.8188 692.94116 3715.0237 21
-1990.6138 705.2746 3781.1462 21
-1919.2395 687.72833 3687.0764 21
-1914.3699 693.88318 3720.074 21
-1894.2604 694.59332 3723.8811 20
-1878.5992 696.97046 3736.6257 20
-1849.887 694.50452 3723.405 21
-1830.0687 695.35846 3727.9834 21
-1947.619 749.06604 4015.9226 23
-1801.131 701.29541 3759.813 21
-1916.1777 755.43591 4050.0728 21
-1773.8208 708.18347 3796.7415 21
-1913.6504 773.82495 4148.6611 21
-1847.4998 756.79865 4057.3789 21
-1801.2194 747.57013 4007.9026 21
-1815.0686 763.38434 4092.6863 21
-1797.3776 766.18207 4107.6855 21
-1734.1003 749.35742 4017.4849 21
-1613.3923 706.90131 3789.8672 21
-1588.9292 706.01111 3785.0945 21
-1572.7457 708.8269 3800.1909 21
-1559.8644 713.23438 3823.8206 21
-1629.6298 756.11847 4053.7322 21
-1661.7635 782.56421 4195.5142 21
-1585.7725 758.12122 4064.4695 21
-1461.2225 709.35144 3803.0029 24
-1442.8442 711.4021 3813.9971 21
-1422.0259 712.29584 3818.7886 21
-1399.6276 712.41418 3819.4233 21
-1376.5123 712.16565 3818.0906 21
-1349.4139 709.81348 3805.4802 21
-1320.323 706.31549 3786.7266 21
-1303.7782 709.52423 3803.9294 21
-1290.3478 714.5705 3830.9839 22
-1286.2441 725.05511 3887.1941 23
-1320.1118 757.71686 4062.3018 23
-1238.3408 723.98492 3881.4565 23
-1182.8282 704.61835 3777.6277 23
-1164.8877 707.31818 3792.1023 23
-1169.3745 724.01007 3881.5913 23
-1146.4824 724.0802 3881.9675 23
-1101.6504 710.01288 3806.5493 23
-1071.4543 704.98761 3779.6074 23
-1047.9998 704.27808 3775.8035 23
-1066.8014 732.5542 3927.3984 23
-1034.0782 725.92126 3891.8379 23
-1019.3428 731.90125 3923.8979 23
-998.07013 733.35693 3931.7024 23
-1010.1651 759.98596 4074.4668 23
-947.94177 730.63757 3917.123 23
-920.51697 727.3103 3899.2849 20
-897.04089 727.01202 3897.6858 21
-870.00116 723.7334 3880.1084 21
-867.00323 740.81952 3971.7109 21
-841.56976 739.15405 3962.7822 21
-816.65808 737.86444 3955.8679 21
-799.19604 743.42828 3985.6973 21
-776.76996 744.57281 3991.8333 21
-746.74695 738.27844 3958.0876 23
-721.50769 736.45874 3948.3315 23
-701.49731 740.03314 3967.4951 23
-682.43304 744.88812 3993.5237 23
-667.27155 754.50507 4045.0823 23
-636.9386 747.04443 4005.0845 23
-609.85028 742.95929 3983.1826 23
-580.70062 735.93262 3945.5112 23
-562.88184 743.27869 3984.895 23
-545.46466 751.82166 4030.696 23
-523.2608 754.24744 4043.7014 23
-510.14761 770.63867 4131.5786 23
-490.49442 778.30511 4172.6802 23
-469.09164 783.86188 4202.4717 23
-444.37872 784.20044 4204.2866 23
-420.50174 786.14191 4214.6953 23
-396.78897 788.65509 4228.1689 23
-372.98535 791.31439 4242.4258 23
-353.75873 804.7702 4314.5659 23
-326.70184 801.12183 4295.0059 23
-297.59192 791.39709 4242.8691 23
-273.67557 794.96356 4261.9902 23
-248.52197 795.29596 4263.7725 23
-228.20947 812.94897 4358.4141 22
-200.00928 803.42365 4307.3467 21
-176.6898 813.5849 4361.8237 21
-151.08807 814.91925 4368.9771 21
-125.3895 816.17487 4375.709 21
-100.05827 821.09979 4402.1128 21
-73.891312 820.22192 4397.4062 21
-47.670174 817.45807 4382.5884 21
-21.721325 818.33606 4387.2959 21
4.2905149 820.591 4399.3848 21
30.571241 826.24054 4429.6733 21
56.980625 828.54083 4442.0059 21
83.970116 835.15698 4477.4766 21
110.39473 834.32666 4473.0249 21
137.02629 835.07898 4477.0586 21
163.26088 833.56049 4468.9175 21
190.5076 836.91223 4486.8872 18
216.2334 833.57977 4469.021 21
244.51897 839.76569 4502.1851 20
272.06796 842.45374 4516.5962 20
300.20255 846.31104 4537.2764 18
325.87781 843.17108 4520.4419 19
353.07742 844.15253 4525.7036 19
380.39127 845.24921 4531.5835 19
406.52069 843.74292 4523.5083 19
433.65805 844.38568 4526.9541 18
459.29703 842.20599 4515.2681 18
485.77475 841.71948 4512.6602 65554
512.02667 840.91309 4508.3364 65554
538.71716 840.87103 4508.1113 65549
569.98706 847.64325 4544.4185 131077
589.77234 837.49585 4490.0161 2233880
605.83795 823.17047 4413.2144 5521979
633.70221 825.39862 4425.1597 8810338
655.59814 819.98474 4396.1348 9007971
683.73792 822.49573 4409.5967 8744798
710.53613 823.2674 4413.7339 8810848
737.72443 824.42017 4419.9141 9139813
767.01227 827.75977 4437.8184 8942434
798.68298 833.3642 4467.8652 8547423
820.78766 828.94794 4444.1885 8876387
846.17786 828.02124 4439.2202 9007973
871.37402 826.96631 4433.5645 9205095
897.99695 827.28754 4435.2866 9665646
919.43365 822.94849 4412.0239 9534059
952.1217 828.64154 4442.5459 9336681
972.64038 823.72217 4416.1719 9468267
1002.9804 827.16022 4434.604 9468267
1023.9484 822.89093 4411.7153 9402217
1049.7635 822.63257 4410.3306 9402218
1076.3691 822.99121 4412.2529 9336681
1107.5571 826.75342 4432.4233 9139301
1132.3348 825.66705 4426.5991 9336680
1159.3682 826.23749 4429.6572 8546907
1182.8485 824.30664 4419.3052 8283991
1206.5988 822.64349 4410.3887 8810336
1227.234 818.97205 4390.7051 8810335
1245.8627 814.14178 4364.8091 8679005
1275.4531 816.52557 4377.5894 8810848
1297.8131 814.27783 4365.5386 8679261
1320.144 812.10004 4353.8628 8613469
1350.8898 815.08295 4369.855 8679262
1371.905 812.19305 4354.3618 8876640
1399.8756 813.45148 4361.1084 8744285
1427.9962 814.74994 4368.0698 8612956
1449.1792 812.11438 4353.9399 8678492
1477.4261 813.46039 4361.1558 8481370
1501.434 812.46613 4355.8257 8415063
1527.696 812.70477 4357.105 8546905
1555.9308 813.96735 4363.874 8349782
1589.6066 817.98853 4385.4326 8284247
1620.8788 820.66357 4399.7739 8744799
1653.2048 823.77893 4416.4761 8284504
1678.1664 823.18463 4413.29 8613468
1708.0304 824.97656 4422.897 8613469
1726.7563 821.41583 4403.8071 8876384
1752.817 821.39844 4403.7139 8876385
1771.5065 817.97791 4385.3755 9073763
1796.4506 817.50262 4382.8271 9139813
1798.2566 806.6615 4324.7056 8218454
1828.5555 808.72681 4335.7783 8679262
1845.7428 805.01624 4315.8853 8416090
1860.3113 800.28064 4290.4966 8613726
1887.9645 801.22571 4295.563 8613470
1894.1788 793.16827 4252.3652 8415834
1922.1207 794.30121 4258.439 2957590
1954.5839 797.24884 4274.2422 1444611
1960.2672 789.33771 4231.8286 2628628
1979.4755 787.00372 4219.3154 5521200
1969.812 773.39227 4146.3413 10389621
1968.9537 763.53082 4093.4717 11046267
1998.8466 765.68896 4105.042 10783350
2046.4314 774.49103 4152.2319 10783607
2051.9636 767.35773 4113.9888 10718071
2091.7473 773.05042 4144.5083 10849913
2120.1047 774.43707 4151.9429 11573893
2128.4868 768.57898 4120.5361 10324339
2151.4766 768.06866 4117.8003 9929067
2172.8538 767.00067 4112.0742 9928300
2211.3386 771.9281 4138.4917 8086866
2274.3467 785.21417 4209.7212 8876382
2308.7864 788.45563 4227.0996 9007968
2373.4294 801.83136 4298.8101 5323816
2403.2441 803.28174 4306.5859 6968384
2436.0164 805.67969 4319.4419 7165509
2473.54 809.58307 4340.3687 8481369
2487.5869 805.80109 4320.0928 7626061
2538.8977 814.04407 4364.2856 7954768
2497.5725 792.71869 4249.9551 8152149
2498.6289 785.13647 4209.3047 8217684
2503.6272 778.93054 4176.0332 7493448
2480.6365 764.22333 4097.1846 6111541
2518.2583 768.29364 4119.0063 6244412
2577.2546 778.74414 4175.0342 7428684
2586.0862 773.98236 4149.5049 6573118
2624.0007 777.93243 4170.6821 10652534
2663.8013 782.36267 4194.4336 8020814
2698.8091 785.31628 4210.269 7889485
2761.7251 796.26251 4268.9541 8547674
2850.6252 814.43365 4366.374 8349780
2850.3979 807.04291 4326.7505 7560517
2863.9004 803.63666 4308.4888 6508085
2899.2346 806.36273 4323.1035 6376243
2868.9304 790.94482 4240.4448 7034175
2926.2751 799.74915 4287.647 7626312
2957.3982 801.29718 4295.9463 6705978
3022.7024 812.0011 4353.3325 8679511
3073.1472 818.5658 4388.5273 9798248
3064.2659 809.35083 4339.1235 10586994
3083.7419 807.71674 4330.3633 12166027
3101.9756 805.78693 4320.0171 12166027
3161.5999 814.55273 4367.0122 12034440
3191.1648 815.49432 4372.0605 12034441
3163.7498 801.97711 4299.5913 13547424
3160.1628 794.66779 4260.4043 13679010
3139.0315 783.09729 4198.3726 12166027
3171.8652 785.06586 4208.9263 12100234
3211.7776 788.742 4228.6353 9929067
3253.1921 792.72729 4250.001 9402979
3268.844 790.42181 4237.6411 9007713
3280.6323 787.22437 4220.4985 7889233
3245.8562 772.98627 4144.1646 6507324
3218.8157 760.79028 4078.7788 5191722
3161.3904 741.64789 3976.1521 5520690
3141.9668 731.63794 3922.4866 5126187
3181.2546 735.34619 3942.3672 3941659
3234.7295 742.25568 3979.4106 6572866
3277.2749 746.57544 4002.5698 2034952
3306.2761 747.76984 4008.9734 2559492
3324.3137 746.48529 4002.0867 983040
3296.3003 734.95129 3940.25 1114112
3318.7471 734.75116 3939.1772 5455150
3274.4761 719.88611 3859.4819 11373419
3327.4207 726.4516 3894.6812 12162933
3368.2415 730.29797 3915.3025 11175017
3390.0259 729.99249 3913.6648 10583136
3417.7578 730.96332 3918.8694 10253922
3461.5083 735.32361 3942.2461 10319460
3507.3389 740.06451 3967.6631 10517866
3651.7627 765.40723 4103.5317 9663070
3733.3662 777.33484 4167.478 11176567
3850.1421 796.38074 4269.5879 10387821
3859.6631 793.1377 4252.2012 10190956
3824.9385 780.9035 4186.6108 8282960
3844.6953 779.87836 4181.1147 6966844
3873.5386 780.69769 4185.5073 6638392
3876.9282 776.40918 4162.5156 5651240
3861.9451 768.51862 4120.2124 6967100
3871.4685 765.57336 4104.4224 3545872
3864.9492 759.51239 4071.928 6704188
3883.8064 758.48242 4066.406 6836030
0 0 0 0
0 0 0 0
0 0 0 0
0 0 0 0
0 0 0 0
0 0 0 0
0 0 0 0
-3594.7273 773.93365 4021.4741 16
-3354.1838 726.96503 3777.418 16
-3278.3059 715.29358 3716.7715 16
-3233.2729 710.23987 3690.5117 16
-3477.7368 769.14288 3996.5806 16
-3481.7454 775.30957 4028.6235 16
-3492.1448 782.99432 4068.5547 16
-3398.1082 767.20685 3986.5208 16
-3414.5339 776.31262 4033.8357 16
-3392.2151 776.6759 4035.7231 16
-3360.0139 774.76556 4025.7969 16
-3317.3464 770.39728 4003.0986 16
-3326.2947 778.03931 4042.8079 16
-3089.761 727.95605 3782.5679 16
-3241.9097 769.38464 3997.8369 16
-3040.3584 726.86359 3776.8909 16
-3210.7261 773.28644 4018.1111 16
-3163.4004 767.58099 3988.4648 16
-3155.4382 771.4129 4008.376 16
-3118.9583 768.27838 3992.0884 16
-2818.218 699.50433 3634.7283 16
-2846.1912 711.88855 3699.0786 16
-2884.3296 727.02734 3777.7419 13
-2855.9658 725.50922 3769.8535 14
-2970.7461 760.61713 3952.2795 14
-2782.782 718.15369 3731.6333 14
-2773.5649 721.50885 3749.0669 14
-2930.6777 768.53613 3993.428 14
-2907.864 768.76154 3994.5989 14
-2681.3015 714.68262 3713.5969 14
-2674.4951 718.76794 3734.825 15
-2656.0161 719.7583 3739.9707 15
-2634.0298 719.8067 3740.2224 16
-2575.8291 709.87573 3688.6196 16
-2730.9084 759.05585 3944.167 16
-2567.6238 719.83197 3740.3538 16
-2514.9238 711.19727 3695.4866 16
-2532.2825 722.39691 3753.6816 16
-2509.9734 722.37842 3753.5857 15
-2436.7983 707.58942 3676.7397 15
-2449.364 717.65527 3729.0435 17
-2384.7712 705.09149 3663.76 18
-2367.5925 706.44415 3670.7886 19
-2367.9438 713.10107 3705.3792 19
-2356.301 716.23682 3721.6729 19
-2322.8162 712.72986 3703.45 19
-2302.3752 713.19653 3705.875 19
-2295.3125 717.85614 3730.0872 19
-2406.6445 759.99432 3949.0432 19
-2229.9451 711.1095 3695.0303 19
-2206.9036 710.74103 3693.116 19
-2193.1965 713.40149 3706.9399 20
-2160.9426 710.02185 3689.3789 20
-2139.8118 710.2652 3690.6436 20
-2106.0383 706.27386 3669.9038 21
-2101.1501 711.98718 3699.5908 21
-2074.4426 710.34937 3691.0806 21
-2049.8123 709.39545 3686.124 21
-2032.7618 711.07251 3694.8384 21
-2004.5925 708.85437 3683.3125 21
-1983.6127 709.15759 3684.8879 21
-1915.1289 692.29553 3597.2703 21
-1877.4479 686.31396 3566.1892 21
-1877.287 694.06812 3606.4807 21
-1853.4154 693.13367 3601.6252 21
-1864.9432 705.57013 3666.2471 20
-1853.574 709.53497 3686.8491 20
-1809.7133 701.00861 3642.5447 20
-1794.8446 703.64221 3656.2292 21
-1771.9471 703.15417 3653.6934 23
-1721.9668 691.77393 3594.5601 21
-1702.6707 692.5899 3598.8 21
-1682.2312 692.95563 3600.7002 21
-1661.7306 693.30511 3602.5164 21
-1653.8955 699.01697 3632.196 21
-1638.1655 701.49854 3645.0906 21
-1629.7325 707.21301 3674.7837 21
-1697.4193 746.5614 3879.2437 21
-1586.1736 707.2113 3674.7747 21
-1564.637 707.32019 3675.3406 21
-1543.1926 707.47449 3676.1423 21
-1523.1714 708.29492 3680.4055 21
-1581.0343 745.88245 3875.7158 21
-1573.1698 753.11304 3913.2871 21
-1458.2722 708.55414 3681.7524 21
-1462.1691 721.23877 3747.6636 21
-1425.3485 713.92047 3709.6365 23
-1391.4781 707.87372 3678.2168 21
-1457.244 753.12811 3913.3655 21
-1350.7577 709.38373 3686.0632 21
-1408.7412 751.99646 3907.4851 21
-1396.2275 757.77271 3937.4995 21
-1302.4219 718.87579 3735.3855 21
-1316.3734 739.13928 3840.6775 21
-1263.8521 722.1347 3752.3193 22
-1289.7372 750.12305 3897.7505 23
-1266.6227 750.11383 3897.7026 23
-1241.5017 748.89392 3891.3638 23
-1219.1786 749.34747 3893.7207 23
-1151.4084 721.34644 3748.2229 23
-1177.269 752.05634 3907.7961 23
-1148.2841 748.25958 3888.0679 23
-1141.5752 759.1203 3944.502 23
-1121.2748 761.20831 3955.3516 23
-1036.9503 718.9928 3735.9934 23
-1029.8281 729.63312 3791.282 23
-1047.192 758.48346 3941.1926 23
-1017.2834 753.62933 3915.97 23
-946.54303 717.59326 3728.7212 23
-923.6145 716.948 3725.3682 23
-969.36322 770.88666 4005.6414 22
-885.08978 721.53754 3749.2161 20
-861.09119 720.04919 3741.4824 20
-844.75867 725.06195 3767.5295 21
-821.97131 724.65625 3765.4214 21
-799.74347 724.73499 3765.8306 21
-780.39923 727.50635 3780.231 21
-757.68976 727.21167 3778.6997 21
-739.28278 731.15424 3799.186 21
-721.66284 736.14734 3825.1309 21
-700.39178 737.61908 3832.7783 21
-686.71442 747.4549 3883.8865 20
-659.67212 742.92126 3860.3293 20
-634.47009 740.20892 3846.2356 20
-613.74432 742.7113 3859.2383 20
-597.52893 751.07684 3902.7065 21
-598.6507 782.78571 4067.4709 22
-549.11072 748.13165 3887.4031 22
-565.85547 804.7063 4181.3735 23
-542.48877 806.80792 4192.2935 23
-517.94196 807.27173 4194.7036 23
-494.55716 809.68481 4207.2422 23
-466.78241 804.78534 4181.7837 23
-441.64029 804.12982 4178.3779 23
-417.61697 805.55463 4185.7812 23
-368.06564 754.80804 3922.0945 23
-345.71332 756.758 3932.2268 23
-326.24847 765.76746 3979.0413 23
-320.81805 811.6886 4217.6543 23
-296.37808 813.21069 4225.5635 23
-274.72861 823.37708 4278.3892 23
-250.57164 827.3316 4298.9375 23
-226.47299 832.39545 4325.2505 22
-200.64558 831.5871 4321.0498 21
-174.69336 829.94922 4312.5391 21
-147.52916 821.00519 4266.0649 21
-122.27574 821.19446 4267.0483 21
-97.286522 823.71954 4280.1689 21
-72.176895 826.64648 4295.3779 21
-47.054985 832.54565 4326.0308 21
-21.385263 831.27289 4319.4175 21
4.2007232 828.94373 4307.3145 21
29.918449 834.28833 4335.0859 21
55.850273 837.90662 4353.8872 21
81.93119 840.76819 4368.7563 21
107.79987 840.60059 4367.8853 21
133.6115 840.13904 4365.4873 21
160.04395 843.09772 4380.8608 21
186.29295 844.39899 4387.6226 22
210.81744 838.52234 4357.0864 23
237.60793 841.95758 4374.9365 22
262.78189 839.55237 4362.4385 21
289.81369 842.98187 4380.2588 21
315.96936 843.50867 4382.9961 20
342.30972 844.41095 4387.6846 19
369.76807 847.74908 4405.0298 19
396.60968 849.32629 4413.2251 19
423.32581 850.45605 4419.0957 19
449.10117 849.67432 4415.0342 19
476.57101 852.00824 4427.1611 19
500.72308 848.47644 4408.8096 18
528.11554 850.51361 4419.395 65552
553.90875 849.90436 4416.229 14
582.50214 853.45276 4434.667 131081
612.04089 858.02002 4458.3994 393217
629.69342 846.23566 4397.166 3351841
640.3941 826.41663 4294.1836 7759193
674.50049 837.16278 4350.022 9073765
700.34619 837.24237 4350.4355 9468778
719.98462 830.15912 4313.6299 8876639
750.65753 835.84839 4343.1924 8876125
776.13177 835.56366 4341.7129 8678746
802.4292 836.15509 4344.7856 8612954
830.54639 838.54694 4357.2144 8481113
853.40363 835.64404 4342.1304 8678748
878.26422 834.81537 4337.8247 8876130
904.93561 835.70618 4342.4531 8546907
924.5592 830.21893 4313.9409 9468266
953.38196 833.06531 4328.731 9468266
978.60858 832.70251 4326.8457 9270888
1002.5134 831.26227 4319.3618 8941923
1025.0979 828.82611 4306.7036 8941922
1053.4296 831.0423 4318.2192 9007716
1078.8461 830.90826 4317.5225 9402474
1103.3461 830.0907 4313.2744 9402217
1124.2811 826.6889 4295.5981 9402217
1140.4873 820.03772 4261.0376 9205095
1158.6025 815.01746 4234.9517 8941923
1193.4686 821.74365 4269.9019 8876384
1216.5477 820.24329 4262.106 8284504
1244.677 822.13965 4271.96 8876641
1259.2628 815.19312 4235.8643 8942434
1291.1808 819.5188 4258.3413 8350297
1311.4926 816.45337 4242.4131 8547676
1334.6235 815.22546 4236.0322 9008226
1363.4001 817.42749 4247.4746 9205093
1378.0081 811.20898 4215.1621 8876128
1414.7385 818.00317 4250.4658 8612956
1430.7196 812.77216 4223.2847 8546906
1459.4 814.81128 4233.8804 8678749
1481.9825 813.43451 4226.7266 8745055
1504.0852 811.84442 4218.4644 8942178
1536.5081 815.78577 4238.9438 8613469
1570.7124 820.53101 4263.6006 8547419
1587.2419 816.03882 4240.2588 8612956
1647.0139 833.57214 4331.3647 8810079
1661.3318 827.91559 4301.9722 8547163
1683.7172 826.38959 4294.043 8612699
1708.905 826.26416 4293.3911 8810335
1731.1184 824.72516 4285.3945 9205092
1757.5741 825.22272 4287.9795 9205349
1769.8556 819.14575 4256.4028 8811104
1784.7004 814.4093 4231.7915 8810847
1798.8062 809.47144 4206.1338 8613469
1849.3735 820.85229 4265.2705 7823953
1852.5007 811.15356 4214.8745 8547676
1884.6309 814.24353 4230.9302 8218454
1908.4027 813.6886 4228.0469 8218711
1955.4272 822.9339 4276.0864 8349782
1979.636 822.4635 4273.6421 8021329
1991.8254 817.0744 4245.6401 7758156
1977.48 801.07068 4162.4819 4336924
1950.3975 780.36517 4054.8931 12034699
1992.3199 787.43677 4091.6382 9928295
1972.4161 770.19629 4002.0542 9664612
2030.2943 783.37714 4070.5439 8677973
2019.826 770.18707 4002.0063 10257261
2065.4988 778.46198 4045.0042 10125675
2081.6812 775.56 4029.9248 10454641
2090.4485 769.99268 4000.9961 9862248
2108.7122 768.00879 3990.6875 7889485
2174.387 783.14484 4069.3369 8350036
2201.6965 784.28253 4075.2488 8679258
2277.1995 802.37665 4169.2681 8547415
2316.2307 807.36926 4195.2104 8415831
2357.7834 813.12555 4225.1211 9073761
2394.6274 817.15387 4246.0527 8152916
2398.4519 809.948 4208.6099 6508349
2405.0769 803.82629 4176.8008 8349781
2433.0042 804.87653 4182.2578 8218711
2413.0117 790.21283 4106.063 8679518
2352.354 762.6579 3962.8835 9469293
2401.7061 770.96136 4006.0295 11245448
2442.9424 776.52258 4034.9268 10916228
2474.6948 778.99072 4047.7512 10061430
2482.6926 774.00562 4021.8481 10390137
2566.1526 792.41779 4117.5205 10258294
2591.8896 792.82642 4119.6436 9271398
2624.2188 795.22491 4132.1069 8481624
2672.2896 802.3053 4168.8975 8349780
2713.823 807.31128 4194.9092 7758156
2759.5815 813.47174 4226.9199 7955535
2771.1526 809.53436 4206.4604 7692106
2797.9685 810.08075 4209.2998 7823692
2848.6621 817.46973 4247.6938 7627082
2831.6841 805.4798 4185.3926 7363910
2882.0867 812.6983 4222.9009 6968638
2894.5217 809.17847 4204.6113 6968894
2913.1643 807.43921 4195.5742 7034429
2943.9236 809.05951 4203.9932 6837050
3007.9487 819.71796 4259.3765 6837307
3035.2632 820.27808 4262.2866 7494980
3058.4934 819.73425 4259.4609 10389614
3089.4983 821.26611 4267.4204 11113592
3076.4158 811.14856 4214.8486 11508350
3082.2937 806.15308 4188.8911 12034695
3113.7144 807.86456 4197.7842 13283736
3126.5254 804.75873 4181.646 13020820
3145.0298 803.15576 4173.3169 11375740
3226.7334 817.59137 4248.3262 10257260
3226.7517 811.26611 4215.459 9401952
3198.2529 797.9234 4146.1284 8678234
3208.9871 794.49768 4128.3276 7954513
3116.8733 765.85284 3979.4849 5455149
3102.5823 756.61652 3931.4917 4007701
3141.2886 760.34589 3950.8701 6310455
3184.0862 765.00299 3975.0691 7363656
3202.9639 763.88696 3969.27 5389612
3286.55 778.10736 4043.1611 6573630
3332.5959 783.29834 4070.1343 6112823
3290.6533 767.8822 3990.03 2101257
3298.1321 764.1366 3970.5671 4270104
3315.4485 762.70703 3963.1389 1640965
3296.2939 752.96661 3912.5264 2102540
3247.2085 736.573 3827.3428 11244148
3300.5994 743.49054 3863.2871 11112050
3380.3909 756.21881 3929.425 7821634
3420.1118 759.87012 3948.3979 9136725
3406.2625 751.6507 3905.6885 8741454
3510.4866 769.4212 3998.0266 8149319
3502.2402 762.46771 3961.8953 7821126
3572.4094 772.56488 4014.3618 7953482
3649.0742 783.92383 4073.3848 7887432
3781.1992 806.96967 4193.1343 8611924
3765.4614 798.36426 4148.4189 9796709
3811.6797 802.92133 4172.0986 9664870
3837.3738 803.12433 4173.1528 9139294
3814.8867 793.30524 4122.1318 10849913
3814.4802 788.17358 4095.467 10849143
3825.7629 785.50696 4081.6106 10257007
3854.0391 786.341 4085.9443 9401954
3872.9673 785.26929 4080.3755 8019790
3839.3823 773.62952 4019.8936 8151634
0 0 0 0
0 0 0 0
0 0 0 0
0 0 0 0
0 0 0 0
0 0 0 0
0 0 0 0
-3332.1211 739.48651 3727.6929 16
-3250.8816 726.27234 3661.0813 16
-3334.6765 749.99823 3780.6816 16
-3469.2451 785.54181 3959.854 16
-3411.7561 777.78577 3920.7563 16
-3427.3362 786.69519 3965.6682 16
-3412.0642 788.59711 3975.2559 16
-3182.7732 740.71759 3733.8987 16
-3311.1875 775.99811 3911.7451 16
-3346.8149 789.87756 3981.7104 16
-3316.2527 788.22192 3973.3645 16
-3306.8511 791.60809 3990.4338 16
-3264.0791 786.99713 3967.1904 16
-3199.6143 777.05109 3917.0532 16
-3220.979 787.95636 3972.0256 16
-3120.1177 768.90161 3875.9719 15
-3246.1826 805.90112 4062.4839 15
-3247.9138 812.35565 4095.0205 15
-3078.3435 775.73962 3910.4421 16
-3102.4153 787.7359 3970.9143 16
-3085.4395 789.41339 3979.3704 16
-3046.2646 785.39337 3959.106 16
-2852.5977 741.17035 3736.1809 13
-3040.6072 796.19952 4013.5789 14
-2965.0234 782.52887 3944.666 14
-2913.1655 774.95245 3906.4739 14
-2878.3657 771.82874 3890.7275 14
-2740.5598 740.81061 3734.3679 13
-2682.1697 730.92938 3684.5571 13
-2657.1892 730.06531 3680.2014 14
-2642.8591 732.13733 3690.6465 14
-2623.6511 732.88135 3694.397 16
-2616.8406 737.13007 3715.8145 16
-2730.0007 775.53192 3909.3953 16
-2707.8452 775.82202 3910.8574 16
-2685.5566 776.07861 3912.1511 16
-2507.4475 730.91815 3684.5007 15
-2657.741 781.5343 3939.6523 18
-2468.6152 732.35345 3691.7358 18
-2574.8035 770.6861 3884.9675 18
-2425.249 732.47119 3692.3293 18
-2404.5459 732.83032 3694.1396 18
-2390.9443 735.38031 3706.9939 19
-2359.8562 732.54938 3692.7234 19
-2343.064 734.14471 3700.7654 19
-2304.4465 728.86713 3674.1616 19
-2296.4104 733.25372 3696.2739 19
-2265.8003 730.44733 3682.1272 19
-2232.7214 726.78271 3663.6543 19
-2227.4343 732.18158 3690.8696 19
-2206.2944 732.42493 3692.0962 19
-2189.7595 734.21722 3701.1309 18
-2158.6323 731.10352 3685.4348 20
-2104.9636 720.2135 3630.5393 21
-2102.842 726.91772 3664.3345 21
-2083.7979 727.85071 3669.0378 21
-2068.6331 730.17285 3680.7437 21
-2020.7302 720.86566 3633.8267 21
-1968.415 709.76691 3577.8789 21
-2001.5472 729.57239 3677.7168 21
-1973.4786 727.2605 3666.0625 21
-1951.3926 727.12628 3665.386 21
-1930.5872 727.4715 3667.1265 21
-1910.2313 727.99609 3669.7708 21
-1889.299 728.31049 3671.3555 21
-1870.0162 729.27551 3676.22 21
-1848.172 729.25256 3676.1045 21
-1828.6681 730.16345 3680.6963 21
-1802.8975 728.56396 3672.6333 21
-1785.1545 730.20917 3680.9265 23
-1840.2968 762.07715 3841.5706 21
-1746.525 732.30493 3691.4912 21
-1796.252 762.70856 3844.7534 21
-1700.0597 731.13849 3685.6113 21
-1674.5027 729.5199 3677.4521 21
-1613.4293 712.1814 3590.05 21
-1598.72 715.11835 3604.8552 21
-1578.6984 715.72662 3607.9211 21
-1582.8939 727.48151 3667.1768 21
-1523.9772 710.15405 3579.8303 21
-1523.4271 719.91956 3629.0574 21
-1530.574 733.65411 3698.2922 21
-1494.5439 726.79089 3663.6953 21
-1549.8969 764.81964 3855.3955 21
-1475.3318 738.91724 3724.8232 21
-1420.4548 722.23846 3640.7468 21
-1415.0962 730.61133 3682.9539 23
-1392.5228 730.21936 3680.978 21
-1392.5635 741.86224 3739.6687 21
-1372.788 743.15411 3746.1812 21
-1402.2246 771.56732 3889.4097 21
-1418.2205 793.41089 3999.5212 21
-1344.4204 764.90759 3855.8386 21
-1347.3727 779.84198 3931.1216 21
-1322.6373 778.99463 3926.8501 22
-1310.1466 785.45782 3959.4307 23
-1302.6486 795.20459 4008.5632 23
-1247.2107 775.5047 3909.2578 23
-1222.0355 774.23254 3902.845 23
-1123.0558 725.24951 3655.9253 23
-1173.7312 772.88513 3896.053 23
-1152.1426 773.89282 3901.1326 23
-1136.1584 778.78339 3925.7856 23
-1118.5928 782.77173 3945.8904 23
-1092.4473 780.79822 3935.9419 23
-1077.9658 787.25696 3968.5 23
-1051.2228 784.84918 3956.3625 23
-1024.6646 782.47278 3944.3831 23
-969.28363 757.46149 3818.3035 22
-919.31586 735.58575 3708.0295 20
-902.04932 739.44513 3727.4844 20
-940.63043 790.42804 3984.4851 19
-862.82367 743.71533 3749.01 19
-846.02039 748.50543 3773.1567 19
-820.93555 746.02972 3760.6768 20
-798.48926 745.88055 3759.9248 21
-777.82068 747.43103 3767.7405 21
-755.98962 747.92303 3770.2209 21
-764.35254 779.22668 3928.0198 21
-754.04376 792.86383 3996.7639 21
-712.85382 773.86157 3900.9749 21
-693.19006 777.73706 3920.511 21
-650.33124 754.95483 3805.6677 21
-628.13519 755.38434 3807.8328 23
-609.4635 760.24213 3832.3206 23
-580.58777 752.25482 3792.0569 23
-559.48242 754.09753 3801.3459 23
-541.38452 760.3186 3832.7061 23
-520.26019 762.64807 3844.4487 23
-502.01273 769.6012 3879.4988 23
-474.17059 761.80688 3840.2083 23
-458.55981 773.86847 3901.0098 23
-459.49704 816.61987 4116.5161 23
-435.6087 817.57147 4121.313 23
-412.19211 819.5741 4131.4082 23
-364.5571 770.63446 3884.7073 23
-365.90979 825.63226 4161.9468 23
-342.4964 828.65942 4177.2065 23
-296.5105 773.28992 3898.0935 23
-272.87265 771.77142 3890.4385 23
-267.86487 827.52716 4171.499 23
-243.30733 828.08423 4174.3071 23
-217.70026 824.79102 4157.7061 22
-196.35291 838.85541 4228.6035 21
-171.63719 840.53955 4237.0933 21
-146.90096 842.68311 4247.8989 21
-121.4538 840.79187 4238.3652 21
-96.874756 845.49091 4262.0527 21
-71.767799 847.27209 4271.0317 21
-46.198277 842.55804 4247.2686 21
-21.138742 846.9931 4269.625 21
4.1840959 851.08759 4290.2651 21
29.743378 854.94666 4309.7183 21
55.472469 857.86615 4324.4351 21
81.096382 857.82788 4324.2427 21
106.76549 858.17133 4325.9736 21
131.53841 852.573 4297.7529 21
157.15379 853.36572 4301.749 21
182.57068 853.00977 4299.9546 21
209.32047 858.20575 4326.1475 21
235.37808 859.73962 4333.8794 21
261.43127 860.95709 4340.0166 21
286.85605 860.07233 4335.5566 21
312.4838 859.8916 4334.6455 20
339.05814 862.14532 4346.0063 19
365.86926 864.64032 4358.5835 19
391.95294 865.20044 4361.4072 19
418.043 865.70465 4363.9487 19
443.79822 865.49695 4362.9019 19
469.61438 865.42456 4362.5366 19
498.49631 870.71454 4389.2031 18
523.60626 869.21814 4381.6602 18
547.74908 866.3335 4367.1187 18
572.64691 864.84943 4359.6377 15
592.10919 855.63879 4313.2075 65547
602.12445 834.10388 4204.6514 327939
603.00806 802.13324 4043.4902 4142129
646.76422 827.45679 4171.144 7496016
684.27173 843.2157 4250.5835 8350295
706.01331 839.11725 4229.9238 8284760
729.01294 836.7439 4217.96 8021330
757.74176 840.88568 4238.8384 9139298
777.7381 835.38208 4211.0947 9270883
807.33276 840.20972 4235.4307 8481368
840.03223 847.88019 4274.0967 8415573
858.80432 841.45551 4241.7104 8350293
878.72156 836.48639 4216.6616 8679257
899.83557 832.89984 4198.582 7231299
919.17242 827.90552 4173.4062 8152403
952.46265 835.41162 4211.2437 9205094
976.45337 834.58594 4207.0815 9073508
991.55597 826.39368 4165.7852 7823440
1014.861 825.26953 4160.1187 9073508
1047.5913 831.68152 4192.4409 9205093
1073.5074 832.51202 4196.6274 9336422
1094.3219 829.43811 4181.1318 8941921
1118.0237 828.64026 4177.1099 8876128
1144.9824 830.23859 4185.167 8415577
1166.9305 828.21295 4174.9561 7626059
1187.1721 825.08539 4159.1899 8020561
1209.0201 823.17877 4149.5791 8810590
1231.1659 821.54694 4141.353 8942434
1264.6337 827.38623 4170.7886 8876384
1283.9524 823.92206 4153.3262 8745055
1303.3467 820.63593 4136.7607 8810848
1329.6793 821.75903 4142.4224 9007457
1354.6373 822.00732 4143.6738 9007970
1375.9718 820.0871 4133.9941 9205605
1400.2175 819.93884 4133.2466 9074018
1432.5363 824.44183 4155.9458 8745054
1457.9443 824.88251 4158.1675 8745054
1483.4761 825.3775 4160.6626 9074018
1506.4634 824.46368 4156.0562 9337191
1536.4784 827.36353 4170.6743 9205606
1563.0065 828.32379 4175.5146 9008226
1588.8491 828.8963 4178.4009 9139813
1612.0048 828.07117 4174.2412 9205605
1643.9136 831.6994 4192.5308 9139813
1665.9717 830.31 4185.5269 9139813
1699.2496 834.47119 4206.5034 7955539
1713.0762 829.09796 4179.4175 7297609
1727.3206 824.07727 4154.1084 8481882
1764.5072 829.9892 4183.9102 7560780
1778.7201 825.08081 4159.167 7758159
1798.691 822.94092 4148.3799 8350296
1813.6176 818.58179 4126.4062 8284504
1840.8367 819.81323 4132.6138 8745056
1859.7694 817.37054 4120.3003 8481881
1863.7887 808.52148 4075.6931 8481880
1891.61 810.09241 4083.6116 8350551
1915.1719 809.82239 4082.2505 8547418
1929.1418 805.55377 4060.7329 8547158
1955.312 806.42218 4065.1101 9467746
1980.963 807.0578 4068.3147 9467747
1992.1549 801.85834 4042.1042 8349266
2008.5251 798.84186 4026.8989 7362627
