# .PCD v0.7 - Point Cloud Data file format
VERSION 0.7
FIELDS x y z rgb
SIZE 4 4 4 4
TYPE F F F U
COUNT 1 1 1 1
WIDTH 1386
HEIGHT 1
VIEWPOINT 0 0 0 1 0 0 0
POINTS 1386
DATA ascii
3227.3269 945.42419 3941.5676 13481112
3230.8552 939.65674 3917.5227 13283734
3187.4849 920.42914 3837.3608 12625806
3177.5437 911.05859 3798.2939 11047031
3218.3193 916.25897 3819.9749 12165258
3295.0242 931.54431 3883.7009 10651765
3248.3901 911.99005 3802.1775 8481367
3263.9734 910.05243 3794.0994 6310199
3196.3184 885.09192 3690.0364 5849393
3177.1704 873.81146 3643.0068 7692111
3196.209 873.11462 3640.1021 8284246
3234.9224 877.76581 3659.4929 8416091
3279.1755 883.84821 3684.8511 6573886
3300.1541 883.61823 3683.8923 6508350
3277.709 871.84094 3634.792 6574402
3341.7205 883.06421 3681.5825 4205856
3372.6975 885.46887 3691.6079 5784630
3346.3596 872.89197 3639.1736 5455921
3335.5676 864.50531 3604.209 6573887
3338.0901 859.65436 3583.9846 2561293
3305.3464 845.84009 3526.3914 9862504
3337.8967 848.8031 3538.7446 11441263
3365.918 850.58466 3546.1721 9204564
3385.6394 850.25977 3544.8174 7031864
0 0 0 0
0 0 0 0
0 0 0 0
0 0 0 0
0 0 0 0
0 0 0 0
0 0 0 0
-3315.1667 911.55347 3708.7256 274
-3152.4343 872.59283 3550.2114 274
-2950.4653 822.17511 3345.0833 274
-3083.9631 865.1886 3520.0869 274
-3126.9189 883.21393 3593.4241 274
-3138.0728 892.44226 3630.9702 18
-3104.7642 889.06586 3617.2334 18
-3022.6431 871.56769 3546.0405 18
-3001.8792 871.6405 3546.3367 18
-2983.0383 872.27661 3548.925 18
-2967.4973 873.89355 3555.5037 18
-2998.7891 889.42395 3618.6902 16
-2947.575 880.53113 3582.5088 16
-2890.8962 869.86487 3539.1123 16
-2870.9138 870.16522 3540.3345 16
-2861.1729 873.59705 3554.2971 16
-2818.5669 866.97076 3527.3376 16
-2808.0691 870.1955 3540.4578 16
-2870.9006 896.36389 3646.926 16
-2777.5005 873.78015 3555.042 16
-2799.1055 887.30725 3610.0784 16
-2745.2019 876.92249 3567.8271 16
-2740.9495 882.36011 3589.9502 16
-2691.6443 873.26593 3552.9502 15
-2683.3108 877.42603 3569.8757 18
-2645.4163 871.90912 3547.4297 18
-2653.7742 881.67035 3587.144 19
-2605.9116 872.76007 3550.8921 19
-2579.5076 870.9502 3543.5281 19
-2561.7896 872.06726 3548.0732 19
-2538.4409 871.27039 3544.8308 19
-2519.8901 872.12054 3548.2898 18
-2491.1426 869.42633 3537.3281 20
-2481.7922 873.51355 3553.9575 21
-2458.2515 872.63342 3550.3767 21
-2431.5276 870.59857 3542.0977 21
-2410.8867 870.72498 3542.6121 21
-2391.5442 871.32678 3545.0605 21
-2367.2449 870.11737 3540.1399 21
-2351.0308 871.8847 3547.3301 21
-2323.6987 869.52356 3537.7239 21
-2304.6445 870.24518 3540.6597 21
-2284.312 870.49292 3541.668 21
-2149.0039 826.52472 3362.7798 21
-2132.2927 827.7738 3367.8618 21
-2106.1394 825.34619 3357.9849 21
-2091.813 827.55121 3366.9561 21
-2165.8828 865.10638 3519.7522 21
-2171.4124 875.74902 3563.0527 21
-2152.5278 876.65759 3566.7493 21
-1997.4541 821.56854 3342.615 21
-1987.1284 825.50818 3358.6438 21
-2090.9172 877.41357 3569.825 21
-2071.1792 878.0144 3572.2695 21
-1931.8892 827.42389 3366.4382 21
-1908.6309 825.99225 3360.6133 21
-1993.3263 871.74188 3546.7493 21
-1990.6293 879.8399 3579.6968 21
-1970.5533 880.34833 3581.7654 21
-1950.2021 880.74353 3583.3733 21
-1899.3159 867.20557 3528.293 21
-1805.8329 833.7005 3391.9749 21
-1784.8312 833.28021 3390.2649 21
-1751.15 826.8634 3364.1577 21
-1726.8024 824.75665 3355.5862 23
-1730.5961 836.1983 3402.1375 23
-1717.9636 839.87921 3417.1135 23
-1702.2373 842.11737 3426.22 23
-1754.7692 878.58545 3574.5928 23
-1648.7522 835.59174 3399.6697 23
-1633.6265 838.16815 3410.1519 23
-1617.3395 840.20575 3418.4421 23
-1595.1953 839.21362 3414.4058 23
-1576.2507 839.901 3417.2021 23
-1558.0627 841.01459 3421.7329 23
-1539.5153 841.961 3425.5835 23
-1604.8065 889.39673 3618.5793 23
-1507.9878 847.05792 3446.3208 23
-1570.134 894.0755 3637.6152 21
-1549.6249 894.6806 3640.0771 21
-1528.8384 895.14044 3641.948 21
-1506.3555 894.60596 3639.7734 21
-1485.0819 894.78461 3640.5002 21
-1453.1891 888.47595 3614.833 21
-1432.9366 889.2019 3617.7866 21
-1426.8904 898.89929 3657.2415 21
-1405.184 898.8783 3657.156 21
-1370.0676 890.14417 3621.6204 21
-1359.6072 897.40613 3651.166 21
-1338.8921 898.02472 3653.6831 21
-1317.7573 898.37775 3655.1191 21
-1292.5643 895.92957 3645.1587 21
-1272.266 896.84857 3648.8977 21
-1253.1636 898.65698 3656.2554 21
-1231.9779 899.00867 3657.6863 21
-1213.7903 901.59998 3668.2295 21
-1122.3207 848.8595 3453.6506 21
-1175.1769 905.34723 3683.4751 21
-1151.6786 904.03699 3678.1443 23
-1133.4288 906.87555 3689.6931 23
-1112.926 907.98761 3694.218 23
-1087.9663 905.43518 3683.833 23
-1068.4655 907.41425 3691.885 23
-1047.5076 908.21271 3695.1338 23
-1027.7678 910.12415 3702.9104 23
-1004.9223 909.30859 3699.5925 23
-980.45978 906.96094 3690.0405 23
-965.5672 913.56061 3716.8918 21
-944.5246 914.51379 3720.77 21
-924.66711 916.6875 3729.614 21
-903.21362 917.34662 3732.2957 21
-881.78357 918.06323 3735.2112 21
-861.13861 919.65515 3741.6882 21
-837.27441 917.80243 3734.1504 21
-817.0058 919.89758 3742.6746 21
-796.33881 921.64856 3749.7986 21
-772.32776 919.51874 3741.1331 20
-698.96613 856.77063 3485.8374 20
-732.50867 925.23096 3764.3738 21
-712.72253 928.51703 3777.7434 21
-630.74817 848.37158 3451.6653 21
-628.43207 873.58698 3554.2561 21
-600.09149 863.11987 3511.6702 21
-593.36597 884.10687 3597.0571 21
-599.5885 926.66943 3770.2263 21
-548.03162 879.77173 3579.4192 21
-515.49084 860.8537 3502.45 22
-495.35739 861.93744 3506.8591 23
-474.34726 861.5238 3505.1763 23
-454.96799 864.16992 3515.9421 23
-433.69177 863.29407 3512.3789 23
-414.0032 865.64966 3521.9626 23
-393.98367 867.52649 3529.5989 23
-374.17612 870.10669 3540.0967 23
-354.80896 874.07849 3556.2559 23
-336.30328 880.80817 3583.636 23
-331.98401 928.10492 3776.0667 23
-315.46063 945.65454 3847.4688 23
-277.53574 896.78534 3648.6406 23
-264.34595 926.33612 3768.8701 23
-230.66022 882.88983 3592.1057 23
-226.44699 954.88965 3885.0422 23
-202.82703 952.09021 3873.6528 23
-180.28772 954.29639 3882.6284 23
-157.37077 954.85651 3884.9075 23
-135.62512 963.93359 3921.8384 23
-112.1116 961.60168 3912.3508 23
-89.267006 965.28735 3927.3462 23
-65.705132 961.08075 3910.2314 23
-42.584064 962.25128 3914.9937 23
-19.334349 959.83716 3905.1719 23
3.8183978 962.32349 3915.2876 23
27.039515 962.97473 3917.9373 23
50.34985 964.7337 3925.0938 23
73.407669 962.07166 3914.2629 23
96.84137 964.4314 3923.8635 21
120.27639 965.88782 3929.7893 21
143.27625 963.94403 3921.8811 22
166.2045 962.12842 3914.4939 20
189.6445 963.35706 3919.4929 21
214.34917 970.04089 3946.6865 21
237.81322 970.34753 3947.9341 21
260.71426 968.50781 3940.4487 21
284.02383 968.36322 3939.8608 21
306.75873 966.4303 3931.9963 21
332.78571 974.40948 3964.4604 21
356.4794 974.95502 3966.6802 21
380.48642 976.23694 3971.8958 21
405.71115 980.31189 3988.4746 21
431.44931 985.11035 4007.9976 21
458.66885 992.61395 4038.5269 21
480.86133 989.03369 4023.9602 21
503.87469 987.40057 4017.3154 21
529.05426 989.9679 4027.761 21
550.26324 985.20477 4008.3818 19
577.13538 990.5556 4030.1521 19
603.6142 994.83289 4047.5544 19
629.97095 998.5899 4062.8401 19
651.88269 995.28351 4049.3882 19
676.63086 996.38885 4053.8853 19
691.87762 983.90668 4003.1003 18
708.87396 974.65759 3965.47 18
726.82312 967.2702 3935.4136 65554
740.91296 955.36566 3886.9792 17
753.52698 942.33344 3833.9565 131085
770.27094 935.07776 3804.4363 262149
791.61591 933.66125 3798.6733 1707279
802.87115 920.75214 3746.1514 5719354
816.40289 911.07806 3706.7917 8350813
846.95013 920.40222 3744.7278 8744799
855.01782 905.44489 3683.8726 8284503
880.85345 909.57965 3700.6951 8679262
900.51294 907.29083 3691.3831 9205605
923.77319 908.65265 3696.9236 9336679
952.99799 915.68207 3725.5234 8810332
976.34985 916.87817 3730.3899 7625803
993.24573 912.09271 3710.9199 8021071
1006.3668 904.12329 3678.4956 7692106
1042.7618 916.95795 3730.7144 7691850
1053.3534 907.04034 3690.3638 8217939
1088.2847 918.05865 3735.1926 8152404
1111.7393 919.14929 3739.6299 7757647
1129.157 915.30365 3723.9836 9007714
1153.4294 917.05536 3731.1108 9073250
1174.882 916.54144 3729.0198 8481370
1189.4146 910.74786 3705.448 9007457
1215.8202 914.0907 3719.0488 9402472
1238.8362 914.81146 3721.9814 9139300
1268.2345 920.13763 3743.6514 9139300
1281.0294 913.44153 3716.4075 9073250
1302.9825 913.39166 3716.2048 9336678
1318.7756 909.09705 3698.7317 9402472
1343.71 911.14142 3707.0493 9336679
1369.3955 913.62115 3717.1384 9402472
1382.4196 907.70874 3693.0833 8678748
1391.2766 899.28711 3658.8191 8876384
1416.0122 901.22998 3666.7239 8679262
1436.5778 900.50024 3663.7549 8876641
1467.9025 906.43597 3687.9048 9008227
1496.7661 910.7002 3705.2542 9337191
1518.7841 910.73602 3705.3999 9205606
1539.2091 909.82928 3701.7109 9074020
1562.4509 910.5896 3704.8044 9205093
1587.5889 912.4187 3712.2461 8941921
1602.9196 908.63843 3696.8655 8678749
1627.929 910.3725 3703.9209 8876128
1653.3252 912.27393 3711.657 8875871
1673.2709 911.15753 3707.1147 8547163
1702.9609 915.30725 3723.9983 8481370
1727.7234 916.73639 3729.8127 7757647
1736.6248 909.81958 3701.6714 8481112
1756.9197 908.97015 3698.2153 7955027
1776.2664 907.65704 3692.8728 7428940
1799.8345 908.50671 3696.3301 8481884
1817.9058 906.59467 3688.5505 8087384
1842.6957 908.03894 3694.4268 8745571
1869.4949 910.42773 3704.1458 8942949
1885.054 907.35083 3691.627 8810850
1918.3428 912.78064 3713.7185 9074020
1948.6924 916.70453 3729.6833 7889746
1960.5024 911.91681 3710.2041 7691852
1976.8107 909.30444 3699.5754 7033922
1992.248 906.35321 3687.5681 8086610
2028.6913 912.9187 3714.2805 8086867
2054.2026 914.47681 3720.6196 8677720
2083.0811 917.48468 3732.8574 8415575
2104.8018 917.30994 3732.1465 8415575
2116.5825 912.85187 3714.0083 7889231
2118.3713 904.2204 3678.8909 7231301
2162.2871 913.56354 3716.9038 7428680
2183.291 913.13556 3715.1628 8086353
2204.7712 912.91345 3714.2588 7823181
2235.2607 916.38916 3728.4001 7691852
2258.6824 916.92749 3730.5903 7757902
2284.3633 918.36389 3736.4343 7889745
2303.5986 917.20612 3731.7241 8021332
2326.0166 917.32556 3732.2102 8152661
2338.4199 913.53058 3716.7698 7889746
2335.196 903.75824 3677.0105 3481108
2369.9478 908.72803 3697.2302 6508097
2334.6448 886.99115 3608.792 656130
2338.5835 880.42249 3582.0669 10785413
2393.6497 893.04718 3633.4314 8548452
2400.5698 887.64398 3611.4482 7824728
2435.0183 892.42542 3630.9016 8021595
2446.1956 888.66895 3615.6182 8482404
2476.5518 891.88464 3628.7017 8416868
2495.9377 891.1283 3625.6243 8285282
2489.1372 881.11523 3584.8853 8614247
2518.7 884.03473 3596.7634 8351076
2516.5684 875.87421 3563.562 8219746
2548.2659 879.52557 3578.418 8614504
2561.0505 876.64288 3566.6892 8417378
2601.9954 883.36755 3594.0491 8153950
2610.6487 879.10913 3576.7234 8615271
2620.7798 875.41309 3561.6858 9470067
2639.5764 874.6474 3558.5706 10324862
2721.5745 894.6701 3640.0347 8943206
2723.7107 888.33142 3614.2451 8087637
2754.5608 891.38342 3626.6624 8153429
2791.728 896.4165 3647.1399 7758671
2834.4114 903.13 3674.4541 8219480
2875.6113 909.27197 3699.4434 7232585
2923.1611 917.31366 3732.1616 6705470
2868.7349 893.47388 3635.1677 7560779
2924.6023 904.08478 3678.3386 8218708
2977.6509 913.67358 3717.3516 8087122
2965.363 903.2207 3674.8235 6639420
3076.6082 930.27295 3784.8877 5191974
3058.071 917.9754 3734.854 7494468
3171.9814 945.32715 3846.1365 10520690
3134.4749 927.48462 3773.5427 12297099
3138.8059 922.18683 3751.9885 12297099
3118.5315 909.78534 3701.532 12494478
3196.9988 926.16223 3768.1626 13020823
3153.0215 907.08618 3690.5503 12494736
3234.2454 924.0437 3759.5432 12757651
3260.8613 925.27405 3764.5491 12494736
3247.9102 915.33667 3724.1182 11310464
3187.0759 892.13013 3629.7004 8087121
3201.3188 890.10944 3621.479 8218451
3224.7083 890.64191 3623.6455 8876897
3226.2119 885.16266 3601.3525 8745312
3227.0234 879.56665 3578.585 7298379
3250.6128 880.21155 3581.2087 7429709
3264.8428 878.33026 3573.5547 7495502
3231.6467 863.79651 3514.4231 7298123
3290.8066 873.97699 3555.843 6836800
3315.5994 874.95862 3559.8369 6507834
3317.0693 869.81219 3538.8982 6178099
3349.572 872.81677 3551.1226 8809304
3348.0408 866.97076 3527.3376 8546387
3433.0586 883.46997 3594.4661 8348495
0 0 0 0
0 0 0 0
0 0 0 0
0 0 0 0
0 0 0 0
0 0 0 0
0 0 0 0
-3296.0247 928.14185 3687.311 274
-3143.478 891.09332 3540.1252 274
-2915.7107 832.08051 3305.6799 274
-2937.4294 843.94897 3352.8308 274
-3096.4683 895.70093 3558.4304 274
-3062.9019 892.06665 3543.9922 18
-3050.886 894.70209 3554.4622 18
-3007.9971 888.25739 3528.8586 18
-2987.7571 888.4574 3529.6533 18
-2936.3169 879.31708 3493.3406 18
-2946.7026 888.69281 3530.5886 18
-2924.4478 888.28827 3528.9812 16
-2899.6892 887.112 3524.3081 16
-2775.542 855.29156 3397.8926 16
-2850.5195 884.81549 3515.1848 16
-2830.7566 885.14966 3516.5125 16
-2810.5393 885.3457 3517.2913 18
-2794.1123 886.74762 3522.8608 18
-2778.5566 888.44928 3529.6208 18
-2748.2957 885.43884 3517.6614 18
-2731.2356 886.66809 3522.5447 18
-2709.9036 886.51874 3521.9512 18
-2686.1907 885.58203 3518.23 18
-2699.375 896.89014 3563.1548 18
-2651.2849 887.85712 3527.2686 18
-2623.7361 885.61407 3518.3572 18
-2598.4185 884.09406 3512.3188 19
-2582.6123 885.81213 3519.144 19
-2568.0452 887.98627 3527.7817 19
-2546.6328 887.80988 3527.0811 18
-2532.7183 890.26611 3536.8391 20
-2505.0903 887.90277 3527.45 21
-2481.7434 887.02979 3523.9817 21
-2464.4866 888.33716 3529.1755 21
-2457.5447 893.41681 3549.3562 21
-2424.8074 889.12561 3532.3079 21
-2395.9417 886.19159 3520.6516 21
-2391.7729 892.42102 3545.3999 21
-2354.1348 886.16205 3520.5342 21
-2331.9602 885.66394 3518.5554 21
-2317.1755 887.98895 3527.7925 21
-2296.5266 888.08862 3528.1882 21
-2277.5361 888.83728 3531.1624 21
-2257.1331 889.0434 3531.9814 21
-2235.2966 888.68347 3530.5515 21
-2215.3655 889.08154 3532.1328 21
-2194.2312 888.99957 3531.8074 21
-2176.6687 890.37726 3537.2803 21
-2156.4067 890.66663 3538.4302 21
-2000.3224 834.31177 3314.5439 21
-1969.0443 829.41064 3295.0732 21
-1971.3185 838.68591 3331.9219 21
-1956.144 840.65045 3339.7263 21
-1933.3348 839.34052 3334.5222 21
-1917.8448 841.21393 3341.9651 21
-1897.4893 840.97003 3340.9958 22
-1993.9376 893.03442 3547.8369 22
-1974.6763 893.83289 3551.009 22
-1955.2668 894.58075 3553.9802 23
-1934.8755 894.89081 3555.2117 23
-1805.386 844.1936 3353.8027 21
-1792.851 847.66412 3367.5903 21
-1877.5167 897.68683 3566.3201 21
-1857.5321 898.24298 3568.5295 21
-1838.7778 899.41388 3573.1809 23
-1818.9268 900.06921 3575.7844 23
-1711.3815 856.83423 3404.0212 23
-1683.7328 853.04675 3388.9741 23
-1661.9645 852.18304 3385.543 23
-1632.5542 847.33185 3366.27 23
-1710.8176 898.93689 3571.2861 23
-1704.3523 906.75708 3602.3542 23
-1591.9159 857.68127 3407.3865 23
-1573.0018 858.37921 3410.1589 23
-1553.5172 858.77979 3411.7505 23
-1538.411 861.64325 3423.1262 23
-1495.8494 849.00031 3372.8987 23
-1489.5199 856.85785 3404.1147 23
-1465.0045 854.32587 3394.0559 21
-1531.0746 905.28418 3596.5024 21
-1506.1538 903.12128 3587.9097 21
-1492.8672 907.97235 3607.1821 21
-1474.8101 910.02087 3615.3203 21
-1441.7252 902.72021 3586.3164 21
-1326.1899 842.80334 3348.2793 21
-1413.6003 911.99866 3623.1777 21
-1377.8943 902.67365 3586.1316 21
-1369.1338 910.98529 3619.1519 21
-1352.3716 914.15259 3631.7349 21
-1327.2582 911.68597 3621.9355 21
-1303.9293 910.38422 3616.7639 21
-1284.3918 911.73022 3622.1113 21
-1264.9924 913.2218 3628.0369 21
-1246.1273 915.15717 3635.7258 21
-1226.6393 916.69519 3641.8362 21
-1198.2683 911.53113 3621.3203 21
-1189.2555 921.17297 3659.6252 21
-1160.2583 915.40594 3636.7144 21
-1139.2067 915.80829 3638.3125 22
-1126.6851 923.21552 3667.74 23
-1104.2327 922.61676 3665.3611 23
-1085.6107 925.25867 3675.8569 23
-1063.8663 925.29309 3675.9937 23
-1042.0137 925.23273 3675.7539 23
-1021.1089 926.02942 3678.9192 23
-1002.7838 929.25146 3691.7195 23
-979.27155 927.70312 3685.5684 23
-962.85455 932.95923 3706.4495 21
-938.75439 930.84229 3698.0393 21
-871.97229 885.29034 3517.071 21
-894.4212 930.3197 3695.9634 21
-875.12354 933.09766 3706.9995 21
-858.61536 939.06958 3730.7249 21
-835.33307 937.75256 3725.4927 21
-812.47034 936.84772 3721.8979 19
-790.69678 937.18341 3723.2314 19
-770.86169 939.90186 3734.0312 18
-743.14355 932.88525 3706.1558 18
-682.37732 882.69189 3506.748 18
-664.7345 886.87976 3523.3855 18
-633.67548 872.85907 3467.6843 20
-613.03345 872.72833 3467.165 21
-592.19806 872.30377 3465.4785 22
-572.76562 873.9895 3472.1755 22
-555.29175 878.90088 3491.687 23
-536.69977 882.35419 3505.4065 21
-514.80609 880.4389 3497.7976 22
-495.02789 882.13269 3504.5264 23
-473.13275 880.03723 3496.2017 23
-453.98892 883.10168 3508.3762 23
-433.85812 884.44836 3513.7261 23
-413.25967 884.92926 3515.637 23
-392.7739 885.71552 3518.7605 23
-372.58597 887.29919 3525.052 23
-353.80499 892.62067 3546.1931 23
-360.77155 967.67517 3844.3687 23
-336.69763 963.97797 3829.6804 23
-315.16962 967.56207 3843.9194 23
-292.68423 968.53668 3847.7913 23
-269.43411 966.93152 3841.4143 23
-248.61076 974.54272 3871.6521 23
-225.48105 973.74176 3868.47 23
-200.16336 962.24139 3822.7812 23
-168.94836 915.8371 3638.427 23
-156.79277 974.28772 3870.6389 23
-135.43581 985.79724 3916.364 23
-111.72865 981.42334 3898.9873 23
-88.945854 985.00507 3913.2168 23
-65.243538 977.33911 3882.7615 23
-42.279804 978.41144 3887.0215 23
-19.264259 979.41675 3891.0154 21
3.7926476 978.88025 3888.884 21
26.928398 982.14056 3901.8369 21
49.915413 979.46991 3891.2268 21
73.220802 982.76025 3904.2986 21
97.844849 997.91949 3964.5229 21
119.05309 979.11597 3889.8206 21
142.11813 979.20648 3890.1802 21
165.30717 980.00677 3893.3596 21
188.4715 980.48254 3895.2498 21
213.03047 987.31812 3922.406 21
235.79338 985.30359 3914.4026 21
258.99512 985.31927 3914.4651 21
284.09427 991.95764 3940.8379 21
306.91364 990.23187 3933.9819 21
331.0596 992.72784 3943.8977 21
355.89117 996.81488 3960.1348 21
378.27921 993.97559 3948.8547 21
404.24377 1000.3174 3974.0493 21
430.10928 1005.7292 3995.5496 21
457.12064 1013.1158 4024.895 21
479.71085 1010.4572 4014.3328 21
499.22675 1001.8801 3980.2578 21
525.57849 1007.1766 4001.2996 21
550.388 1009.188 4009.2905 21
575.03314 1010.744 4015.4722 21
597.45782 1008.4284 4006.2729 19
622.69312 1010.8525 4015.9033 19
646.3963 1010.7025 4015.3074 19
670.08081 1010.5351 4014.6423 19
690.18787 1005.169 3993.3237 18
703.50519 990.59821 3935.437 18
721.66071 983.55646 3907.4617 18
736.49017 972.5603 3863.7764 18
753.54016 965.07123 3834.0239 18
763.58673 949.31372 3771.4226 17
773.00812 933.6972 3709.3816 262152
806.98218 947.78094 3765.3333 1378828
814.86609 931.28906 3699.8142 5456700
823.68195 916.69849 3641.8491 8416350
850.53186 922.41119 3664.5444 9008228
870.53064 920.59424 3657.3262 9074019
894.99774 923.47614 3668.7754 8876384
914.82617 921.54858 3661.1177 8546907
940.47394 925.43652 3676.5637 6375991
951.63074 915.21216 3635.9443 5652268
965.87573 908.34467 3608.6614 7691335
994.06335 914.60297 3633.5242 7297346
1023.706 921.90607 3662.5378 5980974
1035.201 912.90228 3626.7678 8217938
1077.5538 930.92365 3698.3625 8283475
1101.0077 932.22455 3703.531 8283990
1115.6571 926.16583 3679.4609 8415575
1137.3904 926.10712 3679.2275 8876129
1159.9745 926.73047 3681.7041 9073506
1173.9867 920.60889 3657.3845 9336679
1203.2238 926.43188 3680.5178 9073507
1227.9952 928.67041 3689.4109 9468265
1240.6115 921.79883 3662.1118 9402472
1257.6801 918.41498 3648.6685 9468265
1282.1255 920.44141 3656.719 9665644
1299.9879 917.75299 3646.0386 9797230
1311.7581 910.92188 3618.8999 9336422
1348.7452 921.54022 3661.0845 8941664
1364.5684 917.59088 3645.3943 8810335
1387.7594 918.64185 3649.5696 8810591
1405.3065 915.98181 3639.002 8481883
1425.7281 915.2475 3636.0847 8481883
1447.3506 915.29437 3636.271 8810848
1471.1018 916.6665 3641.7219 9271398
1497.3436 919.52838 3653.0916 9337192
1518.1221 919.00128 3650.9978 9468778
1538.1646 918.04987 3647.218 9336422
1578.6682 929.16772 3691.387 8876128
1579.7968 917.12323 3643.5369 8678749
1603.7959 918.50159 3649.0125 8612956
1614.714 912.45148 3624.9766 8810335
1645.7816 917.79681 3646.2124 8679005
1658.8745 913.10956 3627.5911 8745055
1699.1394 923.30756 3668.1055 8416090
1705.0747 914.82886 3634.4216 8086612
1731.1311 917.22272 3643.9319 8021076
1773.5468 928.11859 3687.2188 8547676
1768.5834 914.2569 3632.1494 7626319
1797.33 917.94513 3646.802 8482141
1819.4025 918.17773 3647.7261 8745570
1833.8867 914.62036 3633.593 8547933
1854.506 914.1698 3631.803 8021589
1880.543 916.36945 3640.542 8810591
1906.8756 918.66168 3649.6484 8745055
1920.3292 914.7674 3634.1775 8087123
1942.0779 914.86713 3634.5735 8217939
1967.6143 916.72943 3641.9722 8152146
1995.5044 919.63599 3653.5193 7166020
2043.7687 931.76904 3701.7212 6902849
2059.0452 928.76459 3689.7852 8021330
2072.6106 925.05963 3675.0662 8218709
2108.5342 931.30701 3699.8857 8284759
2114.645 924.39343 3672.4194 7823438
2125.6284 919.729 3653.8889 7758158
2166.0269 927.75775 3685.7854 7166021
2187.2424 927.49188 3684.729 7231557
2210.4717 928.07654 3687.0518 7034178
2226.0354 925.46295 3676.6685 7626315
2253.6863 927.87659 3686.2573 7823695
2278.2065 928.96716 3690.5901 7626831
2297.0354 927.7384 3685.7085 7758160
2305.4631 922.37158 3664.3872 7692110
2315.0073 917.54718 3645.2209 7626314
2315.6096 909.30096 3612.4602 6179640
2320.8943 903.02747 3587.5371 6442557
2350.4976 906.24402 3600.3157 5586225
2336.488 892.73895 3546.6628 8154981
2337.7151 885.24438 3516.8887 7496022
2406.8579 903.37341 3588.9114 7298386
2430.8796 904.39764 3592.9805 7824215
2424.7441 894.28162 3552.7917 8021595
2426.052 887.06152 3524.1077 7890008
2419.4839 877.10938 3484.5701 7626580
2510.6887 902.47021 3585.3235 7495765
2472.6399 881.33496 3501.3574 7693143
2471.6907 873.66504 3470.8865 7890779
2517.3433 882.45813 3505.8196 8417382
2517.0579 875.13531 3476.7275 9930880
2522.9844 870.07373 3456.6189 11115151
2521.8779 862.68787 3427.2764 11378062
2559.1172 868.4325 3450.0986 9601652
2548.7161 858.04761 3408.8416 9404272
2576.0227 860.42072 3418.2695 8548705
2632.54 872.4375 3466.0095 9470064
2645.9614 870.09644 3456.7092 9601653
2758.4402 900.11523 3575.9673 9009001
2746.6252 889.42676 3533.5042 8680547
2771.3206 890.63348 3538.2983 8153433
2850.4758 909.19281 3612.0305 8416606
2841.0225 899.42334 3573.2185 8810849
2884.6104 906.46619 3601.1982 7165767
2955.8577 922.03351 3663.0439 6309429
3030.5979 938.45538 3728.2849 6309430
3033.1406 932.44482 3704.406 6375222
3048.2964 930.37018 3696.1641 7164991
3106.1584 941.26666 3739.4534 8678487
3125.7891 940.50531 3736.4287 8810588
3119.9121 932.13379 3703.1704 10652533
3195.3831 948.01385 3766.2585 11573381
3207.2815 944.94342 3754.0603 11837321
3208.9744 938.92938 3730.168 12363665
3206.4585 931.77441 3701.7427 13086874
3258.2871 940.40167 3736.0171 13153181
3225.9797 924.79309 3674.0073 13021593
3214.3354 915.27759 3636.2043 12560787
3194.9563 903.70093 3590.2126 11310975
3183.6299 894.5401 3553.8188 9863530
3198.2368 892.73877 3546.6621 7889741
3239.647 898.39368 3569.1279 8086867
3292.5544 907.14288 3603.8867 8218709
3230.6873 884.36121 3513.3799 6969414
3249.158 883.72192 3510.8401 7298122
3285.1289 887.82037 3527.1223 7429708
3304.5891 887.43292 3525.5833 7560524
3289.9429 877.94897 3487.9053 7296837
3382.5918 897.03717 3563.739 7033922
3357.5557 884.87299 3515.4133 7362888
0 0 0 0
0 0 0 0
0 0 0 0
0 0 0 0
0 0 0 0
0 0 0 0
0 0 0 0
-3263.4556 940.60645 3650.8757 274
-3151.8792 914.51044 3549.5864 274
-2951.8184 862.21765 3346.6169 274
-3095.5981 910.3316 3533.3669 274
-3095.1626 916.40247 3556.9302 18
-3082.4404 918.89374 3566.5996 17
-3025.2485 908.07104 3524.5928 16
-3035.4438 917.46588 3561.0579 16
-2958.0688 900.33875 3494.5803 16
-2941.541 901.62054 3499.5557 18
-2907.012 897.36377 3483.0332 18
-2886.5403 897.41644 3483.2378 16
-2875.5303 900.43274 3494.9451 16
-2853.7561 900.0976 3493.6445 16
-2822.822 896.84735 3481.0291 16
-2800.2439 896.22375 3478.6082 16
-2778.6565 895.9101 3477.3911 18
-2759.8564 896.49738 3479.6704 18
-2749.9651 900.00909 3493.3008 18
-2727.6067 899.46289 3491.1807 18
-2739.2949 910.22137 3532.939 18
-2517.1851 842.86011 3271.4827 18
-2663.3762 898.73328 3488.3491 18
-2649.8323 901.15765 3497.759 18
-2628.2307 900.8584 3496.5974 18
-2600.9333 898.58655 3487.7793 19
-2573.5928 896.26324 3478.7617 18
-2416.7156 848.42657 3293.0881 20
-2538.8948 898.57568 3487.7373 20
-2523.572 900.4834 3495.1418 21
-2495.6082 897.87463 3485.0164 21
-2484.7607 901.43201 3498.8237 21
-2453.531 897.59247 3483.9211 21
-2434.5957 898.22394 3486.3718 21
-2422.251 901.31824 3498.3823 21
-2397.5903 899.84387 3492.6597 21
-2377.1497 899.94141 3493.0383 21
-2348.2024 896.79193 3480.8137 21
-2329.8762 897.67877 3484.2561 21
-2324.1257 903.47021 3506.7346 21
-2302.0515 902.9632 3504.7671 21
-2287.0718 905.25507 3513.6626 21
-2265.0828 904.78912 3511.8542 21
-2138.0645 861.9715 3345.6616 21
-2108.834 858.14502 3330.8096 21
-2091.8708 859.28528 3335.2354 21
-2170.1125 899.9281 3492.9863 21
-2154.9592 902.25043 3502.0005 21
-1998.2902 844.79126 3278.978 21
-1963.2609 838.13257 3253.1331 21
-1986.9585 856.66156 3325.0515 21
-1965.9238 856.08252 3322.804 21
-1904.1699 837.58063 3250.9907 21
-1907.3734 847.56537 3289.7454 21
-1894.9865 850.75677 3302.1328 21
-1976.5427 896.63086 3480.1887 21
-1849.2228 847.7196 3290.3442 21
-1837.4591 851.30359 3304.2549 21
-1842.1547 862.67249 3348.3823 21
-1792.4139 848.51917 3293.4475 21
-1766.9347 845.66589 3282.373 21
-1781.8899 862.31671 3347.0015 21
-1766.229 864.3595 3354.9302 21
-1747.0371 864.70111 3356.2561 21
-1726.8223 864.53839 3355.6245 23
-1707.6365 864.89313 3357.0017 23
-1690.7928 866.45642 3363.0696 23
-1675.1351 868.67212 3371.6692 23
-1728.73 907.28687 3521.5488 23
-1706.0245 906.31152 3517.7632 23
-1696.8523 912.59033 3542.1338 23
-1600.7234 871.67419 3383.3218 23
-1653.2314 911.68707 3538.6279 23
-1618.4163 903.95441 3508.6143 23
-1619.9784 916.60303 3557.7087 22
-1599.3705 916.87592 3558.7678 21
-1591.2477 924.409 3588.0066 21
-1476.5725 869.4079 3374.5251 21
-1538.1776 918.1156 3563.5798 21
-1517.8948 918.62146 3565.543 21
-1504.6603 923.46735 3584.3518 21
-1477.481 919.771 3570.0046 21
-1446.8344 913.77734 3546.7412 21
-1433.9844 919.01251 3567.061 21
-1414.1481 919.85999 3570.3503 21
-1392.6224 919.61761 3569.4097 21
-1366.099 916.01672 3555.4329 21
-1347.4581 917.67114 3561.8545 21
-1327.4351 918.422 3564.769 21
-1307.8612 919.513 3569.0034 21
-1288.291 920.64252 3573.3875 21
-1272.3507 924.44702 3588.1545 21
-1253.2074 926.01416 3594.2371 21
-1228.3392 923.33215 3583.8271 21
-1207.0098 923.26251 3583.5569 21
-1186.5421 923.86157 3585.8818 21
-1167.3975 925.53119 3592.3625 21
-1147.9012 926.97913 3597.9824 21
-1130.5702 930.26337 3610.7297 23
-1107.1407 928.55957 3604.1167 23
-1084.5768 927.52875 3600.116 23
-1065.4342 929.44147 3607.5398 23
-1054.295 938.55725 3642.9219 23
-1030.6622 936.69946 3635.7112 23
-1009.063 936.65002 3635.5193 23
-992.17725 941.06915 3652.6716 23
-969.02765 939.61163 3647.0146 23
-952.62811 944.78217 3667.0835 21
-931.84906 945.74927 3670.8372 21
-910.88043 946.56561 3674.0056 21
-890.15222 947.67792 3678.3228 21
-869.22333 948.62701 3682.0066 21
-770.83502 862.91278 3349.3149 21
-781.02789 897.43182 3483.2974 20
-747.94556 882.75018 3426.3123 19
-782.08032 948.79486 3682.6582 19
-732.53381 914.19763 3548.3723 18
-713.58624 916.87122 3558.7498 18
-666.77618 882.8175 3426.5735 19
-670.53345 915.67914 3554.1226 19
-625.32233 881.63239 3421.9734 21
-605.84637 882.80298 3426.5168 21
-585.79663 883.18976 3428.0181 21
-568.90668 888.53937 3448.7822 21
-550.36804 891.61682 3460.7271 21
-532.05481 895.31177 3475.0684 21
-511.27191 894.98096 3473.7849 23
-490.96106 895.48352 3475.7354 23
-470.97275 896.64423 3480.2402 23
-463.78995 923.40692 3584.1174 23
-436.84988 911.51392 3537.9558 23
-411.86121 902.69867 3503.7402 23
-397.6008 917.70959 3562.0037 23
-402.83658 981.92615 3811.2542 23
-366.90048 947.45276 3677.4492 23
-362.9722 996.49933 3867.8188 23
-340.63696 998.21747 3874.4873 23
-316.11697 993.31879 3855.4739 23
-293.66003 994.64459 3860.6199 23
-271.19437 996.16235 3866.5107 23
-249.69933 1001.8546 3888.6047 23
-226.84993 1002.7179 3891.9553 23
-204.17122 1004.6164 3899.3242 23
-180.8974 1003.6976 3895.7583 23
-160.69577 1022.0496 3966.9895 23
-135.87277 1012.262 3929 23
-114.14329 1026.2391 3983.2507 23
-91.173164 1033.442 4011.2085 23
-66.354668 1017.3856 3948.8867 23
-43.449329 1029.1482 3994.5425 23
-19.361158 1007.5181 3910.5869 21
3.8149648 1007.8222 3911.7673 21
27.036568 1009.3019 3917.5105 21
51.382168 1031.9893 4005.5696 21
73.441719 1008.933 3916.0786 21
96.235283 1004.6117 3899.3059 21
120.4876 1014.2432 3936.6902 21
143.55875 1012.4202 3929.614 21
166.89474 1012.7131 3930.7507 21
190.65443 1015.1901 3940.3655 21
214.88582 1019.3643 3956.5671 21
238.19351 1018.7667 3954.2473 21
261.26089 1017.3401 3948.7104 21
284.83148 1017.9466 3951.0642 21
309.98477 1023.6876 3973.3474 21
333.80649 1024.531 3976.6211 21
359.04114 1029.314 3995.1855 21
382.80063 1029.5376 3996.0537 21
406.4791 1029.5302 3996.0244 21
430.84842 1031.1768 4002.416 21
454.78412 1031.6678 4004.3223 21
478.14456 1030.8701 4001.2258 21
501.5589 1030.2584 3998.8516 21
526.422 1032.5437 4007.7214 21
546.79773 1026.21 3983.1375 19
575.44836 1035.2876 4018.3716 19
591.83154 1022.4506 3968.5459 19
614.96747 1021.8149 3966.0786 19
636.48297 1018.6328 3953.7278 19
660.74963 1019.9232 3958.7366 19
681.97797 1016.5961 3945.8225 19
698.5 1006.7067 3907.4375 19
716.24103 999.15234 3878.1162 18
731.70117 988.98499 3838.6523 18
745.27789 976.96173 3791.9854 18
762.51709 970.30286 3766.1396 65554
778.56287 962.54724 3736.0366 131084
786.85388 945.89838 3671.4158 327686
0 0 0 0
836.92084 953.36169 3700.3838 4008996
837.94507 930.15619 3610.314 7889748
854.4707 924.88495 3589.8542 8547674
878.47784 927.7713 3601.0571 7297349
894.39514 922.17944 3579.353 6441783
918.62415 925.21808 3591.1472 7428934
939.21515 924.53796 3588.5076 6441783
959.54742 923.63892 3585.0181 7889485
983.54688 926.2323 3595.0837 8547671
1012.9866 933.73035 3624.1868 8021071
1036.2986 935.38611 3630.6133 5849902
1072.1782 948.08746 3679.9124 5257507
1090.4489 945.02191 3668.0139 5520680
1109.2777 942.55054 3658.4214 6441526
1123.3972 936.24908 3633.9629 7494214
1139.2198 931.57727 3615.8298 6836541
1162.8037 933.30756 3622.5457 4204827
1191.0195 938.62549 3643.1868 6704445
1200.9633 929.61035 3608.1953 8941921
1225.4709 931.98676 3617.4192 8481370
1248.7839 933.38849 3622.8599 8810078
1264.4318 929.11053 3606.2551 9073506
1285.2316 928.69745 3604.6519 8941920
1300.8124 924.58832 3588.7029 9007714
1324.5997 926.35059 3595.543 9270885
1342.7471 924.17517 3587.0994 9139813
1364.9652 924.82587 3589.6248 8810848
1386.1873 924.79187 3589.4929 8416090
1403.9073 922.45795 3580.4341 8152918
1422.3025 920.63055 3573.3411 8415833
1442.205 919.81799 3570.1875 8942434
1455.8829 915.1167 3551.9395 8284504
1487.9193 921.92407 3578.3618 9402985
1503.2152 918.31348 3564.3479 9665387
1523.9563 918.08337 3563.4546 9139813
1543.1418 916.9353 3558.9983 9007970
1567.78 919.01447 3567.0684 9468265
1591.0336 920.2373 3571.8147 9073507
1612.3219 920.30627 3572.0825 9139300
1633.2094 920.14777 3571.467 9139813
1660.6373 923.6311 3584.9873 8613469
1677.9189 921.45428 3576.5383 8416089
1697.2593 920.4483 3572.6338 8152664
1725.5624 924.26776 3587.4587 8481372
1739.6194 920.45654 3572.6658 8744800
1750.8762 915.27319 3552.5471 8613472
1797.1274 928.28906 3603.0669 7955799
1815.7708 926.90607 3597.699 7824212
1821.6952 919.13782 3567.5471 8745570
1859.6809 927.53888 3600.155 8810593
1876.2858 925.20624 3591.1011 8152918
1909.7789 931.16022 3614.2112 8152403
1906.9938 919.48993 3568.9141 7955024
1926.8525 918.87421 3566.5239 7757645
1947.9885 918.87421 3566.5239 8020816
1988.7673 928.04028 3602.1013 7033922
2024.6085 934.73218 3628.0752 6112820
2053.8384 938.26306 3641.7803 7560010
2064.2097 933.19495 3622.1086 6178869
2093.3127 936.61224 3635.3728 8086866
2081.7952 921.97015 3578.5408 7758158
2130.6843 934.10614 3625.6453 7429193
2149.5671 932.97614 3621.2595 5323047
2151.208 924.45886 3588.2004 5849648
2156.22 917.54291 3561.3567 7362887
2208.5449 930.69922 3612.4216 7363143
2218.5247 925.92944 3593.9082 7166021
2229.1775 921.52869 3576.8271 6113333
2265.5071 927.72546 3600.8792 6902849
2275.3918 923.07843 3582.8423 7363913
2290.1028 920.45715 3572.668 7495756
2292.9976 913.17816 3544.4153 7758927
2322.0095 916.33795 3556.6799 7166795
2343.0779 916.33441 3556.666 2234385
2380.8042 922.78735 3581.7124 9403760
2408.5171 925.27942 3591.3853 8351843
2381.1055 906.73621 3519.4114 8286050
2400.5945 906.21985 3517.4072 8285539
2409.186 901.63397 3499.6079 8088161
2428.9866 901.28564 3498.2556 8351334
2420.2625 890.44855 3456.1924 7364950
2402.949 876.65973 3402.6724 8746862
2418.4385 874.96814 3396.1067 8550253
2418.332 867.70862 3367.9297 10128256
2455.5488 873.85016 3391.7673 8680040
2429.1221 857.427 3328.0227 8877672
2462.2905 862.13495 3346.2959 8417373
2525.3386 877.14594 3404.5596 10061683
2549.1545 878.40021 3409.4277 10982782
2556.3223 873.94299 3392.1279 8811361
2610.4248 885.47607 3436.8923 7167047
2626.1296 883.90656 3430.8005 8483422
2655.4495 886.90863 3442.4529 8219741
2708.6426 897.77771 3484.6399 9470322
2708.4438 890.91949 3458.0203 12035734
2722.033 888.66547 3449.2717 11837839
2742.8057 888.77289 3449.6887 8219223
2836.6086 912.36829 3541.272 8810591
2843.3408 907.81726 3523.6077 8415833
2916.5461 924.40131 3587.9771 7955539
2957.4453 930.57983 3611.9585 7626061
3005.7556 938.98486 3644.5818 6968128
3022.1675 937.37616 3638.3376 6836288
3073.4326 946.52405 3673.8442 7626059
3067.1626 937.94873 3640.5598 7757388
3098.0303 940.77063 3651.5129 8942173
3061.895 923.34802 3583.8887 10323823
3132.4778 938.12555 3641.2466 11639427
3143.7756 935.06781 3629.3779 11442049
3115.7009 920.42017 3572.5247 9797223
3112.9988 913.41522 3545.3354 12297614
3177.8567 926.19464 3594.9375 12626322
3172.3909 918.44434 3564.8557 12758421
3184.5618 915.86896 3554.8594 12955800
3213.7944 918.2019 3563.9146 11969161
3244.3159 920.87018 3574.2715 11508097
3247.6287 915.83118 3554.7126 10323823
3240.9065 908.04541 3524.4932 9205603
3236.5239 901.01074 3497.1887 8745052
3240.7405 896.44421 3479.4641 8021330
3287.1897 903.54382 3507.0205 7560782
3267.2959 892.43317 3463.8955 7099715
3314.9377 899.79297 3492.4619 7231044
3327.9595 897.72247 3484.4255 7889488
0 0 0 0
0 0 0 0
0 0 0 0
0 0 0 0
0 0 0 0
0 0 0 0
0 0 0 0
-3228.5754 951.9577 3611.8547 274
-2968.2434 881.03894 3342.7793 274
-2889.9348 863.55865 3276.4565 274
-3052.6455 918.34943 3484.3401 274
-3048.2021 923.25781 3502.9634 18
-3024.3447 922.31305 3499.3789 18
-2999.9316 921.18463 3495.0974 18
-2984.3596 922.77417 3501.1282 18
-2945.4744 917.12695 3479.7019 18
-2939.481 921.71368 3497.1045 18
-2912.3799 919.70007 3489.4648 18
-2924.3174 930.07379 3528.824 16
-2878.8142 922.19647 3498.9363 16
-2848.6113 919.14166 3487.3462 16
-2818.3201 916.01355 3475.4775 16
-2807.9302 919.35522 3488.1565 16
-2796.478 922.39618 3499.6941 17
-2799.0066 930.12842 3529.0315 17
-2744.3643 918.83594 3486.186 18
-2753.8516 929.00598 3524.7725 18
-2713.5176 922.396 3499.6934 18
-2713.0386 929.33624 3526.0256 19
-2684.239 926.60791 3515.6738 19
-2643.3088 919.61652 3489.1479 19
-2611.4062 915.68048 3474.2139 19
-2589.4141 915.18457 3472.3323 19
-2570.8362 915.89697 3475.0354 21
-2555.4871 917.78058 3482.1821 21
-2536.3896 918.33777 3484.2959 21
-2542.6167 928.14832 3521.5186 21
-2525.7122 929.60767 3527.0554 21
-2505.8486 929.99304 3528.5178 21
-2449.5771 916.75928 3478.3069 21
-2425.0911 915.29755 3472.7607 21
-2405.5171 915.68048 3474.2141 21
-2386.0281 916.10291 3475.8167 21
-2365.6587 916.19153 3476.1528 21
-2344.7595 916.07489 3475.7102 21
-2329.6504 918.23822 3483.9182 21
-2309.8408 918.57111 3485.1812 21
-2285.8003 917.21216 3480.0251 21
-2270.8914 919.52606 3488.8044 21
-2247.5417 918.43323 3484.6582 21
-2228.7776 919.21143 3487.6106 21
-2208.4412 919.34949 3488.1345 21
-2183.7188 917.64728 3481.676 21
-2169.5251 920.37909 3492.041 21
-2150.5251 921.10486 3494.7947 20
-2045.0397 884.44147 3355.689 20
-2013.698 879.43866 3336.7075 21
-2094.3955 923.75256 3504.8403 22
-2073.8186 923.83868 3505.1672 23
-2055.4758 924.93213 3509.3159 23
-2035.0109 925.08301 3509.8882 23
-1871.3911 859.48907 3261.0164 23
-1875.1493 870.20154 3301.6609 23
-1850.7871 867.95251 3293.1277 21
-1864.1294 883.526 3352.2153 21
-1809.6624 866.94971 3289.323 21
-1750.7861 847.8772 3216.9592 21
-1762.6992 863.04425 3274.5049 21
-1768.9591 875.75024 3322.7131 21
-1860.6041 931.48932 3534.1948 21
-1707.0454 864.34161 3279.4275 20
-1802.9587 923.41931 3503.5759 23
-1677.9935 869.42834 3298.7273 23
-1764.8789 925.22589 3510.4304 23
-1726.2974 915.79468 3474.6472 23
-1640.3495 880.70483 3341.5115 23
-1648.7031 896.00659 3399.5684 23
-1693.5471 931.76331 3535.2344 23
-1560.8097 869.48962 3298.9597 23
-1562.9136 881.70563 3345.3088 23
-1549.7177 885.49341 3359.6802 22
-1534.3684 888.13342 3369.6968 21
-1515.2566 888.63654 3371.6055 21
-1494.6204 888.24695 3370.1274 21
-1554.8752 936.57123 3553.4763 21
-1462.4675 893.00452 3388.1782 21
-1510.3978 935.11017 3547.9326 21
-1426.1105 895.39099 3397.2329 21
-1400.5448 891.93109 3384.1057 21
-1388.7723 897.28241 3404.4089 21
-1367.3348 896.45477 3401.269 21
-1413.9298 940.87341 3569.7993 21
-1399.5244 945.43335 3587.1001 21
-1372.1835 941.26062 3571.2683 21
-1380.8638 962.05328 3650.1587 21
-1338.5731 947.43103 3594.6797 21
-1320.4604 949.72559 3603.3855 21
-1298.7502 949.46539 3602.3984 21
-1274.9137 947.61615 3595.3821 21
-1254.2616 948.11127 3597.2605 21
-1234.3944 949.22693 3601.4937 21
-1213.5781 949.63934 3603.0583 21
-1189.2356 947.25769 3594.022 21
-1178.0963 955.49768 3625.2859 20
-1153.4451 952.88141 3615.3591 20
-1132.2437 953.06982 3616.074 23
-1115.0068 956.6673 3629.7234 23
-1087.3367 951.27844 3609.2771 23
-1068.2384 953.323 3617.0347 23
-1055.0306 960.81573 3645.4631 23
-1033.9735 961.32422 3647.3921 23
-1014.0403 962.9212 3653.4517 23
-992.69019 963.21338 3654.5601 23
-970.74078 962.92401 3653.4622 23
-952.97595 966.86694 3668.4224 21
-931.53296 967.17523 3669.5918 21
-911.36407 968.85272 3675.9563 21
-893.57404 973.20319 3692.4626 21
-869.03156 970.23322 3681.1943 21
-847.41736 970.46381 3682.0691 21
-827.00952 972.12463 3688.3704 21
-803.47925 970.10553 3680.7097 18
-788.02997 978.00305 3710.6741 18
-754.93597 963.8269 3656.8877 18
-744.47021 978.55603 3712.7722 18
-663.50232 898.68976 3409.749 18
-651.99103 910.83765 3455.8396 18
-625.91638 902.76849 3425.2241 19
-604.99274 901.83679 3421.689 21
-584.3161 901.22137 3419.3542 21
-563.80078 900.81958 3417.8298 21
-545.52795 904.10419 3430.292 21
-526.66327 906.62433 3439.8538 21
-507.27103 908.40277 3446.6011 23
-486.57758 907.90234 3444.7026 23
-468.2529 911.97162 3460.1421 23
-447.4458 911.35742 3457.8118 23
-427.50488 912.5332 3462.2727 23
-407.68369 914.09589 3468.2019 23
-389.72064 920.21204 3491.4072 23
-370.97421 925.06061 3509.8032 23
-348.65714 921.05243 3494.5959 23
-331.22351 930.25354 3529.5059 23
-307.86227 922.92487 3501.7 23
-288.25784 926.61316 3515.6941 23
-268.32233 929.72894 3527.5156 23
-247.2869 929.23822 3525.6536 23
-248.90373 1021.6337 3876.2146 23
-223.40416 1010.2012 3832.8381 23
-201.59602 1014.762 3850.1423 23
-180.73314 1025.8523 3892.2207 23
-162.65718 1058.3207 4015.4099 23
-138.23013 1053.5125 3997.1667 23
-116.26027 1069.3158 4057.1267 23
-91.635162 1062.5706 4031.5344 23
-67.11097 1052.6503 3993.8955 23
-43.59903 1056.4481 4008.3052 22
-19.844332 1056.4148 4008.1787 21
3.8808503 1048.8101 3979.325 21
27.456327 1048.5483 3978.3323 21
50.955753 1046.9658 3972.3281 21
72.575768 1019.9704 3869.9038 21
98.411972 1050.9651 3987.5017 21
121.51565 1046.4259 3970.2795 21
141.78703 1022.9258 3881.1169 21
164.68608 1022.2972 3878.7317 21
190.32526 1036.7485 3933.5625 21
211.41632 1025.9749 3892.6853 21
234.69003 1026.8712 3896.0862 21
258.07489 1028.0496 3900.5571 21
287.52145 1051.1962 3988.3784 21
305.37933 1031.6757 3914.3152 21
329.43005 1034.3562 3924.4851 21
353.47324 1036.6608 3933.2295 21
376.58801 1036.1261 3931.2004 21
402.08173 1041.8174 3952.7942 21
427.67093 1047.1161 3972.8982 21
449.41748 1042.9442 3957.0696 21
473.10446 1043.4661 3959.0493 21
497.63834 1045.718 3967.5938 21
524.41193 1052.2609 3992.4185 21
546.58362 1049.4037 3981.5774 19
573.26385 1055.0807 4003.1169 19
596.17981 1053.6538 3997.7034 19
620.06329 1053.9806 3998.9431 19
642.19092 1051.4087 3989.1846 19
657.48517 1038.2286 3939.1782 19
677.3114 1032.8636 3918.8225 19
692.27765 1020.6887 3872.6294 19
712.86963 1017.3237 3859.8616 19
727.54742 1005.9902 3816.8611 19
742.51575 995.72974 3777.9316 19
757.77643 986.4505 3742.7249 19
775.0069 980.19031 3718.9729 65555
794.70026 977.30524 3708.0266 65549
793.01196 948.98816 3600.5876 196616
813.49609 947.99335 3596.8132 984582
829.07892 941.4834 3572.1138 5325115
842.15173 932.51843 3538.0994 7561557
864.82684 934.36328 3545.0989 8613728
881.58032 929.87451 3528.0681 7560009
904.13947 931.57574 3534.5227 7231298
926.16193 932.65936 3538.6343 7165762
941.66083 927.27124 3518.1909 8349778
971.68939 936.1142 3551.7422 8744794
991.14484 934.61206 3546.043 8876380
1020.4355 942.25409 3575.0376 7823694
1044.5575 944.90967 3585.1133 7757902
1063.9205 943.24017 3578.7791 8086868
1085.9408 943.94568 3581.4558 8153175
1100.8594 938.5694 3561.0574 8218711
1115.6251 933.26746 3540.9414 8613213
1124.4774 923.30585 3503.1455 8745055
1144.8289 922.97626 3501.8948 8876640
1169.4877 926.06909 3513.6294 9074020
1196.5972 930.96033 3532.1877 8942434
1227.8734 938.86951 3562.1963 8679262
1244.7173 935.66241 3550.0278 8810591
1262.5497 933.29254 3541.0364 9007713
1275.6069 927.52814 3519.1655 8941921
1296.5243 927.57245 3519.3337 9073763
1319.3605 928.96649 3524.623 9337192
1350.1121 935.80359 3550.5637 9337192
1365.4209 931.89111 3535.7192 8942177
1381.3057 928.48407 3522.7925 8613469
1404.5786 930.07062 3528.8123 7955282
1425.3691 929.99121 3528.5105 8547676
1435.2344 922.88861 3501.5627 8942434
1460.6328 925.83441 3512.7393 8416089
1474.3767 921.41394 3495.9673 8547165
1490.9553 918.86298 3486.2888 8876130
1511.4697 918.77417 3485.9519 8941922
1535.9675 921.07648 3494.687 8876130
1557.8722 921.78333 3497.3687 9336937
1583.6709 924.74512 3508.6064 9271399
1597.4067 920.67786 3493.1748 8745055
1625.7092 925.00293 3509.5842 8876384
1650.1785 927.06512 3517.4087 9008227
1667.2971 924.9978 3509.5649 8679008
1681.6367 921.45868 3496.137 8744801
1714.1029 927.81732 3520.2625 8679008
1743.8523 932.57019 3538.2957 8942180
1754.4536 927.09167 3517.5098 8020564
1762.1547 920.2276 3491.4661 6704955
1792.2925 925.10345 3509.9658 5783854
1816.3307 926.75531 3516.2332 5323561
1850.0171 933.23669 3540.8245 7823695
1869.4457 932.46094 3537.8813 8283988
1879.1482 926.90515 3516.8015 7955537
1903.7671 928.74799 3523.7937 8416088
1919.1886 926.11261 3513.7947 7692365
1920.5627 916.82794 3478.5676 7297350
1967.4183 929.22174 3525.5911 7626572
1987.6041 928.89105 3524.3364 7758158
2034.5255 940.93188 3570.0212 7955537
2025.6167 927.17023 3517.8076 8679003
2041.979 925.13831 3510.0981 8284501
2080.4409 933.05878 3540.1494 7889744
2105.0288 934.66089 3546.228 8087124
2123.4346 933.51349 3541.8748 4796705
2147.521 934.86145 3546.989 5191206
2158.8733 930.69366 3531.1758 5454378
2150.3647 918.12598 3483.4924 6244407
2187.707 925.18762 3510.2854 6704957
2198.3513 920.93213 3494.1394 7889744
2235.8003 927.88019 3520.5012 8021846
2262.645 930.33966 3529.8328 8218969
2270.1465 924.87354 3509.0935 7956052
2284.3992 922.23199 3499.0713 7626833
2290.0435 916.19403 3476.1624 7495504
2340.0073 927.83691 3520.3372 7100746
2384.5674 937.15033 3555.6733 7166539
2403.282 936.23218 3552.1897 6640193
2377.4778 918.13745 3483.5361 6245181
2381.3806 911.72797 3459.2175 7231822
2396.2583 909.59381 3451.1201 8416353
2407.1064 905.97913 3437.4055 6772299
2397.6123 894.83295 3395.1155 7890778
2398.3928 887.67505 3367.9575 4008229
2428.7158 891.47925 3382.3911 8880248
2436.9487 887.17902 3366.0754 9141359
2477.6116 894.659 3394.4558 7759960
2482.9822 889.37738 3374.4163 8614756
2532.8743 899.99976 3414.719 7167046
2546.7932 897.77271 3406.2693 9535338
2570.1033 898.86523 3410.4148 8482393
2576.2466 893.9837 3391.8933 7561036
2573.3376 886.06085 3361.833 7955541
2634.9746 900.31354 3415.9097 10522237
2678.3193 908.14661 3445.6294 8021589
2668.345 897.91882 3406.8237 8811876
2705.9065 903.72064 3428.8369 10587518
2689.0713 891.40405 3382.106 8350555
2759.2246 907.89227 3444.6643 8481372
2822.4644 921.88025 3497.7366 8415577
2867.5522 929.77856 3527.7039 8152918
2881.613 927.57513 3519.344 8020562
2924.4036 934.58496 3545.9399 7560009
2963.344 940.27301 3567.5212 7626058
3007.9194 947.65576 3595.5325 7494217
2997.8657 937.84473 3558.3081 6507322
3034.6226 942.71246 3576.7769 6968385
3024.5205 933.05688 3540.1423 7824203
3043.2815 932.37726 3537.5635 9139809
3048.0466 927.44818 3518.8621 9074272
3020.8916 912.93951 3463.8145 7955791
3016.9512 905.59509 3435.9487 10983295
3055.6377 911.05859 3456.6777 11706506
3092.042 915.7735 3474.5667 12430483
3134.8037 922.29639 3499.3154 12956057
3133.78 915.93591 3475.1831 12824216
3167.4036 919.71912 3489.5371 13350302
3158.9509 911.31482 3457.6501 12034442
3179.1404 911.22845 3457.3223 11508099
3218.1279 916.49677 3477.311 9994861
3220.634 911.37445 3457.8762 9205089
3234.0068 909.37262 3450.281 9007966
3255.4841 909.66046 3451.3733 8350039
3276.698 909.87158 3452.1743 7823952
3319.7876 916.11682 3475.8694 7823953
0 0 0 0
0 0 0 0
0 0 0 0
0 0 0 0
0 0 0 0
0 0 0 0
0 0 0 0
-3199.2515 964.52179 3579.0498 274
-2964.1768 899.61475 3338.1995 274
-2896.0627 884.8479 3283.4043 18
-3030.6238 932.22443 3459.2043 18
-3015.6331 933.93066 3465.5354 18
-2982.0994 929.87823 3450.498 18
-2973.9822 933.74982 3464.8645 18
-2952.9102 933.57959 3464.2329 18
-2923.9023 930.88043 3454.217 18
-2883.7559 924.57202 3430.8086 18
-2879.4746 929.75464 3450.0393 18
-2880.3484 936.68762 3475.7659 16
-2854.4541 934.95294 3469.3289 16
-2845.1138 938.6546 3483.0645 16
-2812.8975 934.8078 3468.7903 17
-2786.323 932.79327 3461.3149 18
-2788.1008 940.31085 3489.2104 18
-2784.2817 946.03912 3510.4663 18
-2738.4368 937.46655 3478.6562 18
-2718.9558 937.85779 3480.1079 18
-2526.575 878.16034 3258.5886 18
-2615.7256 916.14868 3399.552 19
-2490.9573 879.22076 3262.5237 19
-2521.7527 897.05328 3328.6946 19
-2582.5549 925.92535 3435.8301 19
-2572.5781 929.67822 3449.7559 19
-2563.3994 933.78186 3464.9832 21
-2550.8416 936.71088 3475.8521 21
-2513.1567 930.3855 3452.3804 21
-2498.1921 932.4364 3459.9907 21
-2472.3984 930.44592 3452.6047 21
-2468.554 936.7514 3476.0027 21
-2453.7375 938.96442 3484.2144 21
-2432.2432 938.638 3483.0029 21
-2395.5823 932.40271 3459.8657 21
-2379.1143 933.98712 3465.7449 21
-2357.8809 933.71204 3464.7244 21
-2333.1567 932.0376 3458.511 21
-2319.7068 934.87738 3469.0483 21
-2299.0149 934.823 3468.8467 21
-2279.5469 935.26978 3470.5046 21
-2266.4531 938.36389 3481.9861 21
-2236.5522 934.49237 3467.6199 21
-2217.928 935.30432 3470.6328 21
-2198.196 935.6601 3471.9529 21
-2175.8342 934.89252 3469.1047 21
-2159.7612 936.83832 3476.325 21
-2139.0259 936.77966 3476.1074 21
-2114.5486 935.06525 3469.7456 20
-2101.0837 938.23456 3481.5061 20
-2078.522 937.36444 3478.2771 22
-2062.3264 939.37659 3485.7434 23
-2040.4867 938.83246 3483.7246 23
-2020.3113 939.05078 3484.5349 23
-2000.2375 939.32153 3485.5393 23
-1855.7437 880.55981 3267.4924 23
-1955.0631 937.46954 3478.6672 21
-1829.9731 886.83917 3290.7932 21
-1813.1677 888.15997 3295.6943 21
-1790.5646 886.63879 3290.0496 21
-1768.7617 885.48462 3285.7668 21
-1755.743 888.7514 3297.8889 21
-1739.1017 890.2373 3303.4026 21
-1727.6127 894.42438 3318.9395 21
-1695.4307 887.87146 3294.6235 23
-1685.2535 892.82355 3312.9995 21
-1667.767 893.97437 3317.2698 21
-1652.2151 896.20215 3325.5364 22
-1635.1233 897.63831 3330.8655 22
-1617.5421 898.83759 3335.3154 21
-1595.8571 897.75787 3331.3091 23
-1578.3197 899.01367 3335.969 23
-1554.6228 896.74829 3327.563 23
-1545.4081 902.8858 3350.3374 22
-1611.1548 953.54834 3538.3308 21
