# .PCD v0.7 - Point Cloud Data file format
VERSION 0.7
FIELDS x y z rgb
SIZE 4 4 4 4
TYPE F F F U
COUNT 1 1 1 1
WIDTH 1365
HEIGHT 1
VIEWPOINT 0 0 0 1 0 0 0
POINTS 1365
DATA ascii
369.22849 578.79498 3429.9902 19
395.84192 588.13556 3485.343 17
416.37033 587.95691 3484.2844 14
437.44504 588.53027 3487.6819 196616
613.47418 788.11884 4670.4614 2365725
637.76593 783.95618 4645.793 7694953
665.69183 784.42035 4648.5439 9997188
706.45184 799.36975 4737.1357 10325895
742.33813 807.87262 4787.5239 10193793
775.34515 812.73126 4816.3169 10259586
803.89166 812.73523 4816.3403 9403504
823.92004 804.42242 4767.0781 9732728
851.23639 803.54047 4761.8511 9272434
887.63916 811.01709 4806.1587 10457478
914.40417 809.49677 4797.1489 10786443
945.72937 811.98346 4811.8853 10917772
985.60907 821.45435 4868.0107 9798777
1013.3228 820.53516 4862.5635 8745573
1041.4142 819.96417 4859.1797 8745316
1068.9333 818.98547 4853.3799 9402989
1087.5226 811.39545 4808.4009 9008232
1155.4067 840.03278 4978.1079 9205355
1169.7726 829.30249 4914.5195 9468784
1186.4453 820.68939 4863.4775 9139819
1220.8531 824.46161 4885.832 9205099
1259.0586 830.56415 4921.9961 9336428
1279.0026 824.61658 4886.7505 9007462
1312.2966 827.34912 4902.9434 9138790
1341.1997 827.25482 4902.3848 9335656
1375.0083 830.12616 4919.4009 9006435
1409.0779 833.03259 4936.6245 9138533
1426.2548 826.03699 4895.168 9270376
1460.1228 828.79474 4911.5103 9204584
1486.6323 827.3493 4902.9448 9270632
1526.6119 833.31207 4938.2808 9468012
1554.5358 832.59363 4934.0229 8942180
1587.8994 834.76141 4946.8696 9007717
1629.5729 841.13983 4984.6689 10192247
1647.1733 835.08661 4948.7969 8350558
1688.8123 841.21899 4985.1382 9008234
1721.47 842.7439 4994.1743 9271661
1756.8341 845.51959 5010.6235 10654084
1782.9231 843.81342 5000.5127 10522241
1814.9574 844.93085 5007.1348 9995385
1836.0205 840.987 4983.7627 9271662
1869.6847 842.84845 4994.7939 8811109
1911.1027 848.09277 5025.8726 9008230
1923.5503 840.51733 4980.9795 8942181
1968.3359 847.08771 5019.9165 9995382
1976.1488 837.78784 4964.8047 10389626
2026.28 846.43854 5016.0693 9402473
2043.24 841.18274 4984.9229 9204837
2068.6423 839.50281 4974.9678 9401447
2119.2588 847.95898 5025.0796 9269857
2086.8772 823.43158 4879.728 8875098
2122.0396 825.86169 4894.1289 7230276
2159.5891 829.1427 4913.5728 11769721
2101.8618 796.24298 4718.606 11638648
2100.2656 785.19196 4653.1167 11243634
2124.8811 784.09985 4646.6445 11112311
2178.1343 793.4679 4702.1606 12296077
2198.6838 790.8363 4686.5654 12032134
2241.9783 796.34924 4719.2358 12229515
2245.2598 787.6889 4667.9141 11769482
2342.0488 811.64484 4809.8784 10848638
2408.2661 824.55719 4886.3984 8940899
2461.5889 832.80029 4935.2476 8678241
2519.2231 842.29138 4991.4927 8546142
2555.8345 844.61475 5005.2612 8414555
2604.4741 850.81415 5041.9995 7361866
2604.2146 841.08002 4984.3145 3414803
2624.938 838.26508 4967.6328 5454636
2636.7927 832.71185 4934.7236 7823440
2695.0139 841.76257 4988.3589 9336933
2723.6125 841.46484 4986.5947 6508604
2727.4792 833.61469 4940.0737 9402730
2716.717 821.50751 4868.3257 6903107
2807.9463 840.17194 4978.9326 11310466
2821.6096 835.48077 4951.1328 9402465
2877.7019 843.32025 4997.5898 10191209
2926.4575 848.87189 5030.4893 8480337
3076.2976 883.3371 5234.7334 10783093
3048.5996 866.64435 5135.8105 11112312
3093.478 870.70941 5159.9009 11047031
3134.4504 873.60632 5177.0679 13548700
3151.9976 869.98145 5155.5864 13811874
3234.2383 884.11072 5239.3179 9267291
3307.6211 895.57288 5307.2437 9333081
3340.6726 896.00195 5309.7866 9726302
3392.8115 901.49475 5342.3369 9264982
3395.9568 893.98816 5297.8525 8804945
3417.8279 891.5036 5283.1289 9134421
3553.1294 918.38275 5442.417 11436917
3548.7881 909.00928 5386.8687 13279121
3559.3877 903.59583 5354.7886 13082510
3460.4871 870.72583 5159.9976 12491399
3545.5312 884.31012 5240.4995 8874326
3586.9309 886.86755 5255.6553 8875357
3538.9905 867.48169 5140.7729 13946815
3544.8811 861.50934 5105.3804 13616045
3496.6121 842.58716 4993.2456 9994350
3568.5679 852.71014 5053.2354 13155743
3662.7039 867.92059 5143.374 11840647
3681.2043 865.10516 5126.6895 12630158
3774.293 879.72107 5213.3042 13878941
3734.6584 863.41528 5116.6748 13482638
3659.6316 839.2558 4973.5034 13285519
3652.3501 830.8941 4923.9512 13747366
3565.8247 804.78015 4769.1978 14143934
3451.5173 772.85602 4580.0127 14077886
3431.6868 762.42004 4518.168 11176572
3754.0669 827.58624 4904.3486 9794672
3927.0149 859.06177 5090.8755 9399913
4008.3472 870.16864 5156.6963 9466476
4015.9299 865.21832 5127.3599 9401966
4125.9824 882.25336 5228.311 5849144
4150.0474 880.78491 5219.6089 6772559
4136.3145 871.37537 5163.8472 4732460
4125.5063 862.71588 5112.5303 5522231
4068.7422 844.64233 5005.4248 7429715
4111.1499 847.26886 5020.9897 4205088
4119.061 842.79926 4994.5029 6179900
4126.5303 838.30377 4967.8618 12957074
4415.1851 890.59015 5277.7153 13746857
4478.8989 897.08704 5316.2163 13614761
4549.3188 904.82672 5362.083 12824225
4501.293 889.06476 5268.6758 11836049
4562.8213 895.00916 5303.9028 9006181
4714.854 918.50354 5443.1323 9269095
4743.0024 917.7085 5438.4209 9202792
4805.0449 923.43793 5472.3745 9136999
4858.1079 927.37665 5495.7153 8940130
4875.6289 924.52313 5478.8057 8348504
4946.8442 931.82184 5522.0581 8545883
4884.4429 914.02087 5416.5684 9598314
4902.8901 911.48279 5401.5273 10058606
4938.2729 912.10559 5405.2183 9598312
5104.5786 936.74628 5551.2407 7297099
5139.7231 937.15588 5553.6685 9138785
5109.3994 925.69916 5485.7744 9862250
4979.5874 896.47626 5312.5972 10389365
4983.1685 891.4845 5283.0156 11838093
4959.2661 881.66913 5224.8486 12035215
4912.0166 867.8504 5142.958 12627607
0 0 0 0
0 0 0 0
0 0 0 0
0 0 0 0
0 0 0 0
0 0 0 0
0 0 0 0
0 0 0 0
-2540.7776 499.80103 2861.3755 14
-2552.1482 505.41086 2893.4919 14
-2533.5459 505.12079 2891.8313 14
-2507.9634 503.42569 2882.1267 270
-2488.4216 502.92813 2879.2783 14
-2469.7424 502.59927 2877.3955 270
-2491.4756 510.54706 2922.8967 270
-2478.698 511.48471 2928.2649 270
-2457.2314 510.63004 2923.3718 14
-2434.1858 509.43271 2916.5171 14
-2415.5645 509.15079 2914.9031 17
-2382.6621 505.83301 2895.9087 14
-2384.0122 509.79156 2918.5715 14
-2349.9131 506.17212 2897.8503 14
-2346.3525 509.12595 2914.7607 14
-2325.4717 508.33737 2910.2463 14
-2306.7561 508.01389 2908.3943 14
-2312.823 513.18439 2937.9958 14
-2266.8179 506.79169 2901.3972 14
-2256.4702 508.33408 2910.2275 14
-2341.0366 531.44708 3042.5498 14
-2198.697 503.00818 2879.7366 14
-2184.739 503.72482 2883.8394 14
-2207.283 512.93512 2936.5684 14
-2189.8269 512.92267 2936.4971 14
-2172.2317 512.87701 2936.2361 14
-2125.6663 505.93549 2896.4956 14
-2099.9597 503.88605 2884.7622 14
-2074.2778 501.80887 2872.8704 14
-2049.9243 500.02133 2862.6367 14
-2045.8339 503.18781 2880.7649 14
-2018.5732 500.6608 2866.2976 14
-2011.1949 503.06406 2880.0564 270
-2039.1841 514.43066 2945.1306 270
-1977.3873 503.14749 2880.5342 270
-1953.6873 501.44598 2870.793 270
-1936.8904 501.50189 2871.113 270
-1905.4987 497.74646 2849.613 270
-1886.3489 497.15021 2846.1995 270
-1867.325 496.57666 2842.9158 270
-1862.9294 499.91821 2862.0464 270
-1845.5179 499.79626 2861.3481 268
-1844.1173 504.04819 2885.6907 268
-1779.908 491.05173 2811.2854 268
-1796.1664 500.21933 2863.7703 268
-1782.7411 501.21634 2869.478 268
-1764.5537 500.88071 2867.5566 268
-1873.1647 536.88123 3073.6606 268
-1641.8729 475.21008 2720.5916 268
-1731.6692 506.17041 2897.8403 268
-1711.5082 505.28833 2892.7905 14
-1696.6805 505.97894 2896.7441 14
-1676.2924 505.00842 2891.188 14
-1661.7744 505.80463 2895.7461 13
-1682.4397 517.43811 2962.3484 16
-1636.0342 508.47165 2911.0149 15
-1691.2852 531.24518 3041.394 16
-1588.9258 504.46942 2888.1021 16
-1569.7992 503.82397 2884.407 16
-1552.3965 503.72369 2883.8328 18
-1519.467 498.52695 2854.0813 18
-1505.9889 499.66687 2860.6074 19
-1493.0377 501.00961 2868.2947 19
-1471.1709 499.35703 2858.8335 19
-1453.1711 498.99384 2856.7542 19
-1441.9432 500.97485 2868.0955 19
-1449.0803 509.45975 2916.6719 19
-1414.1543 503.18265 2880.7354 19
-1411.9772 508.54724 2911.4478 20
-1387.6664 505.97412 2896.7166 19
-1366.6615 504.5571 2888.604 19
-1357.9901 507.71521 2906.6843 20
-1343.8481 508.8829 2913.3694 20
-1329.5604 510.02515 2919.9087 20
-1305.3456 507.33914 2904.5312 19
-1285.5562 506.32437 2898.7217 20
-1261.8896 503.73438 2883.894 20
-1260.7737 510.19882 2920.9031 21
-1237.8864 507.91037 2907.8018 21
-1223.255 508.99258 2913.9976 21
-1205.4237 508.75528 2912.6387 21
-1185.2512 507.50854 2905.5012 21
-1174.8319 510.4628 2922.4146 21
-1157.6294 510.51416 2922.7085 21
-1147.3522 513.66742 2940.7612 21
-1189.0298 540.53687 3094.5894 21
-1205.4202 556.57233 3186.3931 21
-1185.7057 556.1825 3184.1609 21
-1166.2308 555.89423 3182.5105 21
-1128.5369 546.76935 3130.2705 21
-1124.4392 553.88873 3171.0293 21
-1105.8337 553.98236 3171.5652 21
-1083.9818 552.42462 3162.647 21
-1060.8202 550.13287 3149.5269 21
-962.68085 508.17987 2909.3445 21
-1027.0673 552.0553 3160.533 21
-1004.0573 549.7121 3147.1179 21
-921.02539 513.79669 2941.5012 21
-902.75647 513.3208 2938.7766 21
-888.14465 514.94659 2948.0842 21
-871.67456 515.53857 2951.4734 21
-916.35913 553.06439 3166.3098 21
-820.39728 505.49808 2893.9912 20
-818.75708 515.25897 2949.8726 21
-847.85645 545.21277 3121.3591 21
-833.29871 547.80298 3136.188 21
-835.74475 561.94446 3217.1484 21
-797.60016 548.81635 3141.9897 21
-737.93488 519.89874 2976.4355 21
-777.97302 561.52924 3214.7712 21
-763.31982 564.78351 3233.4021 21
-738.90125 560.79388 3210.5613 21
-728.48132 567.49854 3248.9456 21
-700.67474 560.65503 3209.7664 21
-631.5274 519.42706 2973.7349 21
-609.84705 515.99408 2954.0813 20
-598.78558 521.60846 2986.2236 23
-630.36603 565.84186 3239.4609 24
-610.45184 565.17853 3235.6636 25
-555.64447 531.11914 3040.6726 25
-526.94348 520.56708 2980.2617 22
-510.72458 522.04181 2988.7046 23
-501.28961 530.80585 3038.8792 23
-482.90012 530.388 3036.4871 23
-466.74829 532.4906 3048.5244 23
-448.74619 532.56677 3048.9602 23
-446.32104 551.91132 3159.7085 23
-407.59967 526.10156 3011.9468 23
-432.21585 583.42346 3340.1165 23
-391.89206 554.38171 3173.8516 23
-394.27686 585.87451 3354.1487 23
-350.43179 548.36902 3139.4285 23
-331.08243 547.13873 3132.3853 23
-308.71027 540.47021 3094.2078 23
-289.69299 539.20392 3086.9583 23
-276.51907 549.37622 3145.1948 23
-271.04736 577.42749 3305.7891 23
-239.89871 550.88678 3153.843 23
-233.38916 581.22125 3327.5088 23
-205.2471 558.31042 3196.3435 23
-181.86711 545.01154 3120.2068 23
-174.5244 582.20148 3333.1204 22
-149.44069 562.14819 3218.3147 21
-126.94532 547.38849 3133.8149 21
-115.91669 585.48779 3351.9346 21
-89.822952 547.51605 3134.5457 21
-73.749725 566.74921 3244.6558 21
-55.863056 580.69775 3324.5117 21
-36.350189 583.7312 3341.8782 21
-16.613787 586.1402 3355.6699 21
3.2895815 589.17657 3373.053 21
23.592876 597.12024 3418.5308 21
43.90979 597.90961 3423.05 21
63.794544 594.17505 3401.6694 21
77.055092 545.35162 3122.1541 21
95.027878 542.32825 3104.845 21
125.0506 597.89966 3422.9929 21
142.25716 585.23358 3350.4792 21
163.55568 590.44244 3380.3 21
185.85115 597.72076 3421.969 21
203.93279 591.34808 3385.4851 21
229.92152 606.99176 3475.0457 19
244.98384 593.58899 3398.3145 19
266.90668 597.58258 3421.1777 19
290.19345 603.8504 3457.061 19
315.01923 612.28284 3505.3372 19
334.20535 609.38867 3488.7678 19
358.13617 614.97913 3520.7734 19
379.59579 615.94421 3526.2986 19
390.26212 600.20892 3436.2136 18
413.16101 603.91449 3457.4282 16
430.99478 600.21613 3436.2549 65548
576.83154 767.06964 4391.4961 393991
0 0 0 0
0 0 0 0
693.63953 812.43652 4651.2227 11115664
736.55731 829.73236 4750.2417 10654856
759.34491 823.91302 4716.9258 10457221
788.03467 824.68347 4721.3369 10391685
816.42291 825.09637 4723.7007 9865342
833.53931 814.46802 4662.853 9798521
872.43158 825.11658 4723.8164 9207153
892.12549 817.51038 4680.2705 9601653
936.40112 832.20941 4764.4233 10983306
970.68604 837.42877 4794.3042 10917255
994.1142 833.2514 4770.3887 9535089
1015.4046 827.56262 4737.8203 8218716
1042.9105 827.10944 4735.2256 8876389
1073.4792 829.04547 4746.3096 9073512
1126.2202 847.56897 4852.3569 9007976
1137.5609 834.7887 4779.1899 9139562
1180.5654 845.30127 4839.3745 9665906
1220.2434 852.98981 4883.3916 9599600
1247.4312 851.79333 4876.5415 9204842
1270.8412 848.12994 4855.5684 9204328
1293.1415 843.90436 4831.377 9401192
1313.8008 838.81421 4802.2358 9401449
1349.63 843.41998 4828.604 9467242
1384.8096 847.43701 4851.6016 9204070
1414.3386 847.90314 4854.27 9072227
1444.5068 848.72607 4858.9814 9138533
1474.9955 849.70154 4864.5664 9073253
1505.4781 850.63623 4869.9175 9073254
1537.1296 852.18372 4878.7769 9073253
1576.2892 857.75964 4910.6992 8875875
1600.0822 854.92322 4894.4604 9336940
1644.4747 862.99805 4940.689 10192764
1670.3831 861.25983 4930.7373 10193020
1714.59 868.854 4974.2144 9929593
1738.2808 865.97089 4957.7085 10126715
1766.281 865.29474 4953.8374 9995385
1798.9115 866.87183 4962.8667 9929592
1819.0619 862.48108 4937.7295 9600113
1853.8728 865.07037 4952.5532 9073767
1872.3663 860.08344 4924.0029 8349531
1899.601 859.20325 4918.9634 8481117
1927.8446 858.79913 4916.6499 9007461
1974.0774 866.30133 4959.6006 8940897
1981.2147 856.67859 4904.5098 8940897
2010.2987 856.68665 4904.5557 8941152
2039.1996 856.61743 4904.1597 9072226
2068.2192 856.59943 4904.0566 9203551
2074.2947 847.21069 4850.3062 5979944
2047.0018 824.63629 4721.0669 5189911
2057.5735 817.71869 4681.4634 9269073
2075.4319 813.84253 4659.272 10980715
2089.4443 808.57977 4629.1426 11507316
2107.4395 804.97467 4608.5034 12230530
2119.2568 799.13226 4575.0557 13151634
2145.1584 798.6814 4572.4741 12953234
2126.855 781.98865 4476.9077 9267544
2178.6472 791.16205 4529.4258 8872020
2261.8167 811.36804 4645.1055 10449771
2279.7644 807.97272 4625.667 11437949
2375.1658 831.78235 4761.978 8281427
2422.4561 838.38202 4799.7617 5782836
2473.3765 846.07043 4843.7783 7691089
2596.6355 878.04352 5026.8247 6046522
2566.054 857.86066 4911.2773 7428163
2587.5266 855.33759 4896.8325 7034170
2624.8982 858.06769 4912.4629 8021060
2687.3542 868.84814 4974.1812 6178603
2704.8186 865.0061 4952.1851 7626053
2759.3323 872.9679 4997.7666 8086861
2758.6013 863.46844 4943.3818 8087116
2811.4553 870.76501 4985.1548 9336150
2810.4033 861.38751 4931.4688 9205076
2841.3967 861.92401 4934.54 10849390
2872.1292 862.37115 4937.1001 10388845
3011.9724 895.24005 5125.2754 9071962
2969.9209 873.92822 5003.2646 8874328
3016.0383 878.72601 5030.7319 9859423
3092.1685 892.08832 5107.2319 10121568
3127.4001 893.50696 5115.353 8344132
3071.1064 869.00031 4975.0518 8672841
3152.2839 883.48846 5057.9976 9594715
3219.9612 893.95581 5117.9233 9069142
3317.688 912.49255 5224.0464 10057322
3301.9019 899.75482 5151.1226 9662307
3349.4675 904.35541 5177.4609 9728100
3430.5596 917.84229 5254.6738 10254698
3477.582 922.05322 5278.7817 11110008
3535.884 929.15326 5319.4297 11702660
3533.344 920.28101 5268.6357 12690324
3518.1592 908.29968 5200.042 12954524
3494.6772 894.40289 5120.4829 13021342
3504.2383 889.12939 5090.292 13218722
3489.0129 877.71051 5024.9185 10450535
3453.5144 861.42816 4931.7012 2228487
3474.1262 859.29742 4919.5024 9988687
3415.5601 837.78101 4796.3208 3935749
3444.094 837.80786 4796.4741 2822658
3453.9878 833.33679 4770.8774 983296
3438.0596 822.75903 4710.3193 11376757
3580.2737 849.8916 4865.6543 13549985
3566.0229 839.74561 4807.5684 13552810
3574.9644 835.17865 4781.4219 13552820
3604.6692 835.49585 4783.2383 13881790
3603.3535 828.67444 4744.1851 13947839
3652.5742 833.4906 4771.7578 9401181
3778.1213 855.51599 4897.854 9663595
3960.8386 890.05249 5095.5767 7492682
3995.8945 891.13605 5101.7798 5782322
4003.2986 886.08289 5072.8501 5915448
4069.5918 894.04224 5118.418 6639171
4042.9504 881.61829 5047.2905 4336672
4035.0264 873.42834 5000.4028 6770499
4065.8833 873.69135 5001.9082 5651504
4048.3674 863.63104 4944.313 4335900
4085.5403 865.29822 4953.8579 4071703
4161.7676 875.1543 5010.2837 11572853
4293.2485 896.40723 5131.9575 11769984
4405.9634 913.47058 5229.6455 13217434
4413.4854 908.63861 5201.9824 13678496
4508.5381 921.76929 5277.1562 13546147
4579.3511 929.79749 5323.1177 11834764
4657.46 939.18695 5376.8726 9203300
4703.1509 941.95612 5392.7266 9070945
4745.938 944.11023 5405.0586 9399654
4727.585 934.15448 5348.0615 9333859
4752.0117 932.72809 5339.8955 8216146
4701.9336 916.79352 5248.6694 6636602
4768.5073 923.66388 5288.0024 8017486
4803.5137 924.36981 5292.0439 7622731
4782.3252 914.32281 5234.5249 3874589
4871.8438 925.43488 5298.1416 1180419
4856.5107 916.61481 5247.6465 983041
5077.0991 952.15143 5451.0947 786432
4966.1758 925.46063 5298.2891 786432
4946.2847 915.96252 5243.9126 2035983
4728.9961 870.25708 4982.2471 7361360
4618.3696 844.62537 4835.5049 1509124
0 0 0 0
0 0 0 0
0 0 0 0
0 0 0 0
0 0 0 0
0 0 0 0
0 0 0 0
0 0 0 0
-2527.2041 513.9975 2846.0894 270
-2520.7019 516.11957 2857.8396 270
-2503.2083 516.0047 2857.2034 270
-2552.5029 529.74957 2933.311 270
-2534.8218 529.68732 2932.9666 270
-2515.5696 529.2937 2930.7869 270
-2495.8586 528.79742 2928.0388 270
-2476.3992 528.34778 2925.5493 270
-2457.396 527.98993 2923.5676 270
-2583.3604 558.99548 3095.2505 270
-2420.2473 527.44568 2920.554 16
-2410.7637 529.16309 2930.0637 13
-2377.2578 525.5943 2910.3025 14
-2361.3413 525.89056 2911.9434 14
-2337.9045 524.50415 2904.2664 14
-2322.4197 524.89435 2906.4268 14
-2295.5144 522.68994 2894.2207 14
-2274.3762 521.77539 2889.1567 14
-2277.6228 526.48364 2915.2271 14
-2354.0081 548.29938 3036.0247 14
-2256.8306 529.71338 2933.1106 14
-2206.5813 521.93903 2890.063 14
-2220.7512 529.3999 2931.375 14
-2189.1863 525.98981 2912.4927 14
-2151.6541 521.08038 2885.3083 14
-2152.4146 525.44012 2909.4492 270
-2138.4873 526.25586 2913.9661 270
-2116.9011 525.18475 2908.0352 14
-2086.5254 521.89758 2889.8333 14
-2081.1125 524.85156 2906.1899 14
-2088.2478 531.04578 2940.4885 14
-2039.6873 523.06158 2896.2786 14
-1991.4111 515.01544 2851.7258 270
-2007.5936 523.64435 2899.5056 270
-1948.567 512.63605 2838.5508 270
-1970.0355 522.79736 2894.8154 270
-1934.1864 517.79291 2867.105 270
-1914.9268 517.18018 2863.7122 270
-1918.7888 522.85699 2895.146 270
-1885.5029 518.42242 2870.5908 270
-1877.7366 520.98761 2884.7947 270
-1853.2717 518.92426 2873.3696 267
-1954.7977 552.42786 3058.8845 12
-1739.8019 496.27188 2747.9397 12
-1912.8114 550.77765 3049.7468 12
-1788.3304 519.84619 2878.4746 12
-1888.2889 554.18921 3068.6375 12
-1756.0322 520.38513 2881.4587 12
-1856.549 555.57501 3076.3108 12
-1821.9319 550.62274 3048.8894 11
-1700.7274 519.14093 2874.5691 14
-1693.5668 522.18555 2891.428 14
-1670.8683 520.4527 2881.8328 16
-1738.9716 547.25958 3030.2671 16
-1648.3118 524.14142 2902.2578 15
-1615.645 519.17108 2874.7363 18
-1626.6465 528.27679 2925.156 18
-1672.9008 549.15082 3040.739 18
-1637.5226 543.39069 3008.8442 18
-1616.1167 542.19141 3002.2036 19
-1535.2278 520.78723 2883.6853 19
-1517.1813 520.45886 2881.8672 19
-1599.9126 555.08783 3073.6133 19
-1480.7744 519.66937 2877.4954 19
-1557.2017 552.85785 3061.2654 19
-1459.2605 524.19238 2902.5403 19
-1467.922 533.59357 2954.5959 19
-1416.8477 521.24536 2886.2219 19
-1400.6061 521.56665 2888.001 19
-1367.6729 515.60327 2854.9807 20
-1334.6271 509.44751 2820.8953 18
-1313.9655 507.92276 2812.4526 19
-1336.7968 523.38739 2898.0825 20
-1301.7611 516.30341 2858.8574 20
-1305.3715 524.56238 2904.5889 20
-1284.8143 523.20068 2897.0488 19
-1261.4473 520.64233 2882.8828 18
-1237.6525 517.83478 2867.3369 21
-1231.8826 522.59564 2893.6987 21
-1201.6224 516.9549 2862.4651 21
-1184.8102 517.02094 2862.8306 21
-1149.149 508.74423 2817.0012 21
-1150.4939 516.84808 2861.8735 21
-1139.8333 519.7204 2877.7778 21
-1131.1422 523.59167 2899.2139 21
-1107.4159 520.51532 2882.1797 21
-1093.1832 521.87482 2889.7075 21
-1082.671 525.08197 2907.4658 21
-1060.188 522.49323 2893.1316 21
-1040.7471 521.34332 2886.7644 21
-1032.0042 525.60352 2910.3535 21
-985.04907 510.21603 2825.1506 21
-991.26825 522.31488 2892.144 21
-976.14929 523.39825 2898.1428 21
-961.65826 524.86316 2906.2544 21
-993.48981 552.12494 3057.207 21
-933.75079 528.56451 2926.7493 21
-976.21124 563.05878 3117.7498 21
-971.802 571.32898 3163.5432 21
-949.98468 569.48889 3153.3545 21
-941.77094 575.89355 3188.8181 21
-914.47815 570.65485 3159.8103 21
-889.74841 566.8299 3138.6309 21
-797.38489 518.83429 2872.8713 21
-868.96112 577.74231 3199.0549 21
-784.52399 533.23676 2952.6201 21
-820.74359 570.58112 3159.4023 21
-751.55054 534.67542 2960.5864 21
-692.14404 504.18207 2791.7397 21
-753.3446 562.20117 3113.001 21
-701.71088 536.81403 2972.4282 21
-683.47473 536.32684 2969.7305 21
-672.64819 541.7818 2999.9358 21
-658.38586 544.69061 3016.0422 19
-628.83246 534.7583 2961.0452 19
-611.10883 534.60443 2960.1934 19
-597.38269 538.04193 2979.2273 21
-590.0271 547.6012 3032.1587 21
-591.9303 566.62402 3137.4912 23
-546.48187 540.0835 2990.5317 23
-533.90845 545.3429 3019.6538 23
-510.8551 539.89142 2989.4683 23
-492.6817 539.39099 2986.697 23
-478.67941 543.58984 3009.947 23
-465.36035 548.91968 3039.4592 23
-450.38437 552.64575 3060.0908 23
-446.11865 570.37769 3158.2759 23
-428.0087 571.18732 3162.7588 23
-410.24457 572.55371 3170.3247 23
-392.18359 573.61713 3176.2129 23
-373.62952 574.03015 3178.5 23
-348.88858 564.47711 3125.6033 23
-330.81458 565.24426 3129.8511 23
-313.80356 568.02673 3145.2581 23
-294.6188 566.97742 3139.4478 23
-276.71173 568.41107 3147.3862 23
-269.75488 594.17139 3290.0254 23
-237.84406 564.69891 3126.8313 23
-221.44226 570.17938 3157.1777 23
-213.2682 599.81183 3321.2576 23
-192.519 596.50665 3302.9561 23
-173.12077 597.11298 3306.3135 22
-154.70204 601.68359 3331.6218 21
-124.65443 555.74664 3077.261 21
-110.68422 578.02649 3200.6284 21
-88.726746 559.18341 3096.2913 21
-75.943275 603.40656 3341.1621 21
-56.021187 602.09912 3333.9226 21
-36.214024 601.27515 3329.3599 21
-15.233687 555.68433 3076.916 21
3.2594304 603.58258 3342.1367 21
23.265009 608.7995 3371.0237 21
43.149574 607.49243 3363.7864 21
63.549904 611.97821 3388.6245 21
84.357895 617.29272 3418.0522 21
94.765724 559.18134 3096.2795 21
120.98924 598.10779 3311.822 21
142.21884 604.92627 3349.5769 21
163.81282 611.43457 3385.6145 21
184.76221 614.37915 3401.9189 21
205.16576 615.10785 3405.9539 21
227.95737 622.2243 3445.3591 19
248.32388 622.09558 3444.6462 19
267.76041 619.8335 3432.1206 19
294.56195 633.73633 3509.103 19
315.98914 635.00537 3516.1299 19
332.20123 626.28552 3467.8467 19
355.90509 631.88287 3498.8403 19
377.90039 633.9975 3510.5491 19
392.58069 624.25952 3456.6284 19
407.46768 615.79974 3409.7852 16
430.5387 619.9234 3432.6184 13
454.03775 624.26349 3456.6504 131081
642.44653 845.17773 4679.8892 1314835
0 0 0 0
678.70789 821.91827 4551.0977 9668991
714.05634 831.67596 4605.1274 11049613
750.32825 841.75116 4660.9155 10918540
774.2417 837.73895 4638.6992 11378834
804.67291 840.81232 4655.7173 11445140
830.58557 839.117 4646.3296 11707544
853.33167 834.43396 4620.3989 11378322
879.19537 832.99603 4612.437 9074539
913.84613 839.71893 4649.6631 9732724
952.24078 849.38794 4703.2017 10127227
983.57251 852.38605 4719.8027 10785414
1023.1791 862.19135 4774.0962 10258301
1035.6244 849.1969 4702.144 9271149
1064.2092 849.771 4705.3228 9139305
1095.3702 852.32031 4719.4385 8941926
1123.1597 852.18445 4718.6865 9204842
1153.2157 853.73334 4727.2627 8678754
1197.9944 865.84937 4794.3516 9862771
1217.6971 859.70038 4760.3032 9139047
1245.7963 859.62354 4759.8779 9204840
1261.8352 851.41241 4714.4116 9336426
1292.405 853.14941 4724.0298 9335399
1318.1884 851.71997 4716.1147 9598828
1351.097 854.85822 4733.4917 9072484
1392.7247 863.27325 4780.0869 9006691
1409.9485 856.52765 4742.7354 9401449
1454.4354 866.28412 4796.7588 9072740
1488.8746 869.79663 4816.208 9007205
1519.3771 870.92053 4822.4312 9204840
1540.009 866.4494 4797.6738 9467755
1571.0367 867.88336 4805.6138 9007976
1601.4039 868.90778 4811.2861 9798007
1648.1068 878.60492 4864.981 9601140
1680.0366 880.22858 4873.9717 10522242
1705.5435 878.48895 4864.3389 10588035
1736.6116 879.62415 4870.6245 9929593
1762.4056 878.0943 4862.1538 9402735
1784.3875 874.745 4843.6079 9336942
1814.9456 875.6394 4848.5605 9139560
1848.5818 877.96783 4861.4536 8810338
1869.729 874.38434 4841.6108 8875875
1900.4543 875.32068 4846.7954 9204583
1925.587 873.69153 4837.7749 9138277
1952.7642 873.02429 4834.0801 9006434
1976.5166 870.86731 4822.1367 9137762
2029.5123 881.47302 4880.8623 9269602
2071.5381 887.08307 4911.9263 6440500
2018.2382 852.28259 4719.23 5584934
2026.2279 843.96167 4673.1553 4927258
2057.2068 845.31134 4680.6289 6045992
2057.7769 834.29626 4619.6367 11373680
2079.1206 831.88239 4606.2705 11175014
2082.686 822.50977 4554.373 11897709
2114.5928 824.4267 4564.9873 9133894
2093.4722 805.8822 4462.3032 10581343
2157.8867 820.31641 4542.228 11108720
2194.5605 823.97937 4562.5103 10649197
2228.3848 826.49615 4576.4463 11307388
2233.771 818.5318 4532.3462 11307646
2265.2639 820.20941 4541.6353 11044731
2346.312 839.57996 4648.8931 11242624
2413.238 853.50616 4726.0054 8282197
2503.8174 875.38251 4847.1382 6046263
2524.7634 872.69373 4832.2495 7361608
2564.1487 876.36719 4852.5903 9533030
2574.9062 870.28351 4818.9038 8151889
2643.7749 883.75848 4893.5171 7559749
2695.7114 891.34259 4935.5112 7231038
2703.877 884.44611 4897.3247 6047279
2727.7405 882.77649 4888.0796 7955277
2772.9075 887.96387 4916.8032 9534045
2726.2388 863.94086 4783.7837 8152138
2749.0652 862.20856 4774.1914 10717297
2761.5168 857.29071 4746.9609 10716789
2817.8447 865.95587 4794.9409 12032396
2819.6074 857.84686 4750.04 13348257
2880.6487 867.75494 4804.9028 12557973
2848.1912 849.57953 4704.2627 10649716
2937.5256 867.73346 4804.7837 10057836
3023.7832 884.63855 4898.3901 9531236
3046.8474 882.9101 4888.8193 9860458
3131.2373 898.81763 4976.9023 9597028
3174.5686 902.75256 4998.6904 9399906
3203.5085 902.56006 4997.6245 9465956
3245.3274 905.96625 5016.4854 9268063
3310.7297 915.83447 5071.1274 9399649
3322.283 910.76312 5043.0464 9333599
3398.2102 923.27228 5112.3115 9268063
3428.1741 923.18262 5111.8149 9531237
3368.4695 899.15906 4978.7925 8412757
3447.6619 912.30701 5051.5952 4136477
3477.6458 912.31934 5051.6631 917504
3463.6809 900.90045 4988.4351 2032641
3444.5103 888.33221 4918.8428 1901312
3406.9592 871.27448 4824.3911 4533535
3358.4314 851.71692 4716.0977 786944
3403.1487 855.93445 4739.4507 2559233
3392.4626 846.26239 4685.895 2493696
3494.5908 864.66083 4787.77 3875348
3387.7297 831.46936 4603.9839 9796962
3538.5986 861.5592 4770.5957 12496532
3561.0571 860.15503 4762.8208 13881270
3594.4453 861.39233 4769.6719 13946809
3596.1626 855.07959 4734.7173 13946813
3565.0818 841.1264 4657.4565 13222295
3559.9741 833.46863 4615.0542 8742238
3884.0078 902.39941 4996.7349 9269350
3981.7327 918.10486 5083.6987 8940643
4042.5757 925.13409 5122.6206 7296075
4047.7432 919.41235 5090.9385 5980985
4059.4282 915.24475 5067.8618 4468763
4013.1143 898.15771 4973.248 5783339
3990.0994 886.49652 4908.6777 8020037
4014.4038 885.44092 4902.833 7691074
4079.7212 893.38165 4946.8022 4927776
4032.375 876.71387 4854.5103 12036242
4204.1528 907.58661 5025.457 8744535
4266.5571 914.57941 5064.1777 9796198
4443.8096 945.92151 5237.7241 10322029
4465.1621 943.87372 5226.3853 11967112
4530.7954 951.15002 5266.6753 13150874
4600.7803 959.23407 5311.438 13743012
4578.0415 948.00726 5249.2734 13479069
4501.9546 925.95941 5127.1909 11702399
4521.6016 923.76562 5115.0435 11110521
4446.5952 902.39227 4996.6953 11505277
4537.2876 914.70593 5064.8784 13348514
4481.3857 897.49908 4969.6011 13545636
4692.1094 933.56598 5169.3096 11111808
4757.1348 940.36432 5206.9526 8544600
4746.7354 932.26129 5162.0854 8479320
4718.9683 920.87299 5099.0264 8939875
4810.7798 932.81616 5165.1577 8545371
4873.8149 939.06378 5199.7515 6901057
4751.6973 909.78241 5037.6162 4467491
4609.9028 877.12311 4856.7759 6834499
4513.3193 853.41785 4725.5161 2035471
0 0 0 0
0 0 0 0
0 0 0 0
0 0 0 0
0 0 0 0
0 0 0 0
0 0 0 0
0 0 0 0
-2525.9739 530.60565 2844.7039 270
-2519.6069 532.82422 2856.5984 270
-2502.1418 532.71008 2855.9863 270
-2546.1934 545.78052 2926.0601 270
-2528.0996 545.61792 2925.1885 270
-2509.4373 545.32953 2923.6423 270
-2480.2991 542.74481 2909.7849 270
-2468.1284 543.86273 2915.7783 270
-2448.8118 543.41071 2913.355 270
-2438.0432 544.86255 2921.1387 270
-2414.5994 543.48224 2913.7385 16
-2395.6624 543.10376 2911.7092 14
-2375.2029 542.37213 2907.7869 14
-2358.0693 542.39478 2907.9084 14
-2327.8604 539.38812 2891.7888 14
-2310.2332 539.27374 2891.1758 14
-2282.3752 536.75171 2877.6545 14
-2281.7561 540.64575 2898.5315 270
-2237.3237 534.13892 2863.6467 270
-2197.605 528.66644 2834.3076 270
-2168.5 525.68268 2818.311 270
-2233.6543 545.68018 2925.522 270
-2205.0745 542.91211 2910.6819 270
-2136.4058 530.15228 2842.2734 270
-2148.2302 537.32294 2880.717 270
-2109.5071 531.86401 2851.4504 270
-2093.6248 532.12225 2852.835 270
-2053.0662 526.06183 2820.3435 270
-2072.5146 535.40381 2870.4282 270
-2189.9058 570.41199 3058.1152 270
-2043.2428 536.65137 2877.1165 270
-1985.9537 525.99384 2819.979 14
-1989.0166 531.27576 2848.2966 270
-1968.9564 530.41895 2843.7031 270
-1948.7767 529.51483 2838.856 270
-1944.6082 532.98346 2857.4519 270
-1953.6294 540.15973 2895.9258 270
-1887.1761 526.4104 2822.2122 270
-1886.0023 530.78705 2845.6765 270
-1869.9427 531.01544 2846.9011 270
-1848.6555 529.75006 2840.1172 270
-1835.9048 530.93011 2846.4434 12
-1833.6897 535.20703 2869.3733 12
-1816.2133 535.06799 2868.6279 12
-1779.3264 529.15393 2836.9211 12
-1758.0479 527.81305 2829.7322 12
-1739.7283 527.34314 2827.2131 12
-1724.9851 527.95886 2830.5139 11
-1700.8445 525.68213 2818.3076 14
-1686.1477 526.30798 2821.6631 14
-1664.5767 524.77917 2813.467 13
-1646.1405 524.21783 2810.4573 16
-1629.1562 524.11194 2809.8896 16
-1630.1024 529.83191 2840.5557 15
-1616.2188 530.80072 2845.75 15
-1596.832 529.96368 2841.2622 18
-1575.4258 528.43134 2833.0471 18
-1565.3267 530.69952 2845.2073 18
-1541.1115 528.1792 2831.6951 18
-1531.0453 530.50592 2844.1694 19
-1513.2468 530.17542 2842.3975 19
-1494.5721 529.5271 2838.9216 19
-1531.1826 548.6745 2941.5752 19
-1458.8929 528.79089 2834.9746 19
-1555.3317 570.31384 3057.5891 20
-1534.3228 569.24207 3051.843 20
-1408.6484 528.84998 2835.2915 19
-1509.2028 573.44128 3074.3562 19
-1481.2605 569.70172 3054.3076 19
-1343.5137 523.11578 2804.5491 21
-1327.6808 523.42627 2806.2136 21
-1303.1848 520.28589 2789.3774 21
-1283.5712 519.03912 2782.6934 21
-1281.9922 525.14752 2815.4419 21
-1277.754 530.31342 2843.1372 21
-1260.1815 530.00909 2841.5059 21
-1205.66 513.94604 2755.3879 21
-1189.3828 513.96844 2755.5081 21
-1195.0175 523.59204 2807.1025 21
-1191.4762 529.41022 2838.2949 21
-1179.8724 531.76135 2850.8999 21
-1161.5182 531.09406 2847.3225 21
-1132.2786 525.35663 2816.5627 21
-1127.5907 531.0094 2846.8687 21
-1108.6257 530.00842 2841.5022 21
-1093.1422 530.66663 2845.0308 21
-1073.0868 529.09119 2836.5847 21
-1060.2153 531.06409 2847.1619 21
-1045.0432 531.92981 2851.8032 21
-1027.0531 531.36603 2848.7808 21
-1022.5821 537.89471 2883.7822 21
-994.24524 531.87805 2851.5256 21
-969.67035 527.70062 2829.1296 21
-961.04474 532.20862 2853.2981 21
-951.66919 536.45538 2876.0659 21
-929.28357 533.38959 2859.6292 21
-862.84137 504.45245 2704.4905 21
-896.02087 533.76532 2861.6438 21
-877.15778 532.60895 2855.4443 21
-857.14758 530.69696 2845.1934 21
-842.87476 532.33167 2853.9578 21
-832.26813 536.39624 2875.7488 21
-815.6637 536.68433 2877.2935 21
-799.86731 537.52777 2881.8152 21
-784.07654 538.41187 2886.5549 21
-769.1037 539.90955 2894.5845 21
-756.2984 543.03198 2911.3245 21
-730.50891 536.75964 2877.697 21
-724.28815 544.90973 2921.3918 21
-689.29419 531.2818 2848.3291 21
-692.9939 547.54193 2935.5034 21
-676.10822 547.95587 2937.7227 20
-661.90576 550.62372 2952.0259 20
-645.61304 551.65045 2957.5303 19
-614.21173 539.4646 2892.199 20
-613.48041 554.28986 2971.6809 20
-600.25598 558.37018 2993.5564 21
-583.34558 559.16583 2997.8223 23
-564.95306 558.54626 2994.5002 23
-547.45148 558.79572 2995.8376 23
-528.43347 557.46222 2988.6885 23
-516.94275 564.2525 3025.0928 23
-495.39859 560.16284 3003.1672 23
-478.90637 561.6936 3011.374 23
-465.4296 567.01654 3039.9116 23
-450.76352 571.26093 3062.6667 23
-439.01035 579.70789 3107.9529 23
-428.0087 589.93048 3162.7588 23
-402.89679 580.75031 3113.5417 23
-385.76633 582.74591 3124.2407 22
-366.87219 582.14423 3121.0149 22
-351.95813 588.12939 3153.1025 23
-334.66595 590.58899 3166.2891 23
-314.00156 587.03638 3147.2427 23
-298.18549 592.67151 3177.4541 23
-283.70865 601.90759 3226.9709 23
-258.68436 588.48438 3155.0056 23
-240.83719 590.56879 3166.1809 23
-223.27585 593.76562 3183.3198 23
-204.2574 593.32001 3180.9307 23
-185.4136 593.34265 3181.0522 23
-162.8083 579.97083 3109.3625 22
-145.80907 585.70502 3140.105 21
-136.70442 629.46844 3374.7312 21
-115.15933 621.13135 3330.0342 21
-88.623848 576.86298 3092.7007 21
-77.121826 632.87848 3393.0132 21
-56.992229 632.63556 3391.7109 21
-36.610752 627.80884 3365.8335 21
-17.014919 641.02545 3436.6912 21
3.3232477 635.59436 3407.5735 21
23.538488 636.16821 3410.6501 21
43.574791 633.60999 3396.9348 21
64.262482 639.14709 3426.6208 21
84.708496 640.19861 3432.2581 21
104.88762 639.21637 3426.9922 21
124.40485 635.17346 3405.3169 21
147.49014 647.93372 3473.728 21
161.33369 621.94147 3334.3772 21
182.33594 626.20691 3357.2454 21
207.23828 641.70978 3440.3599 21
226.87195 639.58228 3428.9541 19
247.25743 639.74988 3429.8525 19
269.38864 644.0658 3452.9912 19
294.83838 655.14624 3512.396 19
317.11002 658.16907 3528.6021 19
336.86392 655.91559 3516.5208 19
358.49081 657.35913 3524.2598 19
378.12146 655.18475 3512.6025 19
400.78909 658.2251 3528.9026 18
421.40329 657.75867 3526.4016 18
449.35321 668.24542 3582.6238 16
463.2558 657.83826 3526.8286 12
508.0787 690.34204 3701.0891 196612
648.41388 844.56055 4527.8916 2629150
643.36749 804.68732 4314.1216 6246728
711.17145 855.49664 4586.5225 9470065
740.49866 857.98364 4599.856 10194046
770.26306 860.78265 4614.8623 9733495
795.28113 858.26752 4601.3779 11050127
827.42834 863.35779 4628.668 11313044
848.89172 857.33136 4596.3589 11444114
876.16913 857.36896 4596.5605 10193790
905.27405 859.13867 4606.0483 9798775
937.8136 863.96893 4631.9443 9798775
961.05621 860.20319 4611.7554 9996155
996.4881 867.25409 4649.5571 10126971
1016.2289 860.63702 4614.0811 10060922
1052.6119 868.09143 4654.0464 9600113
1081.812 869.3927 4661.0225 9468271
1115.8866 874.44904 4688.1309 9402221
1140.8947 872.32739 4676.7563 9533806
1153.1107 860.75763 4614.728 9270634
1193.8583 870.52832 4667.1108 9204070
1227.0985 874.50629 4688.438 9138277
1254.2291 874.0506 4685.9946 9335399
1292.405 881.14502 4724.0298 9204070
1301.8961 868.79639 4657.8257 9598571
1339.7524 875.49652 4693.7466 9467241
1361.2517 871.45251 4672.0659 9401449
1402.9355 880.23413 4719.146 9401449
1430.7998 880.17108 4718.8081 9401962
1471.1782 887.66107 4758.9639 9204840
1492.7892 883.75879 4738.0425 9468011
1521.807 884.30444 4740.9683 9533548
1558.5261 889.22443 4767.3452 9797491
1600.3368 896.82257 4808.0806 9600626
1632.5562 898.87384 4819.0781 9798518
1651.4563 893.64728 4791.0571 10390655
1677.9257 892.6239 4785.5708 10523011
1716.6088 898.02417 4814.5229 10390399
1724.3921 887.34735 4757.2817 9666675
1762.734 892.48596 4784.8311 9205353
1793.6444 893.75879 4791.6553 9928819
1821.3533 893.42157 4789.8472 8876132
1843.85 890.57715 4774.5977 9073253
1875.3718 892.11206 4782.8267 9401449
1896.1263 888.5556 4763.7593 9072995
1915.4912 884.46161 4741.8105 9071970
1951.5441 888.08026 4761.2109 9466725
2021.4178 906.76703 4861.3955 6506300
2026.4766 896.26263 4805.0786 2690822
1994.4719 869.88409 4663.6572 6111278
2023.9675 870.68341 4667.9424 4663317
2067.7805 877.53711 4704.6865 5715746
2068.7793 866.28052 4644.3374 6766122
2051.3047 847.68536 4544.6445 5975839
2018.8705 823.47046 4414.8228 9264972
2051.2527 825.97467 4428.248 10515810
2094.7778 832.84595 4465.0864 10187102
2185.7097 858.15857 4600.7935 9793115
2155.9058 836.02802 4482.1465 10253152
2167.2642 830.20398 4450.9224 10318946
2230.2388 844.05463 4525.1792 10450275
2252.0767 842.19257 4515.1963 10056287
2271.1475 839.3515 4499.9648 9924959
2316.1265 846.04034 4535.8252 11176056
2384.0073 860.84528 4615.1978 11242109
2475.5464 883.76031 4738.0508 9269348
2422.2114 855.02191 4583.9775 7888209
2516.9675 878.61621 4710.4722 5914162
2596.7395 896.51965 4806.4565 5125416
2630.5491 898.33838 4816.207 2759446
2648.6582 894.81372 4797.311 4137756
2695.343 900.91553 4830.0239 8086615
2637.8245 872.42505 4677.2798 5652017
2633.426 861.91327 4620.9233 11244164
2647.6057 857.63586 4597.9912 10124912
2668.7571 855.68085 4587.5098 10058601
2688.0193 853.16571 4574.0259 11834241
2746.1792 862.9234 4626.3394 11373691
2792.6223 868.84296 4658.0752 10057063
2771.3423 853.78278 4577.334 12690068
2865.2566 874.15906 4686.5762 9070684
2951.199 891.73535 4780.8071 9333857
2983.4934 892.92114 4787.1646 9202784
3051.4189 904.64832 4850.0361 8939100
3090.5024 907.68549 4866.3193 8873820
3155.5771 918.22961 4922.8491 9399907
3187.2422 918.94788 4926.6997 9465442
3224.3738 921.21497 4938.854 9333856
3261.1714 923.3465 4950.2822 9465442
3329.2058 934.20557 5008.5 9399650
3316.3137 922.36475 4945.0181 9202273
3342.2112 921.42523 4939.9814 9137252
3414.6799 933.22986 5003.269 9335144
3293.1616 892.27124 4783.6797 7690322
3366.1135 904.25311 4847.9175 3812387
3420.7258 911.14716 4884.8779 2757901
3340.8323 882.39905 4730.7529 1769728
3415.0042 894.48346 4795.54 1901056
3458.6816 898.44708 4816.79 1703936
3414.604 879.73645 4716.478 1704192
3435.2668 877.87402 4706.4932 1902848
3380.0869 856.81628 4593.5972 8217933
3467.7097 872.00476 4675.0264 7754289
3545.2258 884.43121 4741.6475 10255711
3557.8525 880.60132 4721.1147 13549472
3579.6895 879.09308 4713.0288 14012343
3577.9175 871.85541 4674.2256 13881273
3590.9436 868.30701 4655.2021 11374972
3661.5256 878.62396 4710.5137 9400673
3796.1499 904.03625 4846.7549 9269345
3791.0671 896.04602 4803.9175 8940638
3966.8689 930.60968 4989.2212 8940381
3974.4138 925.48145 4961.728 8611417
4017.1477 928.56262 4978.2466 8611673
3954.2898 907.36926 4864.624 8743255
3986.77 908.20105 4869.0835 8348243
3981.0466 900.38049 4827.1558 7690569
3968.126 891.05542 4777.1616 5125416
4057.5889 904.69019 4850.2607 6046519
4121.2295 912.41608 4891.6812 4401441
4150.1636 912.40405 4891.6167 5979955
4429.1279 966.97937 5184.208 9400933
4525.8965 981.29932 5260.981 10387567
4516.7461 972.61523 5214.4233 10387567
4540.5815 971.104 5206.3213 11242619
4489.438 953.68542 5112.936 12294793
4489.5527 947.3161 5078.7886 12097673
4460.2437 934.86438 5012.0322 11636866
4463.7798 929.41626 4982.8232 11637377
4418.4155 913.92505 4899.771 14010540
4467.6909 918.08386 4922.0674 14142122
4647.7749 948.89471 5087.252 13746338
4558.4521 924.66064 4957.3271 13282707
4685.4829 944.3421 5062.8442 13085072
4662.9785 933.82666 5006.4688 10585458
4539.8853 903.42731 4843.4902 8611163
4520.7949 893.97614 4792.8203 8282971
4604.3218 904.80865 4850.896 8217179
4553.9883 889.36462 4768.0967 8151899
0 0 0 0
0 0 0 0
0 0 0 0
0 0 0 0
0 0 0 0
0 0 0 0
0 0 0 0
0 0 0 0
-2522.4912 546.70917 2840.7817 270
-2515.8813 548.94019 2852.3745 270
-2498.3694 548.80652 2851.6802 270
-2473.125 546.961 2842.0906 270
-2456.0754 546.91498 2841.8513 270
-2438.6313 546.77991 2841.1494 270
-2420.8123 546.55823 2839.9976 270
-2402.1672 546.14563 2837.8538 270
-2434.7063 557.44629 2896.5737 270
-2459.6926 567.16583 2947.0779 269
-2408.4717 559.3266 2906.344 16
-2390.8992 559.245 2905.9199 14
-2372.1138 558.87646 2904.0049 14
-2366.7593 561.68994 2918.6245 14
-2334.4722 558.1062 2900.0024 14
-2315.5635 557.69128 2897.8467 14
-2289.8987 555.63086 2887.1404 270
-2269.9761 554.94318 2883.5671 270
-2267.2935 558.49176 2902.0061 270
-2240.1074 556.01263 2889.1243 271
-2209.4209 552.61981 2871.4944 271
-2344.8386 591.04266 3071.1453 271
-2187.0198 555.57489 2886.8496 270
-2172.5447 556.24908 2890.3528 270
-2182.0972 563.1347 2926.1316 270
-2144.344 557.82471 2898.54 269
-2161.0447 566.70886 2944.7034 270
-2129.7583 563.05115 2925.6973 270
-2110.0288 562.41382 2922.3855 270
-2179.0791 585.62537 3042.9963 270
-2205.5933 597.69733 3105.7241 270
-2157.1079 589.47729 3063.0115 14
-2030.2889 559.52972 2907.3994 14
-2000.6848 556.09027 2889.5273 14
-1988.3365 557.42908 2896.4844 270
-1945.9434 550.29486 2859.4138 270
-1905.8983 543.70514 2825.1726 270
-1886.3943 542.91034 2821.0427 270
-1977.6533 574.2644 2983.9631 270
-1931.4607 565.91138 2940.5596 270
-1968.3265 581.96362 3023.9695 270
-1996.9406 595.84875 3096.1184 267
-1864.7869 561.57648 2918.0347 12
-1800.4799 547.28577 2843.7778 12
-1799.3683 552.11578 2868.8755 13
-1784.3785 552.73895 2872.1135 14
-1766.8334 552.57495 2871.2615 14
-1747.4104 551.81482 2867.3115 13
-1728.0546 551.0611 2863.395 16
-1718.1277 553.32898 2875.1797 16
-1686.5612 548.60352 2850.6252 17
-1683.4497 553.13184 2874.1553 18
-1676.3063 556.41443 2891.2119 18
-1721.7501 577.40033 3000.2576 18
-1739.2271 589.34735 3062.3364 18
-1690.1155 578.74457 3007.2424 19
-1611.0062 557.53418 2897.0305 19
-1638.0894 573.01373 2977.4644 19
-1549.3925 547.88867 2846.9109 19
-1552.045 554.86865 2883.1799 19
-1539.551 556.52875 2891.8059 19
-1515.9636 554.17096 2879.5544 19
-1493.0895 552.02313 2868.394 19
-1480.6311 553.72113 2877.217 19
-1463.4858 553.68542 2877.0317 18
-1440.2855 551.33105 2864.7981 18
-1427.2252 552.84845 2872.6824 21
-1421.4926 557.27502 2895.6838 21
-1387.9934 550.79144 2861.9941 21
-1373.6796 551.8548 2867.5195 19
-1324.7327 538.85724 2799.9822 19
-1330.9828 548.26703 2848.877 19
-1312.8881 547.76154 2846.2502 21
-1291.855 546.00098 2837.1021 21
-1276.7277 546.7229 2840.8533 21
-1223.7677 531.04688 2759.3984 21
-1232.4617 542.06305 2816.6399 21
-1226.6257 546.90332 2841.7908 21
-1212.4188 548.09412 2847.9783 21
-1190.9423 545.98578 2837.0232 21
-1177.3956 547.50458 2844.915 21
-1159.3712 546.95502 2842.0596 21
-1140.2581 545.8681 2836.4116 21
-1123.2325 545.76306 2835.8657 21
-1098.4891 541.84772 2815.521 21
-1083.2373 542.56573 2819.2522 21
-1060.37 539.43213 2802.9695 21
-1058.0051 546.79474 2841.2266 21
-1039.2833 545.80524 2836.0852 21
-1023.5629 546.38544 2839.0999 21
-1004.858 545.36523 2833.7986 21
-992.19543 547.64539 2845.6467 21
-973.19415 546.44525 2839.4106 21
-960.71405 548.92896 2852.3164 21
-944.08411 549.08801 2853.1428 21
-927.53729 549.30212 2854.2554 21
-911.8418 550.03766 2858.0774 21
-892.01392 548.26123 2848.8467 21
-880.19159 551.43158 2865.3203 21
-863.62659 551.69702 2866.6997 21
-848.74719 553.07147 2873.8416 21
-827.11035 550.00873 2857.927 21
-822.20013 558.17328 2900.3511 21
-802.59882 556.5 2891.6565 21
-791.45447 560.74542 2913.7166 21
-775.94574 562.01917 2920.3352 21
-755.59875 559.76678 2908.6311 21
-739.73615 560.80884 2914.0459 21
-720.65436 559.40192 2906.7351 21
-700.87073 557.36792 2896.1663 21
-691.21722 563.48993 2927.9773 18
-680.91571 569.3855 2958.6113 18
-661.00568 567.34552 2948.0115 19
-639.47137 563.76294 2929.3958 19
-620.40381 562.2157 2921.3562 19
-608.10199 566.88684 2945.6282 19
-597.3493 573.32092 2979.0605 21
-582.23499 575.83325 2992.115 21
-562.93115 574.2298 2983.7832 23
-543.00922 571.87128 2971.5281 23
-527.85028 574.53912 2985.3904 23
-507.35681 571.38416 2968.9968 23
-497.43292 580.33356 3015.4993 23
-480.16907 581.06769 3019.314 23
-462.09476 580.83997 3018.1306 23
-454.02448 593.67493 3084.823 23
-434.82043 592.41772 3078.2905 23
-418.24579 594.78973 3090.6157 23
-400.5058 595.64594 3095.0647 23
-384.39685 599.1264 3113.1497 23
-366.55118 600.11444 3118.2837 22
-343.43005 592.112 3076.7017 22
-331.18723 603.01917 3133.377 20
-311.61102 601.07642 3123.2822 20
-292.88715 600.63623 3120.9949 21
-274.78168 601.49042 3125.4333 21
-258.43567 606.59778 3151.9722 20
-240.54599 608.59552 3162.3525 22
-226.47714 621.41443 3228.9617 23
-203.2263 609.08063 3164.8733 23
-186.30128 615.12512 3196.2815 23
-167.89003 617.07532 3206.415 22
-148.65758 616.11981 3201.45 20
-132.81845 631.00604 3278.801 21
-110.04583 612.40906 3182.1685 21
-92.103287 618.55859 3214.1223 21
-77.000221 651.95654 3387.6628 21
-57.340904 656.729 3412.4614 21
-36.956383 653.87067 3397.6091 21
-17.097708 664.61011 3453.4128 21
3.1702726 625.60114 3250.7166 21
23.036667 642.3869 3337.9377 21
43.220806 648.43011 3369.3391 21
63.789642 654.60181 3401.4082 21
84.286064 657.24487 3415.1418 21
104.71249 658.42426 3421.27 21
121.52084 640.16138 3326.3735 21
146.75786 665.20062 3456.4812 21
152.80367 607.77362 3158.082 21
189.32433 670.86591 3485.9187 21
210.81316 673.51935 3499.7063 21
224.78973 653.84656 3397.4836 19
250.08028 667.61182 3469.01 19
267.87582 660.79712 3433.5999 19
287.44885 659.01984 3424.365 19
315.20435 674.99945 3507.3972 19
339.91422 682.88318 3548.3625 19
361.34836 683.65094 3552.3518 19
387.16846 692.17529 3596.6458 19
400.5658 678.7597 3526.9363 18
408.35266 657.63922 3417.1909 18
427.51035 655.96167 3408.4741 16
469.88138 688.44647 3577.27 17
482.16895 675.95264 3512.3501 196619
638.23285 857.71167 4456.7974 327682
0 0 0 0
687.27734 853.02087 4432.4233 6771273
727.58246 869.80243 4519.6226 9731441
755.15002 870.70563 4524.3159 9073507
782.75629 871.58997 4528.9106 9469037
804.26587 865.85217 4499.0962 9798773
837.79034 873.00244 4536.25 11575700
860.9743 869.26807 4516.8457 11312527
875.25818 857.04388 4453.3271 9601652
922.78735 877.13593 4557.7285 10324606
950.06299 877.38123 4559.0029 9995898
974.71826 875.25995 4547.9805 10126971
1004.4058 877.64996 4560.3994 9600370
1037.3579 882.69263 4586.6016 9468526
1066.1696 884.04449 4593.6265 9534062
1093.1116 883.8175 4592.4468 9600111
1119.7664 883.37488 4590.147 9600110
1145.3091 882.09686 4583.5059 9994099
1178.0771 886.3139 4605.4185 9862770
1209.787 889.56171 4622.2949 9270633
1236.9214 889.3761 4621.3301 9533805
1255.1924 882.96338 4588.0088 9598571
1283.0208 883.40332 4590.2944 8940898
1298.3938 875.427 4548.8486 9598828
1340.5229 885.4483 4600.9209 9467242
1381.775 894.50232 4647.9668 9401449
1410.246 895.09009 4651.021 9599854
1435.621 893.72803 4643.9434 9402219
1471.0115 898.53497 4668.9209 9665134
1499.2999 898.90637 4670.8506 9072997
1517.1111 893.09644 4640.6616 9533548
1564.7336 904.73035 4701.1133 9534061
1593.1837 905.06573 4702.856 9402988
1614.4805 901.39575 4683.7861 9469041
1638.0842 899.11597 4671.9399 9534577
1674.3903 903.76825 4696.1138 9008746
1730.3771 918.71759 4773.793 9798263
1743.265 910.67145 4731.9839 10587780
1759.6903 904.69861 4700.9482 10587521
1780.9498 901.35858 4683.5933 10192505
1805.045 899.53436 4674.1138 9731183
1833.5547 899.9317 4676.1787 9468012
1855.96 897.36591 4662.8467 9533290
1888.354 899.63409 4674.6323 9466728
1909.1931 896.41144 4657.8867 9401446
1942.9955 899.28046 4672.7944 9006432
2005.2601 915.05688 4754.7715 8808795
2003.0288 901.37268 4683.666 6636596
2022.5542 897.71924 4664.6826 6701617
2043.5443 894.80579 4649.5435 6635565
2023.2703 874.14191 4542.1709 3610887
2048.8342 873.56458 4539.1714 7491129
2043.9044 860.16913 4469.5664 10451558
2047.1394 850.50854 4419.3687 10122336
2081.354 853.80029 4436.4731 10516838
2109.2991 854.47015 4439.9536 9923932
2138.907 855.78882 4446.8057 9858140
2158.6367 853.1712 4433.2041 9397844
2181.7529 851.9389 4426.8008 10253153
2206.3745 851.31671 4423.5679 10056031
2221.5745 847.11646 4401.7427 10648167
2264.9619 853.63733 4435.626 10647911
2301.0298 857.28156 4454.562 10977898
2332.134 859.01471 4463.5679 10977646
2407.5112 876.83362 4556.1577 10387054
2474.4868 891.23138 4630.9702 9401189
2495.0457 888.77875 4618.2261 9204069
2517.9138 887.19293 4609.9858 8414296
2547.4121 887.95221 4613.9316 5717300
2550.51 879.59082 4570.4844 1179648
2595.7473 885.78497 4602.6704 983552
2569.6404 867.75763 4508.9976 11376522
2634.4287 880.48047 4575.1069 9796203
2686.0896 888.60126 4617.3037 10321775
2685.0618 879.30371 4568.9927 11373693
2703.1206 876.38007 4553.8008 11308156
2702.6863 867.5777 4508.0625 9794148
2759.2561 877.06726 4557.3716 10978165
