# .PCD v0.7 - Point Cloud Data file format
VERSION 0.7
FIELDS x y z rgb
SIZE 4 4 4 4
TYPE F F F U
COUNT 1 1 1 1
WIDTH 1380
HEIGHT 1
VIEWPOINT 0 0 0 1 0 0 0
POINTS 1380
DATA ascii
-506.78503 417.79501 3443.2991 25
-487.71512 418.94254 3452.7561 23
-466.59909 418.3559 3447.9214 23
-451.32236 423.19083 3487.7693 23
-426.75912 419.36435 3456.2327 23
-409.96799 423.1745 3487.6343 23
-388.40884 422.2063 3479.655 23
-364.21637 418.10666 3445.8672 23
-347.78583 422.95956 3485.863 23
-349.65787 452.08966 3725.9417 23
-328.62698 453.53857 3737.8828 23
-306.46713 453.52615 3737.7808 23
-287.37436 458.4043 3777.9844 23
-266.33606 460.74118 3797.2441 23
-223.7766 422.84348 3484.906 23
-182.33035 379.55673 3128.1543 23
-178.54907 413.75284 3409.9849 23
-159.97157 418.01419 3445.1052 23
-139.55595 418.0166 3445.1252 23
-119.45367 419.11926 3454.2126 23
-104.8726 444.05612 3659.7324 23
-78.458633 418.82974 3451.8267 22
-57.851185 417.73798 3442.8289 23
-37.980324 423.67331 3491.7456 23
-17.200327 421.53714 3474.1399 21
3.3882635 421.54913 3474.239 21
26.252346 461.54626 3803.8792 19
48.794609 461.54312 3803.853 19
67.777115 438.51071 3614.0293 17
90.783409 446.32162 3678.4041 196620
0 0 0 0
180.22691 598.58856 4933.3267 5325638
215.94778 617.12067 5086.061 9338749
249.87227 626.60846 5164.2554 9667710
280.23203 626.06171 5159.7495 9864574
305.51978 615.40607 5071.9297 8811628
341.27667 625.85828 5158.0732 8614249
371.49802 625.27515 5153.2666 8811372
399.41977 621.2041 5119.7148 8549225
431.80478 624.1593 5144.0703 8483948
457.84714 618.16125 5094.6372 10327180
478.73145 606.37201 4997.4751 11183005
519.20251 619.32013 5104.188 9801353
547.18939 616.771 5083.1787 9735560
580.63763 620.32239 5112.4482 10459282
611.50983 620.90594 5117.2578 9669766
644.15521 623.14972 5135.75 10854813
673.43738 622.08429 5126.9692 11183777
704.80835 622.95703 5134.1621 11117471
749.28748 634.86407 5232.2949 10195855
776.76294 631.99017 5208.6094 10392721
801.31201 627.04596 5167.8613 10260363
831.86719 626.99274 5167.4224 9602174
865.3775 629.09143 5184.7192 9009780
891.25439 625.68744 5156.665 8811887
937.15582 636.10083 5242.4878 9338486
969.09723 636.67462 5247.2168 9141106
998.22693 635.42291 5236.9004 9864829
1039.1555 641.5307 5287.2388 10193281
1081.6648 648.22833 5342.438 9732987
1111.782 647.32983 5335.0327 9272949
1134.9431 642.54285 5295.5806 10456710
1174.2102 646.88641 5331.3784 10324611
1196.8428 642.07831 5291.752 8877419
1257.2389 657.25781 5416.855 9141362
1303.187 664.31635 5475.0288 9537147
1317.3701 655.23267 5400.1646 10919315
1363.2635 661.97784 5455.7559 10523788
1384.104 656.52698 5410.832 10720910
1420.0846 658.34192 5425.79 9140851
1469.809 666.30688 5491.4341 8811372
1480.929 656.80536 5413.1265 9403509
1506.6611 654.05011 5390.4185 9863804
1564.9127 665.23291 5482.5825 9074801
1599.7455 666.20813 5490.6201 8680556
1634.0607 666.93329 5496.5967 8681068
1678.6854 671.75562 5536.3403 9996928
1725.1793 677.12665 5580.6064 9799034
1770.354 681.78754 5619.0195 9075052
1768.8239 668.62189 5510.5132 8087899
1777.3538 659.66724 5436.7129 9732463
1819.5056 663.28815 5466.5552 11049088
1818.2762 651.24469 5367.2979 9470310
1808.8723 636.73779 5247.7378 13812904
1856.2087 642.35687 5294.0479 13879982
1893.475 644.36212 5310.5742 13352354
1944.5762 650.93304 5364.729 12891289
1993.9845 656.73492 5412.5459 12628115
2035.1437 659.6792 5436.8115 11838340
2104.0918 671.39893 5533.4009 11641478
2151.5044 675.99261 5571.2603 13022365
2209.6257 683.76129 5635.2861 11969685
2217.9109 676.10651 5572.1987 7824729
2295.3335 689.44299 5682.1128 8219488
2339.072 692.42249 5706.6685 8219230
2391.051 697.72174 5750.3428 8218719
2410.4338 693.49396 5715.499 8218463
2448.4199 694.66144 5725.1206 7888728
2479.1331 693.76172 5717.7056 7691605
2533.8679 699.51782 5765.1455 8283486
2561.3865 697.70728 5750.2231 7954264
2599.625 698.82587 5759.4424 9006951
2621.6694 695.61865 5733.0103 8809057
2712.7126 710.5672 5856.2095 8611678
2740.2861 708.72272 5841.0083 8743007
2780.0588 710.03998 5851.8647 8545628
2791.4875 704.1748 5803.5264 8809053
2815.8384 701.67242 5782.9028 9006427
2891.4238 711.84375 5866.731 11967880
2960.6775 720.23309 5935.8726 13811367
3001.3503 721.55426 5946.7607 14208195
2995.9377 711.89404 5867.145 14009270
3132.8325 735.88251 6064.8486 9993328
3259.5864 756.9718 6238.6577 9730667
3270.8818 751.07593 6190.0664 10257013
3270.4805 742.65466 6120.6616 11112065
3322.4177 746.17285 6149.6572 11112578
3374.4116 749.6272 6178.127 11638924
3377.5496 742.27057 6117.4961 12495003
3528.4119 767.19019 6322.8735 12100250
3548.7129 763.49615 6292.4287 9337459
3647.2268 776.53131 6399.8594 8350566
3524.5676 742.69275 6120.9756 8548716
3493.8921 728.72888 6005.8911 7299932
3573.6809 737.85419 6081.0981 3616814
3522.2222 719.96924 5933.6973 8484977
3557.6851 720.0296 5934.1948 10326666
3624.1636 726.30444 5985.9102 9339772
3739.1965 742.09412 6116.042 10062467
3803.2988 747.56976 6161.1699 9470328
3962.8328 771.52069 6358.564 10324610
3886.7065 749.57214 6177.6729 9731445
3987.6956 761.87207 6279.0439 8152156
4075.1528 771.38312 6357.4302 8744036
4285.4985 803.76843 6624.3364 8480863
4357.2158 809.80121 6674.0566 12297113
4405.2173 811.35736 6686.8823 13613229
4420.0747 806.83575 6649.6172 13216161
4368.0752 790.29803 6513.3193 11768201
4318.6899 774.51886 6383.2734 9661540
4365.3228 776.08405 6396.1733 7624010
4266.1821 751.92926 6197.0991 6900801
4146.7852 724.64703 5972.25 8218200
4255.668 737.38068 6077.1958 10390663
4039.0476 693.97388 5719.4541 13287096
4031.9092 686.98236 5661.833 13815753
4163.0034 703.46478 5797.6748 13815753
4191.5786 702.49554 5789.6865 13946823
4240.5312 704.92957 5809.7466 12562088
4431.355 730.71863 6022.2896 9469043
4586.8096 750.30975 6183.752 10784130
4828.3027 783.55298 6457.729 11046787
4829.3257 777.55585 6408.3037 11243910
4858.1021 776.08612 6396.1904 10915201
4907.2388 777.86652 6410.8638 10717307
4934.1064 776.1167 6396.4424 9138536
4954.2051 773.33691 6373.5322 7034196
4880.1514 756.01343 6230.7593 10125692
4797.3208 737.60071 6079.0093 14337726
4816.5298 735.03442 6057.8589 13349797
4863.5913 736.7251 6071.793 11770255
4879.4497 733.69916 6046.854 8940900
4883.5518 728.9624 6007.8159 4532512
4919.5518 729.02112 6008.2998 10586496
4962.8037 730.14594 6017.5698 12692643
4969.7754 725.95508 5983.0308 10587524
4929.7646 715.00934 5892.8203 10981256
5001.8945 720.36804 5936.9844 10060155
5054.5684 722.86932 5957.5991 9139309
5049.8286 717.18201 5910.7261 8416354
5065.4194 714.44049 5888.1318 10192248
5098.874 714.23877 5886.4697 11771795
4902.3486 682.04364 5621.1304 9665394
4986.2227 689.0307 5678.7144 5722449
5242.1416 719.539 5930.1519 10524824
5285.709 720.68762 5939.6182 10459548
5318.8545 720.40936 5937.3252 9341068
5397.3857 726.2417 5985.3926 9538957
5421.8491 724.77032 5973.2661 9801359
5812.9912 772.01611 6362.647 10064532
5898.3296 778.30127 6414.4468 10919067
6176.3267 809.76508 6673.7588 11115935
6143.6255 800.35248 6596.1846 10391184
0 0 0 0
5600.9458 720.48718 5937.9663 6311511
5636.7261 720.56262 5938.5879 6509147
5390.52 684.81354 5643.9585 5454919
0 0 0 0
0 0 0 0
0 0 0 0
0 0 0 0
0 0 0 0
0 0 0 0
0 0 0 0
0 0 0 0
0 0 0 0
0 0 0 0
-2196.3577 319.04034 2506.959 16
-2181.6025 319.05524 2507.0759 16
-2213.7646 325.97888 2561.4807 16
-2175.2458 322.51849 2534.2896 16
-2200.6714 328.55679 2581.7373 16
-2145.3333 322.53729 2534.4373 16
-2130.0637 322.49942 2534.1399 16
-2104.9805 320.96469 2522.0801 16
-2076.3323 318.8605 2505.5459 16
-2066.7688 319.67795 2511.9692 16
-2068.0076 322.19022 2531.71 16
-2098.8215 329.38062 2588.2109 16
-2073.1184 327.74203 2575.3352 16
-2035.0901 324.11621 2546.844 16
-2021.5082 324.35867 2548.7493 16
-1992.5466 322.1185 2531.1465 16
-1977.4407 322.10123 2531.011 16
-1967.4902 322.92993 2537.5227 16
-1965.0718 325.01715 2553.9236 16
-1915.9841 319.35794 2509.4546 16
-1906.5364 320.26901 2516.6138 16
-1890.2604 320.03842 2514.8018 16
-1880.5836 320.93036 2521.8103 16
-1866.3479 321.05234 2522.7688 16
-1848.8158 320.60464 2519.251 15
-1833.5474 320.54541 2518.7856 16
-1818.0667 320.44781 2518.0186 16
-1794.8635 318.97617 2506.4546 16
-1782.9279 319.49911 2510.5637 16
-1765.3895 319.01837 2506.7861 16
-1754.0282 319.65518 2511.7903 16
-1742.8671 320.33972 2517.1692 16
-1726.1935 320.01413 2514.6108 16
-1711.2535 320.00705 2514.5552 16
-1692.663 319.31119 2509.0872 19
-1676.8829 319.13788 2507.7253 18
-1664.9854 319.70697 2512.197 18
-1648.1754 319.33456 2509.271 17
-1632.9716 319.26938 2508.7585 17
-1615.3542 318.72681 2504.4951 16
-1599.2798 318.48135 2502.5667 16
-1584.7103 318.53391 2502.9795 16
-1571.224 318.80719 2505.127 16
-1560.8121 319.71545 2512.2639 16
-1529.2866 316.27466 2485.2268 16
-1512.5938 315.86435 2482.0027 16
-1510.0833 318.43668 2502.2156 16
-1483.4596 315.92477 2482.4773 16
-1477.4513 317.79684 2497.1877 16
-1450.8708 315.237 2477.073 16
-1446.108 317.41373 2494.1772 16
-1437.0505 318.68298 2504.1509 16
-1430.1899 320.47098 2518.2007 16
-1404.7181 318.08243 2499.4319 16
-1391.4355 318.43246 2502.1824 16
-1373.0748 317.61539 2495.762 16
-1354.1072 316.63858 2488.0864 17
-1342.4869 317.37732 2493.8911 17
-1356.578 324.27853 2548.1196 18
-1319.9236 319.06833 2507.1787 18
-1305.5537 319.18765 2508.1165 18
-1280.6211 316.6976 2488.55 19
-1254.7528 313.91544 2466.6885 19
-1239.4966 313.75391 2465.4192 19
-1223.3522 313.36102 2462.332 19
-1216.7963 315.44443 2478.7029 19
-1199.5172 314.76483 2473.3628 21
-1195.0344 317.46783 2494.6025 21
-1204.2144 323.91364 2545.2524 21
-1187.1418 323.37189 2540.9954 21
-1146.8267 316.40369 2486.2405 20
-1134.6897 317.12949 2491.9438 23
-1133.0278 320.84073 2521.106 23
-1100.3236 315.74338 2481.052 23
-1090.3679 317.12415 2491.9019 23
-1076.1008 317.2717 2493.0613 23
-1055.9229 315.6564 2480.3684 23
-1038.1241 314.71674 2472.9849 23
-1021.4083 314.08316 2468.0063 23
-1026.4504 320.21896 2516.2202 20
-988.71997 312.9953 2459.458 21
-976.11407 313.62805 2464.4302 21
-967.09485 315.44995 2478.7463 21
-984.40051 326.04724 2562.0178 22
-946.17596 318.29602 2501.1101 23
-938.0354 320.57947 2519.0532 23
0 0 0 0
0 0 0 0
0 0 0 0
-751.98328 274.46713 2156.7109 23
0 0 0 0
0 0 0 0
-713.41754 274.38162 2156.0391 280
-704.67407 275.96127 2168.4517 282
-692.49384 276.22873 2170.5532 548
-690.27277 280.55408 2204.541 1188703
-675.42334 279.81464 2198.7307 991838
-661.9342 279.62073 2197.207 398404
-648.75397 279.55219 2196.6685 290
-636.96844 280.09412 2200.9268 2354
-630.33124 282.96991 2223.5242 1057629
-620.08337 284.31296 2234.0776 1057887
-614.99799 288.1333 2264.0972 266553
-590.35516 282.75681 2221.8499 21
-612.38898 300.00131 2357.354 18
-565.22162 283.3588 2226.5801 19
0 0 0 0
-768.26855 404.01453 3174.6702 23
-754.93219 406.96729 3197.8723 23
-768.68097 425.04907 3339.9556 23
-754.73065 428.36539 3366.0146 23
-732.54681 427.06177 3355.771 22
-690.61627 413.85214 3251.9724 25
-667.2832 411.34863 3232.3003 25
-654.28308 415.25513 3262.9968 25
-638.84003 417.80197 3283.0093 25
-618.91553 417.48581 3280.5247 25
-604.37122 420.896 3307.3215 25
-582.69226 419.39954 3295.5627 25
-562.53235 418.93063 3291.8782 25
-538.47882 415.42416 3264.325 24
-520.90277 416.83975 3275.4482 24
-500.43121 415.95822 3268.5215 25
-486.20837 420.40881 3303.4932 25
-485.37729 437.298 3436.2053 23
-468.57391 440.64612 3462.5144 23
-443.71082 436.37439 3428.948 23
-396.94989 409.12332 3214.814 23
-375.96524 407.03067 3198.3701 23
-380.56467 433.88428 3409.3811 23
-362.23264 436.13907 3427.0986 23
-354.99481 452.81293 3558.1187 23
-338.42993 458.94418 3606.2971 23
-320.1348 463.39755 3641.2908 23
-299.57663 464.98212 3653.7419 23
-282.41571 472.49734 3712.7954 23
-238.66861 433.04419 3402.7798 23
-212.56134 421.26862 3310.2495 23
-193.03629 421.46988 3311.8311 23
-188.36131 457.8096 3597.3818 23
-158.10616 433.31808 3404.9321 23
-136.51773 428.88821 3370.1226 23
-121.35728 446.59494 3509.2588 23
-103.55397 459.88831 3613.7158 23
-80.57373 451.12827 3544.8811 23
-57.060291 432.151 3395.7612 23
-39.003159 456.33322 3585.7808 23
-17.593691 452.23685 3553.592 21
3.3814893 441.25421 3467.2927 21
24.441107 450.68994 3541.4368 19
45.211552 448.53845 3524.5308 19
73.010284 495.43985 3893.0732 19
0 0 0 0
121.70134 506.03745 3976.3469 196618
0 0 0 0
0 0 0 0
241.15845 634.29382 4984.1616 8417641
272.3566 638.18573 5014.7437 9206642
302.1694 638.38513 5016.3101 9074797
333.82245 642.08832 5045.4092 9404021
365.94098 646.00446 5076.1816 9535351
395.92294 645.84045 5074.8926 9799551
430.27243 652.32098 5125.8154 10128517
450.08414 637.36005 5008.2549 11050905
475.89761 632.22345 4967.8926 11116957
512.83453 641.60175 5041.5859 10722456
540.2464 638.68683 5018.6812 10788763
570.25928 638.9906 5021.0679 10328212
596.69446 635.45416 4993.2793 10130832
641.95032 651.34808 5118.1709 11183521
667.8158 647.0213 5084.1714 11117985
700.01056 648.93549 5099.2129 11182748
736.70209 654.68744 5144.4106 8550258
759.83978 648.41595 5095.1304 9602176
793.65802 651.38983 5118.4985 10194312
827.47168 654.14117 5140.1182 9667965
862.22089 657.4104 5165.8071 8877679
902.05402 664.19891 5219.1499 9272180
927.36169 660.19647 5187.6997 9732987
953.9931 657.36298 5165.4346 9667193
994.24329 663.79822 5216.0015 9074801
1027.4215 665.26617 5227.5366 8679786
1063.5966 668.53192 5253.1978 9008494
1089.3784 665.26489 5227.5264 9074544
1124.5504 667.75446 5247.0889 9008495
1149.4834 664.19366 5219.1089 10455940
1184.0581 666.24481 5235.2261 8942958
1222.5569 670.34265 5267.4263 9008495
1256.0825 671.57758 5277.1304 9010034
1292.4679 674.24432 5298.085 9734783
1330.1494 677.44476 5323.2334 10590093
1357.7954 675.50421 5307.9849 9470585
1403.2769 682.32379 5361.5718 9404022
1434.7677 682.18921 5360.5146 9666425
1462.4718 680.29901 5345.6616 9008494
1511.7418 688.30817 5408.5957 9074286
1530.6049 682.42755 5362.3872 8942958
1583.8243 691.7926 5435.9761 9470585
1615.0009 691.34821 5432.4839 10457737
1667.5356 699.88544 5499.5679 9996930
1690.191 695.79492 5467.4258 9602170
1687.2631 681.52478 5355.2935 9667191
1737.8256 688.98853 5413.9424 8943208
1762.1686 685.9751 5390.2632 8285528
1806.9534 690.88477 5428.8428 10061163
1805.0038 678.06653 5328.1191 10061929
1815.4619 670.26996 5266.855 13418147
1848.4122 670.9007 5271.8115 13682096
1890.0607 674.61511 5300.9985 13682101
1926.2045 676.27545 5314.0449 13550258
1983.5032 685.19019 5384.0952 13022629
2012.0648 684.05267 5375.1572 12495513
2040.4098 682.87817 5365.9282 13416871
2083.1963 686.49878 5394.3784 13351080
2118.9211 687.71808 5403.959 13877679
2148.991 687.09296 5399.0469 9600105
2226.8354 701.53699 5512.5454 8218717
2281.9133 708.49469 5567.2178 8613473
2341.1538 716.52808 5630.3428 9007976
2366.0591 713.97485 5610.2798 9205101
2409.5422 717.02057 5634.2129 9270637
2452.2686 719.76099 5655.7466 8744037
2500.4724 724.01361 5689.1626 8349279
2538.7886 725.32812 5699.4917 8546401
2561.3975 722.17938 5674.75 8612194
2570.1858 715.26617 5620.4272 8415072
2624.0574 720.91571 5664.8203 8546402
2679.9143 726.96112 5712.3237 8678244
2709.9841 725.94781 5704.3613 8612451
2743.9827 725.99896 5704.7632 8349279
2748.3396 718.3017 5644.2798 8414815
2806.2744 724.62427 5693.9614 8875108
2855.2053 728.49933 5724.4106 8875363
2987.4502 753.29108 5919.2197 9401963
3067.6516 764.53687 6007.5869 9862514
3081.811 759.25409 5966.0757 11112581
3181.6345 774.95648 6089.4624 11310472
3197.3762 770.05634 6050.958 11047043
3209.1719 764.32513 6005.9233 10981507
3255.0581 766.75006 6024.9775 11178630
3311.5991 771.60474 6063.1245 11047300
3364.7334 775.57001 6094.2832 11244936
3379.5156 770.70483 6056.0532 12297368
3456.9358 780.07635 6129.6934 12560283
3437.9719 767.72968 6032.6753 11047045
3335.1365 737.10071 5791.9985 8942184
3369.282 737.0614 5791.6899 8744805
3377.5879 731.42743 5747.4189 11575959
3240.7117 694.78009 5459.4512 12431517
3356.7949 712.55359 5599.1118 11970967
3367.8489 707.9024 5562.564 13880001
3375.0603 702.54163 5520.4399 14143429
3452.5544 711.77319 5592.98 13616566
3540.4016 722.94324 5680.752 13547944
3722.5544 752.97852 5916.7637 9730161
3896.2158 780.75165 6134.9995 8017746
3893.3289 772.96033 6073.7764 8213842
4031.3325 793.02704 6231.4575 7950154
4122.6353 803.62628 6314.7437 7818567
4284.7358 827.71112 6503.998 9134938
4264.3701 816.43256 6415.3735 10911606
4121.7192 782.14819 6145.9736 12754326
4138.9873 778.54523 6117.6621 13084576
3961.1528 738.62463 5803.9736 6836040
4063.3584 751.16022 5902.4756 3020818
3924.584 719.31384 5652.2329 9075046
4055.1047 736.94641 5790.7861 2892318
4014.1753 723.38635 5684.2339 10589840
4003.8372 715.51886 5622.4126 13420481
4116.9961 729.66913 5733.6025 13946569
4150.1641 729.52655 5732.4824 13224130
4189.4014 730.44464 5739.6963 13946569
4323.7036 747.78943 5875.9888 13880003
4462.1748 765.57245 6015.7241 12495267
4483.999 763.21906 5997.2314 12165531
4484.6909 757.33411 5950.9888 9401965
4654.2915 779.84216 6127.853 9993333
4739.6128 787.98975 6191.875 10387835
4801.2007 792.09674 6224.147 5058864
4632.4907 758.4364 5959.6504 851968
4641.9966 754.24225 5926.6938 720896
4574.0991 737.62903 5796.1499 12697002
4849.8291 776.26447 6099.7402 13946302
4863.8672 772.75165 6072.1372 13946557
4880.4868 769.69763 6048.1392 13879480
4984.6655 780.39636 6132.2075 12692641
4917.1782 764.25867 6005.4009 9928821
4967.0972 766.46985 6022.7759 9928307
4970.3491 761.49976 5983.7217 9731185
4916.8145 747.96143 5877.3403 9994358
4940.0005 746.20264 5863.5195 9796725
5007.1172 751.05774 5901.6704 9928310
5047.5625 751.87268 5908.0737 9139049
4944.5454 731.45367 5747.6255 8217695
4918.4419 722.61432 5678.167 10718599
4870.3579 710.68762 5584.4492 8216925
4901.2368 710.36646 5581.9258 2955030
4905 706.14587 5548.7617 3152155
5001.8789 715.29767 5620.6743 5060153
5047.207 717.00507 5634.0908 5258303
5042.6045 711.64349 5591.9604 4601400
5041.3364 706.81946 5554.0542 5062978
5160.2578 718.7998 5648.1934 9142914
5369.9067 743.18219 5839.7856 10458517
5321.1934 731.72467 5749.7544 10129294
5447.9644 744.39032 5849.2793 9009789
5386.4946 731.33801 5746.7163 6902871
5377.4067 725.51703 5700.9761 1706764
5265.5229 705.98615 5547.5063 2494484
5224.8071 696.18042 5470.4546 3875111
0 0 0 0
0 0 0 0
0 0 0 0
0 0 0 0
0 0 0 0
0 0 0 0
0 0 0 0
0 0 0 0
0 0 0 0
0 0 0 0
-2148.9871 326.69571 2452.8894 16
-2175.0867 332.91544 2499.5881 16
-2202.7009 339.4538 2548.6794 16
-2176.8174 337.7811 2536.1206 16
-2127.5359 332.42923 2495.9377 16
-2113.6641 332.57391 2497.0242 16
-2105.7214 333.66013 2505.1797 16
-2152.1221 343.4339 2578.5627 16
-2078.9407 334.12814 2508.6936 16
-2056.7329 332.93982 2499.7715 16
-2107.2705 343.59558 2579.7769 16
-2049.6987 336.65079 2527.634 16
-2050.2017 339.21234 2546.8667 16
-2040.2954 340.07693 2553.3582 16
-2021.2078 339.41266 2548.3706 16
-1993.1444 337.21973 2531.9058 16
-1978.4197 337.26743 2532.2639 16
-1955.7628 335.95334 2522.3975 16
-1936.1538 335.14661 2516.3403 16
-1928.2408 336.36758 2525.5076 16
-1913.2125 336.35675 2525.4263 16
-1895.5543 335.87973 2521.8447 16
-1877.1711 335.26569 2517.2344 16
-1862.2251 335.26059 2517.196 16
-1844.2705 334.70935 2513.0574 16
-1828.5872 334.56476 2511.9717 16
-1813.2316 334.47824 2511.322 16
-1796.265 334.09061 2508.4119 16
-1783.2382 334.43539 2511.0005 16
-1765.9376 333.97778 2507.5647 16
-1748.1509 333.41965 2503.374 16
-1729.2933 332.64594 2497.5649 16
-1715.0669 332.75745 2498.4021 16
-1701.339 332.96848 2499.9866 16
-1680.6792 331.81464 2491.3232 16
-1672.8091 333.18777 2501.6331 16
-1655.2451 332.63736 2497.5005 16
-1641.4797 332.84732 2499.0769 16
-1623.3119 332.16025 2493.9182 16
-1617.5865 334.02991 2507.9561 16
-1597.4117 332.92279 2499.6436 16
-1573.7134 331.05371 2485.6101 15
-1557.6296 330.7663 2483.4521 16
-1545.3691 331.29303 2487.407 16
-1524.4062 329.94635 2477.2959 16
-1512.8771 330.63516 2482.4675 16
-1497.8699 330.56992 2481.9778 16
-1480.1078 329.88937 2476.8682 15
-1462.5983 329.25204 2472.083 15
-1446.2438 328.86453 2469.1733 16
-1429.7777 328.44339 2466.0115 15
-1418.9161 329.31433 2472.5505 16
-1409.9067 330.63776 2482.4871 16
-1391.781 329.8287 2476.4126 16
-1375.6294 329.47522 2473.7585 16
-1355.2311 328.08606 2463.3284 15
-1341.9713 328.41357 2465.7876 18
-1330.5917 329.21356 2471.7939 18
-1324.1345 331.26276 2487.1797 18
-1295.8201 327.82843 2461.3943 18
-1282.5834 328.17389 2463.988 19
-1267.3401 328.00793 2462.7419 19
-1260.0797 329.92831 2477.1604 19
-1247.6582 330.52667 2481.6531 19
-1228.2704 329.27179 2472.2312 19
-1206.4042 327.31424 2457.5334 19
-1189.0363 326.54413 2451.7515 21
-1178.4772 327.64804 2460.0398 21
-1163.3258 327.48682 2458.8293 21
-1146.969 326.97791 2455.0083 21
-1131.9894 326.85352 2454.0742 21
-1119.4427 327.43756 2458.4595 23
-1101.7612 326.51526 2451.5347 23
-1090.0438 327.35944 2457.8728 23
-1076.0758 327.54138 2459.239 23
-1060.8781 327.34894 2457.7939 23
-1048.2523 327.95578 2462.3503 23
-1031.3717 327.22977 2456.8994 23
-1017.018 327.2962 2457.3982 22
-1003.5918 327.66739 2460.1851 20
-989.07886 327.68948 2460.3508 21
-967.76135 325.42407 2443.3418 21
-955.1712 326.06915 2448.1851 21
-980.99487 340.0498 2553.1543 22
-955.4256 336.3746 2525.5605 23
-940.99738 336.56735 2527.0076 23
-912.61481 331.69452 2490.4214 23
0 0 0 0
0 0 0 0
-751.32892 286.99829 2154.8342 25
0 0 0 0
0 0 0 0
-714.07483 287.42331 2158.0254 25
-704.3772 288.69028 2167.5381 283
-697.04956 290.99371 2184.8325 812
-689.9552 293.48358 2203.5269 1056858
-673.4447 291.98688 2192.2896 991835
0 0 0 0
-648.43774 292.42749 2195.5977 548
-640.33478 294.68649 2212.5586 133689
-631.66229 296.77234 2228.2195 1188189
-619.28125 297.16766 2231.1877 926302
-610.72717 299.45673 2248.3745 134457
-591.45258 296.47406 2225.98 21
-582.82593 298.81454 2243.5527 18
-567.0448 297.51056 2233.7622 132120
0 0 0 0
-830.8689 457.28137 3433.3499 23
-814.35486 459.4437 3449.5852 23
-623.35706 360.74213 2708.5161 23
-609.44904 362.0152 2718.0747 23
-761.13556 464.39163 3486.7351 22
-747.20856 468.61624 3518.4541 25
-725.21332 467.87811 3512.9119 25
-702.9895 466.94449 3505.9023 25
-681.34009 466.3472 3501.4177 25
-520.06232 367.14093 2756.5593 23
-502.09863 365.95456 2747.6519 23
-491.5141 370.24722 2779.8818 23
-571.63538 445.53391 3345.1479 23
-460.72989 371.99454 2793.0012 22
-540.91565 453.01135 3401.2898 23
-522.99847 454.95959 3415.9175 23
-506.75702 458.58118 3443.1089 23
-481.44034 453.94955 3408.334 23
-421.33405 414.6727 3113.4365 23
-405.97083 417.85077 3137.2979 23
-354.79871 382.7081 2873.4404 23
-380.85315 431.52304 3239.9519 23
-377.81805 450.8118 3384.7751 23
-360.47791 454.23767 3410.4971 23
-333.4913 445.19305 3342.5886 23
-314.33279 446.11612 3349.5193 23
-300.33783 454.9859 3416.1152 23
-282.58743 459.03757 3446.5356 23
-283.61392 496.59824 3728.5481 23
-239.01489 453.86737 3407.717 23
-217.69275 451.52914 3390.1614 23
-196.86223 449.83893 3377.4709 23
-177.48659 451.4668 3389.6931 23
-167.56575 480.62946 3608.6514 23
-134.6526 442.72784 3324.0793 23
-125.11555 481.86606 3617.936 23
-104.16372 484.138 3634.9944 23
-78.218887 458.33737 3441.2786 23
-60.666004 480.85483 3610.3438 23
-39.293915 481.14362 3612.5117 23
-17.073645 459.30615 3448.5525 21
3.3667676 459.79169 3452.1978 21
25.511606 492.33633 3696.5488 21
45.415638 471.54459 3540.4407 21
65.688629 466.51349 3502.6663 18
88.738754 478.88559 3595.5581 19
110.60921 481.33307 3613.9341 65550
164.99538 601.53015 4516.3955 262153
197.91737 620.84363 4661.4043 1971225
227.8398 627.16907 4708.897 5457220
263.72989 646.74878 4855.9048 7956321
299.76538 662.79742 4976.4009 9271921
334.98563 674.33002 5062.9897 9272180
358.23505 661.85004 4969.2881 9930366
386.62482 660.04169 4955.7104 9667966
428.93567 680.57666 5109.8906 9141879
444.34326 658.53186 4944.374 10458254
474.51666 659.7442 4953.4771 10854039
503.60367 659.39282 4950.8389 10459796
537.27435 664.7514 4991.0718 11183265
563.96356 661.36353 4965.6348 10722968
594.74701 662.87488 4976.9824 10788761
638.15894 677.65344 5087.9429 10657432
662.62744 671.89032 5044.6719 11248284
710.53009 689.36066 5175.8423 8418672
729.98236 678.92462 5097.4868 8615280
766.06592 684.17133 5136.8799 9272950
789.96796 678.55353 5094.7007 9601404
828.35217 685.33105 5145.5874 9733246
853.77985 681.28839 5115.2344 9798782
891.82471 687.24585 5159.9644 9206901
917.43549 683.54425 5132.1719 9271924
953.57458 687.67267 5163.1685 9140594
980.0166 684.76868 5141.3652 8943470
1008.22 683.23352 5129.8389 9140848
1037.8483 682.72552 5126.0244 8811625
1065.6062 681.05103 5113.4521 8548197
1096.9156 681.67627 5118.1465 9008492
1133.3802 685.38519 5145.9941 9205871
1166.229 686.77063 5156.396 8942699
1202.3428 689.9588 5180.3335 8614247
1237.2263 692.29987 5197.9106 8614247
1270.681 693.74713 5208.7769 10194307
1287.8903 686.46655 5154.1133 10523530
1336.6195 695.93488 5225.2026 9339000
1384.8215 704.70605 5291.0586 9799037
1427.137 710.15961 5332.0049 10655373
1440.6959 701.37732 5266.0659 10720652
1474.1249 702.43579 5274.0127 10259844
1503.1182 701.38037 5266.0889 8943728
1557.5306 711.98785 5345.7314 10918288
1578.7838 707.31647 5310.6577 10524301
1604.2393 704.67358 5290.8149 11313816
1670.1597 719.56586 5402.6284 8417384
1700.535 718.87189 5397.418 9009260
1753.063 727.39514 5461.4121 9140074
1749.884 712.91418 5352.6865 8350297
1772.0541 709.09222 5323.9907 8350546
1795.6877 705.97949 5300.6196 11640960
1811.9543 700.12714 5256.6792 13748919
1834.8469 696.98962 5233.1221 13418415
1867.3962 697.56366 5237.4321 13615543
1905.3773 700.11487 5256.5869 13943737
1955.9254 707.1272 5309.2368 12890789
1984.8372 706.21918 5302.4194 13219752
2016.4116 706.27222 5302.8174 12758943
2055.4771 708.90698 5322.6001 12890272
2104.3977 714.80981 5366.9194 11179655
2130.9397 713.04852 5353.6953 13087908
2226.4106 734.06543 5511.4937 11573900
2247.9412 730.44824 5484.3354 8152922
2277.6628 729.55786 5477.6504 8415840
2335.0818 737.43964 5536.8281 8810086
2368.3916 737.59448 5537.9907 9073515
2422.4697 744.12469 5587.0205 9073002
2455.7761 744.18427 5587.4678 9007209
2488.1133 743.95239 5585.7271 9073002
2509.3767 740.45911 5559.4985 8612194
2541.697 740.27667 5558.1289 8875623
2566.647 737.97974 5540.8828 8678501
2636.4438 748.47247 5619.6646 8415328
2650.4175 743.05341 5578.9771 8678245
2698.1848 747.12518 5609.5488 8875623
2736.6331 748.54889 5620.2383 9073002
2804.7974 757.96881 5690.9644 8546401
2832.5188 756.36542 5678.9263 8414558
2866.208 756.37457 5678.9951 8349020
2922.5105 762.2818 5723.3472 8414811
3039.0847 783.59381 5883.3618 8941410
3090.7429 787.87439 5915.501 9599340
3061.0212 771.54669 5792.9097 10652541
3153.6052 786.06702 5901.9312 11047299
3190.8042 786.61505 5906.0459 11047299
3239.7959 790.02679 5931.6621 11047299
3278.585 790.90411 5938.2485 11376263
3323.1985 793.15289 5955.1333 11507850
3357.9185 793.01801 5954.1201 11771535
3415.1714 798.15192 5992.667 12954526
3338.4844 772.19965 5797.8125 12822426
3272.0127 749.11487 5624.4878 5255460
3359.2483 761.33142 5716.2119 4533536
3245.5488 728.2193 5467.6001 11640453
3299.3145 732.96533 5503.2344 13749952
3209.6201 706.05981 5301.2227 13881797
3291.9966 717.16156 5384.5767 13947333
3361.7693 725.33075 5445.9121 13814718
3394.6064 725.45117 5446.8164 13681848
3520.5647 745.28247 5595.7134 9795437
3653.3394 766.17328 5752.5649 9400166
3694.9553 767.73688 5764.3047 9268838
3758.9712 773.88324 5810.4531 9268582
3825.1794 780.36554 5859.123 9334117
3901.6599 788.8078 5922.5093 9136738
3914.853 784.41876 5889.5557 9269094
3931.4299 780.77917 5862.229 8940130
3871.5044 762.14325 5722.3071 4666923
3889.4131 759.0202 5698.8589 2494220
3899.0547 754.35162 5663.8062 3219225
3916.2639 751.21429 5640.2505 4074791
3905.0022 742.71503 5576.4365 6443596
4133.9712 779.66583 5853.8696 8878449
3980.0088 744.3819 5588.9517 8812657
4027.6868 747.08197 5609.2241 10918032
4040.5425 743.3316 5581.0659 11773085
4117.2632 751.2959 5640.8633 13681339
4152.4707 751.6178 5643.2803 14405062
4185.6753 751.57501 5642.959 13813952
4183.1333 745.1651 5594.832 12166304
4288.8247 757.9845 5691.0825 8941675
4466.1216 783.16046 5880.1079 9270126
4556.9727 792.90509 5953.2725 8546403
4570.8633 789.21185 5925.5435 8809575
4659.7002 798.41675 5994.6548 9270125
4669.0254 793.96143 5961.2036 9796727
4593.4268 775.24023 5820.6416 8283228
4784.2549 801.42828 6017.2661 12691865
4919.0352 817.90948 6141.0098 13415586
4913.8862 811.05286 6089.5288 13086879
4954.1416 811.73572 6094.6562 12955550
4925.3657 801.17975 6015.4004 11573899
4844.75 782.40369 5874.4258 10455417
4906.1914 786.67322 5906.4829 10784123
4896.5806 779.57037 5853.1533 11178624
4862.2773 768.664 5771.2661 10849659
4894.8193 768.4035 5769.3101 10587512
4923.0234 767.47028 5762.3032 10258293
4890.1821 757.09888 5684.4331 10060917
4826.1704 742.07654 5571.6426 9073256
4836.4067 738.59729 5545.52 7032647
4916.1167 745.70319 5598.8721 1968648
4921.3994 741.49994 5567.3135 2099978
4997.5889 747.96497 5615.854 2692629
5036.4604 748.79614 5622.0947 3087129
5104.2153 753.88239 5660.2832 2889753
5088.5132 746.65637 5606.0288 2692630
5082.4536 740.92981 5563.0327 2298387
5150.4736 746.00677 5601.1514 919559
5073.9609 730.21838 5482.6099 1774871
5124.2974 732.77026 5501.7695 6840159
5081.5688 722.06586 5421.3989 10458774
5016.3813 708.32458 5318.2271 11379876
5120.2974 718.4837 5394.5034 9997453
5165.4702 720.32495 5408.3281 10324881
0 0 0 0
0 0 0 0
0 0 0 0
0 0 0 0
0 0 0 0
0 0 0 0
0 0 0 0
0 0 0 0
0 0 0 0
0 0 0 0
-2194.4785 348.45554 2504.8142 15
-2249.3535 359.60141 2584.9346 15
-2239.7705 360.52469 2591.5713 14
-2206.4661 357.61603 2570.6631 16
-2203.5461 359.62576 2585.1096 15
-2180.009 358.2753 2575.4021 14
-2162.7161 357.93924 2572.9863 15
-2144.6895 357.47614 2569.6572 15
-2115.1345 355.07111 2552.3691 15
-2094.7332 354.17908 2545.957 13
-2099.4763 357.55649 2570.2349 14
-2077.4458 356.39017 2561.8511 16
-2053.345 354.84885 2550.7715 16
-2034.8544 354.26141 2546.5488 16
-2016.8867 353.75693 2542.9224 16
-2000.5989 353.54169 2541.3752 16
-1983.8082 353.23367 2539.1611 16
-1967.1375 352.94244 2537.0676 16
-1949.8616 352.53732 2534.1555 16
-1931.9835 352.01617 2530.4094 16
-1917.0205 352.02222 2530.4529 16
-1899.526 351.55978 2527.1287 16
-1881.6917 351.02661 2523.2961 16
-1860.8219 349.91415 2515.2993 16
-1843.8616 349.52478 2512.5002 19
-1828.2888 349.3942 2511.5618 16
-1812.0471 349.13263 2509.6814 16
-1797.176 349.133 2509.6841 16
-1782.8052 349.23132 2510.3909 16
-1765.295 348.71121 2506.6521 16
-1744.3719 347.50238 2497.9626 16
-1725.803 346.74576 2492.5239 16
-1711.9469 346.93124 2493.8572 16
-1696.302 346.75427 2492.5852 16
-1685.4268 347.55774 2498.3606 16
-1675.7823 348.63153 2506.0793 16
-1660.2834 348.49567 2505.1028 15
-1641.6964 347.70328 2499.4067 15
-1632.6671 348.93915 2508.2908 13
-1618.874 349.17032 2509.9524 14
-1597.0885 347.66589 2499.1379 13
-1580.4337 347.26059 2496.2246 16
-1563.5186 346.78995 2492.8416 16
-1547.0626 346.41315 2490.1328 16
-1527.8761 345.41174 2482.9346 16
-1513.2491 345.43173 2483.0781 16
-1498.5339 345.43173 2483.0781 16
-1481.135 344.80698 2478.5872 16
-1464.8177 344.42404 2475.8345 16
-1449.4347 344.25522 2474.6211 16
-1432.6417 343.74466 2470.9509 16
-1417.5989 343.64783 2470.2549 16
-1406.839 344.59808 2477.0857 16
-1386.29 343.14526 2466.6423 16
-1373.2104 343.53009 2469.4087 16
-1355.2119 342.67938 2463.2935 18
-1340.8995 342.75244 2463.8184 19
-1326.722 342.86191 2464.6055 19
-1310.2638 342.37784 2461.1257 19
-1295.8293 342.41763 2461.4119 19
-1280.6792 342.26709 2460.3298 21
-1265.4753 342.09857 2459.1184 20
-1250.7412 342.05457 2458.802 21
-1293.8141 358.00507 2573.4595 21
-1222.8274 342.39874 2461.2759 21
-1205.401 341.59378 2455.4897 21
-1206.9073 346.20004 2488.6011 23
-1181.4067 343.07748 2466.155 23
-1186.5835 348.89694 2507.9873 23
-1157.5103 344.66562 2477.571 23
-1137.734 343.12943 2466.5283 23
-1125.4423 343.83987 2471.6353 23
-1113.7526 344.75543 2478.2168 23
-1130.4519 354.60052 2548.9866 23
-1081.4554 343.82568 2471.5334 23
-1069.5033 344.69421 2477.7766 22
-1086.8097 355.14795 2552.9216 21
-1043.0024 345.64423 2484.6057 21
-1026.2629 344.96683 2479.7363 21
-1040.9221 354.97742 2551.6958 21
-989.349 342.36349 2461.0227 21
-1016.2059 356.91888 2565.6516 21
-1015.5092 362.09183 2602.8364 23
-952.77277 344.96219 2479.7029 23
-941.4646 346.2077 2488.6562 24
-928.46667 346.86163 2493.3567 25
-901.80725 342.3504 2460.9287 26
-881.86639 340.28339 2446.0701 25
0 0 0 0
-751.60583 299.87878 2155.6284 27
0 0 0 0
0 0 0 0
-713.28674 299.88092 2155.6438 27
-703.64807 301.22348 2165.2944 284
-696.27802 303.6051 2182.4143 549
-688.28192 305.79871 2198.1829 925526
-673.11389 304.82907 2191.2126 925270
-655.7605 302.81213 2176.7144 199988
-649.7392 306.05209 2200.0044 39
-631.34753 303.47855 2181.5046 1326
-630.66296 309.48682 2224.6941 792902
-619.91064 310.70563 2233.4553 792642
-607.54926 311.15353 2236.675 549
-594.4306 311.22488 2237.188 24
-580.11316 310.65759 2233.1101 19
0 0 0 0
0 0 0 0
-776.10089 446.14453 3207.0354 23
-759.16077 447.36163 3215.7844 23
-742.27759 448.6759 3225.2317 23
-777.36664 482.30496 3466.9685 23
-761.83038 485.49756 3489.918 22
-741.13928 485.49164 3489.8752 25
-716.26416 482.6658 3469.5625 25
-695.01465 482.18842 3466.1306 25
-629.88519 450.31171 3236.9902 25
-612.50726 451.64273 3246.5581 22
-597.13354 454.58588 3267.7146 23
-491.34549 386.58871 2778.9282 23
-480.78204 391.3959 2813.4841 23
-524.2005 442.073 3177.7678 23
-510.22006 446.31705 3208.2754 23
-470.63925 427.62878 3073.938 23
-454.03571 429.15369 3084.8994 23
-436.26846 429.66037 3088.5417 23
-420.36612 432.1286 3106.2842 23
-435.9686 468.69244 3369.1172 23
-395.03851 445.07321 3199.3342 23
-383.25375 453.56476 3260.3743 23
-371.90433 463.50043 3331.7954 23
-358.52289 471.87589 3392.0007 23
-333.35431 464.81091 3341.2156 23
-313.56976 464.83493 3341.3882 23
-295.2753 467.22 3358.533 23
-273.79678 464.54752 3339.322 23
-275.06027 503.05087 3616.0969 23
-259.25934 514.21509 3696.3489 23
-214.01614 463.65485 3332.905 23
-189.69987 452.76001 3254.5896 23
-184.3839 489.87994 3521.4199 23
-164.99095 494.30118 3553.2012 23
-143.75682 493.69296 3548.8291 23
-123.88599 498.36044 3582.3806 23
-102.2483 496.3811 3568.1523 23
-76.564972 468.60849 3368.5139 23
-58.931961 487.8945 3507.1479 23
-39.169884 500.96582 3601.1089 23
-16.767878 471.15146 3386.7932 20
3.5407369 505.06583 3630.5813 21
23.889345 481.5426 3461.4883 21
44.656773 484.29617 3481.282 21
65.548965 486.23502 3495.219 18
87.964203 495.8277 3564.1743 19
109.97848 499.88309 3593.3257 65553
131.51161 500.79062 3599.8496 65550
155.00894 507.88037 3650.813 327688
225.20905 647.51123 4654.5259 3089447
254.14862 650.98413 4679.4907 6114632
287.52313 664.01593 4773.1675 8680041
325.45212 684.28943 4918.8999 9140337
358.82434 692.43628 4977.4624 9009007
386.3158 688.85919 4951.749 9141107
411.46313 681.9024 4901.7412 8746607
447.03275 691.99658 4974.3013 9997959
471.4599 684.66052 4921.5674 11249055
500.38968 684.3371 4919.2427 11380127
527.78308 682.06378 4902.9014 10459797
556.92078 682.16425 4903.6235 10394003
588.26239 684.8205 4922.7173 10525589
623.79272 691.87152 4973.4028 10459796
655.33875 694.06665 4989.1821 10590611
690.43127 699.6662 5029.4331 8812658
724.78308 704.08258 5061.1797 8547945
757.79401 706.89728 5081.4126 8547688
799.94507 717.69708 5159.0454 9271667
816.42255 705.51593 5071.4829 8680300
852.42346 710.47186 5107.1079 9996161
880.94153 709.06506 5096.9956 10194055
899.36621 699.89685 5031.0913 10193027
932.28992 702.23822 5047.9219 9272180
978.92523 714.44104 5135.6396 9535352
993.56744 703.2627 5055.2861 9666680
1035.8901 711.758 5116.353 9732729
1053.5548 703.30945 5055.6221 9601142
1079.1903 700.50195 5035.4409 9535093
1118.9249 706.7511 5080.3618 8811112
1152.3741 708.80664 5095.1377 8942699
1182.2406 708.60968 5093.7222 8679783
1227.7412 717.56018 5158.061 9008748
1269.2853 723.81952 5203.0552 8877419
1279.4569 712.31586 5120.3633 10390401
1316.3845 715.896 5146.0986 9535350
1358.1348 721.87744 5189.0952 9272948
1393.8644 724.46472 5207.6934 9996415
1424.2275 724.21112 5205.8706 11312789
1443.2996 718.34851 5163.728 10589323
1493.998 728.14343 5234.1372 10984337
1530.3876 730.70789 5252.5713 9405820
1583.8336 741.15161 5327.6445 11313562
1590.0931 729.5379 5244.1611 11379867
1645.8893 740.66113 5324.1187 11050131
1663.1102 734.3335 5278.6333 9140847
1706.8572 739.73547 5317.4648 8284766
1737.6816 739.44275 5315.3604 8415835
1781.5199 744.59967 5352.4302 6639417
1789.1664 734.71411 5281.3691 12757907
1804.7595 728.37561 5235.8062 13285282
1832.9241 727.23932 5227.6382 12890271
1868.1827 728.90869 5239.6382 13549230
1886.447 724.00116 5204.3613 14009268
1920.5909 725.24799 5213.3237 13219755
1960.9518 728.76569 5238.6104 12626848
1984.6871 726.09149 5219.3872 12823455
2032.6189 732.21564 5263.4097 13086626
2074.2336 735.91345 5289.9907 12296597
2121.668 741.53522 5330.4019 11374722
2179.4348 750.55023 5395.2046 9664105
2237.4153 759.37714 5458.6553 8480347
2198.9795 735.69519 5288.4219 8546911
2266.8721 747.75232 5375.0923 8547169
2302.6343 749.02362 5384.231 8941415
2340.2939 750.86902 5397.4961 8941928
2370.0144 750.15167 5392.3398 9139565
2417.4556 754.98773 5427.103 8613737
2462.9983 759.11169 5456.7476 7693148
2458.446 747.88934 5376.0771 7035990
2430.5999 729.95837 5247.1836 7628387
2474.7212 733.82074 5274.9478 7563110
2483.7263 727.30377 5228.1016 7431265
2535.6389 733.35706 5271.6147 8285800
2662.2925 760.61652 5467.5645 8482406
2657.2163 750.03778 5391.521 10389627
2754.8909 768.36871 5523.29 10718076
2811.5835 774.97308 5570.7642 10718334
2862.2305 779.77704 5605.2969 10652285
2895.844 779.88354 5606.062 10323064
2904.3291 773.297 5558.7158 11441289
2919.0051 768.48798 5524.1475 9401193
3026.8428 788.04053 5664.6973 9467242
3049.1206 785.13281 5643.7954 10059379
3199.5806 814.93628 5858.0327 11441287
3161.4707 796.58649 5726.1289 11901837
3247.3179 809.52795 5819.1562 11967374
3239.6885 799.1394 5744.48 11963007
3283.2124 801.45374 5761.1162 11238771
3284.8467 793.60022 5704.6621 5054751
3213.8052 768.52734 5524.4302 7032389
3238.5776 766.64154 5510.8745 5520684
3222.1191 755.13062 5428.1299 10392453
3162.6821 733.87439 5275.333 13947077
3120.9565 717.10376 5154.7803 13552055
3195.7625 727.17426 5227.1704 13289137
3265.3301 735.87097 5289.6851 13881015
3333.2505 744.03455 5348.3677 13749679
3440.5938 760.76129 5468.605 12956052
3484.8665 763.36017 5487.2866 12428937
3550.8206 770.61646 5539.4473 11047029
3559.1541 765.34924 5501.585 11310978
3594.5176 765.93738 5505.8125 12429209
0 0 0 0
3510.8176 734.76282 5281.7192 9268579
3710.2368 769.63666 5532.4043 9400424
3688.0862 758.34058 5451.2041 8875109
3740.8269 762.50604 5481.147 9467761
3819.051 771.74957 5547.5923 7033422
3764.2817 754.18933 5421.3638 6310212
3646.0364 724.31635 5206.627 4929584
3716.738 732.16571 5263.0503 5060399
3753.4595 733.24622 5270.8179 7297103
3769.5698 730.3158 5249.7529 3810333
3766.4119 723.7309 5202.4185 10720377
3853.6431 734.48047 5279.6899 13746859
4102.3169 775.57904 5575.1201 13680559
4111.3315 771.0733 5542.7314 12890278
4163.4805 774.66455 5568.5464 11376014
4204.2959 776.10724 5578.917 9073002
4357.187 798.05487 5736.6841 9138027
4444.7559 807.79108 5806.6714 9006952
4452.8916 803.05243 5772.6084 9006694
4527.0078 810.19458 5823.9478 8545374
4480.7759 795.85272 5720.8545 8414814
4504.0967 793.98737 5707.4453 9269094
4478.1528 783.53003 5632.2744 9598318
4493.4956 780.39777 5609.7588 6112063
4836.2739 833.7605 5993.3481 2036236
4819.1016 824.7431 5928.5278 3681574
4920.415 835.98712 6009.3535 4469292
4876.4399 822.56226 5912.8511 7758679
4832.2607 809.29468 5817.4795 10521985
4803.6001 798.79565 5742.0093 8023135
4833.3501 798.08923 5736.9307 8483682
4818.583 790.09332 5679.4531 9601389
4821.2085 785.04028 5643.1309 12166795
4783.3965 773.51788 5560.3037 12825238
4670.8813 750.15552 5392.3672 13482913
4788.8193 763.87054 5490.9556 7560015
4991.1704 790.77448 5684.3496 2233361
4995.4976 786.15405 5651.1367 720896
4980.1753 778.52356 5596.2861 1837576
4994.75 775.63666 5575.5342 2757907
5002.7847 771.77881 5547.8027 2692627
4986.0869 764.18073 5493.1855 2494991
4953.8652 754.3175 5422.2852 2626833
4905.2046 742.09436 5334.4209 2429198
4918.3867 739.32391 5314.5063 2100747
4920.9209 734.99823 5283.4116 1247234
4846.6875 719.33368 5170.8096 2169625
4793.2944 706.93951 5081.7163 11773336
4840.5854 709.45691 5099.812 9535602
4939.4521 719.45526 5171.6836 9469811
0 0 0 0
0 0 0 0
0 0 0 0
0 0 0 0
0 0 0 0
0 0 0 0
0 0 0 0
0 0 0 0
0 0 0 0
0 0 0 0
-2128.6843 352.40726 2429.7156 14
-2185.5642 364.28796 2511.6287 14
-2163.1057 363.01688 2502.865 14
-2171.6101 366.96033 2530.0537 14
-2198.8079 374.13947 2579.551 15
-2162.1772 370.4823 2554.3362 16
-2151.1294 371.18796 2559.2017 16
-2059.4202 357.88635 2467.4919 16
-2112.2502 369.69217 2548.8887 16
-2094.9597 369.30695 2546.2327 16
-2066.9927 367.02036 2530.4675 14
-2055.1345 367.58163 2534.3374 270
-2029.0724 365.59192 2520.6189 14
-2028.6204 368.22125 2538.7473 270
-2006.9529 367.01022 2530.3977 16
-1997.4886 368.02936 2537.4243 16
-1978.2325 367.24622 2532.0247 16
-1947.4196 364.28915 2511.637 16
-1953.0809 368.16214 2538.3396 16
-1934.7692 367.54114 2534.0581 16
-1919.1636 367.42853 2533.2817 16
-1902.9158 367.19019 2531.6384 16
-1888.0303 367.21304 2531.7961 16
-1872.3409 367.07867 2530.8696 16
-1853.9344 366.40515 2526.2258 19
-1838.4984 366.31247 2525.5869 16
-1823.3846 366.28302 2525.384 16
-1808.3241 366.26389 2525.252 16
-1786.7726 364.91873 2515.9775 16
-1775.8918 365.7486 2521.6992 16
-1759.4431 365.4361 2519.5447 16
-1733.4686 363.1228 2503.5955 16
-1716.5891 362.69125 2500.6199 16
-1696.8334 361.63913 2493.366 16
-1567.5143 337.0126 2323.5754 16
-1553.8987 337.04608 2323.8062 16
-1538.6265 336.71765 2321.5417 16
-1524.0813 336.54382 2320.3433 16
-1509.2664 336.30673 2318.7085 16
-1495.1659 336.22592 2318.1514 16
-1479.3461 335.75339 2314.8936 16
-1465.6688 335.76285 2314.9587 16
-1452.4299 335.87384 2315.7241 16
-1438.7303 335.87946 2315.7627 16
-1425.1123 335.90433 2315.9343 16
-1411.4635 335.92242 2316.0588 15
-1400.7051 336.6355 2320.9753 15
-1473.4707 357.63535 2465.7615 270
-1439.4924 352.88791 2433.0295 16
-1439.4449 356.44662 2457.5657 16
-1441.4611 360.5943 2486.1624 16
-1421.9996 359.39935 2477.9236 16
-1397.9983 357.02005 2461.5193 18
-1381.3896 356.49847 2457.9231 18
-1364.9955 356.02167 2454.6357 18
-1324.408 349.15652 2407.303 19
-1324.8143 353.06677 2434.2627 19
-1311.4962 353.36526 2436.3208 19
-1298.8107 353.84274 2439.6128 20
-1288.9364 355.10547 2448.3188 21
-1284.0287 357.78085 2466.7646 21
-1285.3054 362.26096 2497.6531 21
-1267.6472 361.44638 2492.0371 21
-1248.9399 360.31003 2484.2024 21
-1230.646 359.26724 2477.0127 21
-1213.2242 358.45697 2471.4263 21
-1195.3418 357.48911 2464.7532 21
-1181.4248 357.69791 2466.1929 23
-1164.7024 357.05194 2461.739 23
-1149.0774 356.73022 2459.521 23
-1134.1523 356.62039 2458.7637 23
-1118.017 356.12213 2455.3284 23
-1099.4755 354.83423 2446.4487 23
-1115.0244 364.66089 2514.2 23
-1068.5134 354.18265 2441.9563 23
-1058.0917 355.54346 2451.3386 22
-1058.4631 360.61945 2486.3357 21
-1058.6875 365.7879 2521.9702 21
-1057.9558 370.76938 2556.3154 21
-1028.2234 365.58429 2520.5664 21
-1007.955 363.66092 2507.3054 21
-1001.1884 366.62424 2527.7363 20
-987.50568 367.10645 2531.061 23
-972.06683 366.94067 2529.918 22
-960.53015 368.26575 2539.054 24
-949.00128 369.63602 2548.5015 24
0 0 0 0
-894.74255 359.95944 2481.7852 24
0 0 0 0
0 0 0 0
0 0 0 0
0 0 0 0
-717.78119 314.62579 2169.2266 27
-705.08539 314.69696 2169.7173 22
-693.75562 315.39182 2174.5081 20
-680.34167 315.14755 2172.824 21
-667.68903 315.2533 2173.553 22
-656.1347 315.89197 2177.9565 21
-649.63739 319.03983 2199.6597 22
-639.4845 320.48453 2209.6206 21
-630.64636 322.66235 2224.6357 21
-620.69794 324.35294 2236.2917 19
-625.08392 333.77136 2301.2283 20
-598.27045 326.57901 2251.6396 20
-589.31329 329.02814 2268.5254 21
-568.83832 325.0108 2240.8274 791079
0 0 0 0
-775.41058 464.73636 3204.1829 23
-758.9599 466.29565 3214.9336 23
-739.35223 465.94574 3212.5208 23
-775.0863 501.37592 3456.7986 23
-754.26349 501.15195 3455.2544 22
-734.56189 501.68118 3458.9033 25
-714.25348 501.81454 3459.8228 25
-693.07721 501.32806 3456.4685 25
-457.23392 340.80646 2349.7324 25
-518.59723 398.68649 2748.7937 22
-503.01962 399.25189 2752.6919 23
-490.08713 402.02499 2771.8113 23
-472.94861 401.42053 2767.6438 23
-458.84256 403.43896 2781.5601 23
-503.47687 459.18005 3165.874 23
-490.25085 464.42404 3202.0293 23
-474.17142 467.27844 3221.7092 23
-487.92157 501.00156 3454.2175 23
-466.65152 500.14453 3448.3086 23
-446.05774 499.96701 3447.0847 23
-426.97339 501.54553 3457.968 23
-409.9415 505.81564 3487.4089 23
-371.50775 482.73007 3328.2427 23
-355.31592 487.57687 3361.6594 23
-332.58441 483.49243 3333.4988 23
-311.81931 481.93134 3322.7354 23
-289.69577 477.91864 3295.0696 23
-273.10477 483.11285 3330.8818 23
-265.35614 505.9769 3488.5208 23
-251.06944 519.18463 3579.5828 23
-216.90276 489.92642 3377.8589 23
-181.88847 452.60962 3120.5732 23
-174.2717 482.73758 3328.2942 23
-157.35194 491.49734 3388.6897 23
-142.63673 510.71359 3521.1785 23
-122.54359 513.96027 3543.5632 23
-95.616791 483.96149 3336.7327 23
-76.681671 489.3157 3373.6479 23
-57.702732 498.06836 3433.9944 23
-39.176476 522.39459 3601.7146 22
-16.608074 486.54077 3354.5159 21
3.2793386 487.70609 3362.5503 21
24.809498 521.39386 3594.8152 21
46.195515 522.32532 3601.2371 21
65.944801 510.00977 3516.3259 21
87.623398 514.9469 3550.3655 18
109.01667 516.61993 3561.9006 19
131.55548 522.29822 3601.0503 17
156.62357 535.03149 3688.8411 65547
202.81197 607.9566 4191.6323 459272
253.72321 677.57977 4671.6577 4340025
281.32608 677.38135 4670.29 11247255
314.53299 689.50354 4753.8677 9865600
352.26855 708.74396 4886.5234 9010290
386.79291 719.09137 4957.8647 10522758
413.9783 715.29706 4931.7046 9996414
440.69272 711.24298 4903.7534 9207670
466.97574 707.03735 4874.7573 9537151
497.29776 709.08093 4888.8467 10722195
524.3526 706.49731 4871.0337 11051677
556.5014 710.6886 4899.9312 10854037
589.78662 715.84357 4935.4727 10524817
618.84729 715.62616 4933.9736 10130058
651.32709 719.20392 4958.6406 9668735
681.30304 719.82727 4962.9385 9931392
720.48743 729.72546 5031.1831 9733500
754.19635 733.51184 5057.2886 8877678
780.70972 730.27783 5034.9917 9271923
806.13446 726.30133 5007.5747 8877166
838.46814 728.61084 5023.498 9337460
877.48053 736.36664 5076.9712 9864060
896.91626 727.72437 5017.3862 9337972
932.43036 732.26361 5048.6826 9206384
965.32812 734.52972 5064.3066 9271920
977.84937 721.62195 4975.3125 9074798
1020.0933 730.76221 5038.3311 9798008
1062.4655 739.47186 5098.3809 10390658
1085.9923 734.94629 5067.1787 9272177
1117.3992 735.85358 5073.4341 9863801
1153.9869 740.03577 5102.2686 8613477
1177.8702 736.06512 5074.8926 9008492
1210.6504 737.71356 5086.2578 8877162
1250.7557 743.63715 5127.0986 8548454
1270.7772 737.62207 5085.627 10062208
1308.7501 742.06421 5116.2539 9930623
1335.3578 740.00696 5102.0698 8943471
1362.9509 738.57489 5092.1963 8877164
1360.4651 721.25818 4972.8042 8811372
1438.6927 746.55927 5147.2461 9271923
1476.594 750.3183 5173.1631 10259074
1516.4746 754.90979 5204.8193 9141107
1546.2531 754.38953 5201.2324 9865088
1587.1938 759.229 5234.5986 9865602
1608.5902 754.71313 5203.4639 10852496
1662.967 765.54993 5278.1792 10720395
1681.8716 759.95813 5239.626 8877420
1745.408 774.37067 5338.9946 8811624
1745.8309 760.7674 5245.2056 8285020
1763.0175 754.81726 5204.1816 9073253
1779.5839 748.81079 5162.769 9336677
1783.8468 737.91779 5087.666 8744029
1860.8861 756.9917 5219.1733 13876656
1885.551 754.48486 5201.8896 13943474
1917.5785 754.95721 5205.1465 12956067
1921.5458 744.54224 5133.3389 12494489
1906.5378 727.21405 5013.8677 12230803
1951.2045 732.83026 5052.5894 12361874
1985.527 734.45032 5063.7593 12296082
2057.5933 749.77582 5169.4229 9927535
2078.3335 746.22308 5144.9277 8677982
2111.2783 747.09174 5150.917 8546397
2159.8301 753.37964 5194.2695 8744291
2178.9968 749.38483 5166.7271 8809827
2222.8503 753.87329 5197.6729 8744548
2263.1262 757.04218 5219.5215 8481376
2293.2288 756.76843 5217.6343 4272167
