# .PCD v0.7 - Point Cloud Data file format
VERSION 0.7
FIELDS x y z rgb
SIZE 4 4 4 4
TYPE F F F U
COUNT 1 1 1 1
WIDTH 1383
HEIGHT 1
VIEWPOINT 0 0 0 1 0 0 0
POINTS 1383
DATA ascii
2012.1062 891.10681 3458.7476 8943462
2032.6024 891.10632 3458.7458 9075047
2051.0813 890.23029 3455.3455 9206376
2072.0049 890.42224 3456.0903 10259063
2087.4084 888.26141 3447.7031 10653821
2145.4626 904.11578 3509.2405 10587771
2141.1252 893.62579 3468.5247 9798511
2173.0999 898.3465 3486.8477 9929843
2187.2595 895.68304 3476.5098 9929843
2207.55 895.55646 3476.0186 9929331
2266.0327 910.78278 3535.1179 9929074
2289.47 911.77338 3538.9626 9402987
2275.4419 897.96094 3485.3513 9271402
2296.3557 898.06213 3485.7441 8350556
2343.7812 908.43744 3526.0146 7890262
2347.4707 901.82721 3500.3579 7692112
2361.5198 899.27777 3490.4624 8086870
2395.9783 904.47729 3510.6436 8481628
2391.9741 895.19244 3474.6057 8547421
2413.071 895.38019 3475.334 8481883
2454.8953 903.19043 3505.6492 7560781
2478.9348 904.38135 3510.2715 7955539
2503.3921 905.70361 3515.4036 8415833
2536.6135 910.14868 3532.6565 8284503
2567.1575 913.56799 3545.9285 8284501
2584.1746 912.15717 3540.4526 5258023
2593.5984 908.11053 3524.7456 5192231
2595.3535 901.46472 3498.9507 7428680
2597.0669 894.91003 3473.5093 7889744
2622.3799 896.52649 3479.7834 7100230
2640.251 895.59332 3476.1616 6639679
2667.0068 897.66516 3484.2031 7165766
2699.824 901.72955 3499.9788 6441788
2676.7539 887.20819 3443.6152 9797489
2718.0398 894.07593 3470.2717 10784127
2691.5847 878.7251 3410.689 10520957
2691.26 872.07013 3384.8586 9994613
2707.4546 870.82715 3380.0339 8744288
2785.325 889.29413 3451.7117 8744544
2839.437 899.96143 3493.116 7033410
2915.866 917.4967 3561.1775 6178612
2931.1372 915.6745 3554.1047 6507322
2902.6367 900.3017 3494.4365 5323047
2913.1353 897.15729 3482.2319 5586476
2941.8872 899.63898 3491.8645 7033922
3083.8792 936.47339 3634.8335 7560266
3081.4985 929.2597 3606.8342 7560520
3089.7144 925.31873 3591.5378 8613210
3071.4727 913.56232 3545.9065 9271653
3020.3645 892.25647 3463.21 10126446
3078.6833 903.34637 3506.2542 10521203
3096.1621 902.38458 3502.521 12165000
3131.2703 906.53949 3518.6482 12033925
3131.0166 900.46948 3495.0879 11705216
3143.7617 898.19305 3486.2522 12362635
3163.1409 897.82947 3484.8408 12494477
3173.1865 894.8385 3473.2317 12823699
3245.3518 909.29095 3529.3274 12691342
3227.4197 898.47614 3487.3511 12362893
3260.0884 901.7962 3500.2373 11441536
3280.8491 901.80096 3500.2556 8940893
3330.9419 909.8175 3531.3713 8020048
3339.6526 906.50146 3518.5002 6046259
3382.4714 912.42712 3541.5002 6967362
0 0 0 0
0 0 0 0
0 0 0 0
0 0 0 0
0 0 0 0
0 0 0 0
0 0 0 0
0 0 0 0
-2562.1995 760.5163 2885.5002 15
-2540.6775 759.19501 2880.4871 16
-2519.0623 757.82776 2875.2996 16
-2497.2209 756.37335 2869.7815 16
-2476.3372 755.19116 2865.2959 16
-2456.7341 754.38568 2862.24 16
-2436.6951 753.43439 2858.6306 16
-2396.8381 746.29907 2831.5581 16
-2377.1699 745.39349 2828.1223 17
-2421.6575 764.73492 2901.5063 18
-2211.5947 703.39362 2668.7693 18
-2195.0034 703.1452 2667.8267 18
-2190.2898 706.72565 2681.4114 18
-2174.8843 706.8833 2682.0095 18
-2153.2815 705.01416 2674.9177 18
-2254.5327 743.63983 2821.4688 19
-2128.0779 707.17444 2683.114 19
-2220.0281 743.28381 2820.1179 21
-2203.9998 743.51459 2820.9937 21
-2186.2317 743.15759 2819.6392 21
-2169.3171 743.08752 2819.373 21
-2145.8711 740.76154 2810.5481 19
-2114.4758 735.63367 2791.0923 18
-2097.7175 735.55725 2790.8025 18
-2084.9727 736.89825 2795.8904 18
-2063.2505 735.06238 2788.9248 19
-2047.5835 735.37152 2790.0977 18
-2036.1708 737.22601 2797.1338 18
-2018.7889 736.93207 2796.0186 19
-1996.0278 734.65332 2787.3726 19
-1977.3562 733.85425 2784.3408 19
-1960.6167 733.76477 2784.0015 19
-1945.2528 734.19312 2785.6265 18
-1927.3447 733.66022 2783.6047 21
-1910.2113 733.41553 2782.6765 20
-1892.951 733.11755 2781.5457 21
-1876.4268 733.10175 2781.4858 21
-1857.8621 732.28156 2778.374 21
-1839.6738 731.59637 2775.7742 23
-1821.8418 731.04175 2773.6699 23
-1803.2933 730.18689 2770.4265 23
-1784.8007 729.33917 2767.21 22
-1772.402 730.98907 2773.47 21
-1743.708 725.88629 2754.1094 20
-1731.092 727.44342 2760.0173 21
-1720.4572 729.87061 2769.2266 21
-1634.5066 700.08575 2656.2188 21
-1615.7454 698.77966 2651.2632 21
-1577.6136 688.98834 2614.1138 21
-1566.1156 690.74976 2620.7969 21
-1549.3224 690.18768 2618.6641 21
-1531.3411 689.07959 2614.46 21
-1515.9027 689.10486 2614.5557 21
-1498.502 688.22925 2611.2336 21
-1481.8982 687.70526 2609.2456 21
-1478.9766 693.58679 2631.5608 21
-1461.8754 692.87292 2628.8523 21
-1450.0187 694.65631 2635.6187 21
-1429.2922 692.18292 2626.2344 21
-1418.0861 694.31647 2634.3291 23
-1401.9768 694.07001 2633.3943 23
-1385.7754 693.77197 2632.2634 23
-1368.9672 693.15985 2629.9409 23
-1460.5098 748.02759 2838.1165 23
-1339.095 693.83289 2632.4946 23
-1321.5388 692.8078 2628.6052 23
-1305.3121 692.4635 2627.2988 23
-1291.1923 693.242 2630.2527 23
-1274.736 692.76984 2628.4612 23
-1258.099 692.18658 2626.2483 23
-1242.5784 692.21057 2626.3394 23
-1227.0502 692.2309 2626.4165 23
-1209.8546 691.29907 2622.8809 22
-1210.0625 700.41656 2657.4739 21
-1204.6801 706.49591 2680.5398 21
-1189.4541 706.88788 2682.0269 21
-1216.2931 732.62811 2779.6887 21
-1201.5837 733.7049 2783.7744 21
-1183.7167 732.85687 2780.5566 21
-1168.9861 733.9541 2784.7197 22
-1159.8696 738.65814 2802.5674 22
-1139.248 736.06537 2792.7302 20
-1066.7688 699.39703 2653.6057 21
-1052.9893 700.6922 2658.5198 21
-1099.9756 743.07635 2819.3308 21
-1076.2385 738.25476 2801.0371 21
-1074.0581 748.30066 2839.1523 21
-1063.8157 752.95996 2856.8306 21
-1046.8507 752.935 2856.7358 21
-970.91223 709.7959 2693.0603 21
-1017.7939 756.50452 2870.2791 21
-1007.6752 761.71362 2890.043 21
-988.53424 760.16498 2884.1672 21
-973.73859 761.96204 2890.9856 21
-956.50861 761.88446 2890.6912 21
-943.41956 765.1626 2903.1289 21
-927.55377 766.26855 2907.3252 21
-899.51196 757.16724 2872.7935 23
-899.50024 771.76434 2928.1768 23
-821.87311 719.03229 2728.1042 23
-806.31915 719.57965 2730.1812 21
-800.88806 729.36835 2767.3208 21
-784.95862 729.80554 2768.9797 20
-769.12732 730.35474 2771.0632 19
-754.66473 732.25586 2778.2764 19
-738.00452 732.06183 2777.5403 19
-721.48004 731.99677 2777.2932 19
-714.68164 742.02679 2815.3486 20
-693.71008 737.46918 2798.0564 21
-689.93658 751.41895 2850.9836 21
-670.73877 748.84851 2841.2312 21
-662.12561 758.26733 2876.9675 21
-642.72815 755.50739 2866.4958 21
-621.85272 750.81317 2848.6853 21
-609.22223 756.08948 2868.7043 21
-593.4566 757.66614 2874.6863 21
-576.38287 757.61652 2874.4983 21
-561.60229 760.66992 2886.0833 21
-542.20807 757.46985 2873.9417 21
-529.6651 763.94379 2898.5046 21
-514.48029 766.9137 2909.7729 21
-498.78058 769.29547 2918.8096 21
-483.73099 772.88708 2932.4368 21
-468.24103 776.01654 2944.3103 21
-451.67023 777.52771 2950.0437 21
-435.73877 780.30536 2960.5825 21
-421.97943 787.36908 2987.3833 21
-407.7326 794.10199 3012.929 21
-389.47333 793.27911 3009.8069 21
-394.78415 842.6889 3197.2742 23
-377.62479 846.69873 3212.488 23
-365.63492 863.34058 3275.6294 23
-322.495 804.17297 3051.1394 23
-306.93552 810.83588 3076.4194 23
-288.29861 809.69739 3072.0999 23
-271.42792 813.70007 3087.2869 23
-255.15767 820.21173 3111.9927 23
-236.45079 819.2951 3108.5149 23
-228.85493 859.97577 3262.8628 23
-211.09621 866.45154 3287.4326 23
-184.62236 834.83545 3167.4771 23
-178.67749 899.39844 3412.4375 22
-159.10909 903.11298 3426.531 21
-138.51489 901.24005 3419.425 21
-118.83904 905.72449 3436.4395 21
-98.599617 906.88019 3440.8242 21
-77.96833 904.09454 3430.2554 21
-57.454018 901.17889 3419.1929 21
-34.908314 845.8634 3209.3186 21
-17.061403 908.26532 3446.0798 21
3.3700788 910.77258 3455.5928 21
23.766565 907.63751 3443.6978 21
44.448139 913.25665 3465.0178 21
65.139771 915.46588 3473.3997 21
85.844894 916.75824 3478.3032 21
106.23009 914.7951 3470.8547 21
126.90624 915.56799 3473.7871 21
148.38881 921.13098 3494.8936 21
169.15448 921.42615 3496.0137 21
190.2718 923.36346 3503.364 21
211.47435 925.29236 3510.6826 21
233.71057 930.99347 3532.3135 23
254.71263 931.24506 3533.2681 23
275.88614 932.03766 3536.2751 23
297.73984 934.85413 3546.9612 23
320.04037 938.6095 3561.2095 23
341.85519 940.56384 3568.6245 23
362.88516 940.2569 3567.46 21
383.15137 938.11371 3559.3286 21
403.96381 937.46173 3556.855 21
430.48178 949.45862 3602.3726 19
450.51022 946.68475 3591.8484 19
468.82538 940.72345 3569.2305 19
490.49442 941.71619 3572.9968 19
512.11285 942.53357 3576.0981 19
534.99835 945.52527 3587.449 19
558.86737 949.96002 3604.2751 19
580.81018 950.91479 3607.8975 18
597.33923 943.25275 3578.8269 18
619.07971 944.06348 3581.9026 18
640.86017 944.87933 3584.998 18
654.0932 933.44489 3541.6143 65547
669.02625 925.07208 3509.8469 327687
677.64532 908.73712 3447.8699 787717
692.9425 902.0517 3422.5044 3220508
709.34393 897.14313 3403.8806 6443587
731.76117 899.90411 3414.3562 8548703
756.52295 905.32214 3434.9131 9074278
772.59521 900.33014 3415.9727 9336937
794.12091 901.78583 3421.4958 9402731
818.75458 906.6106 3439.8018 8679008
837.92499 905.29834 3434.8228 8744801
845.72601 892.05609 3384.5801 8350043
880.28174 906.99408 3441.2566 8547421
901.84814 908.17505 3445.7373 8481372
922.73541 908.63495 3447.4824 9007716
945.63556 911.01428 3456.5098 9335655
963.53711 908.57904 3447.2703 9205092
986.67035 911.07581 3456.7434 9336679
1005.2177 909.32281 3450.0918 8941920
1025.3456 909.04071 3449.022 8744542
1047.4536 910.49097 3454.5242 9073250
1071.2356 913.31268 3465.2302 9007714
1081.3392 904.58588 3432.1194 9007457
1098.2751 901.79132 3421.5164 8876129
1119.5261 902.57672 3424.4966 9073509
1138.2091 901.3009 3419.6558 9007716
1161.5168 903.66772 3428.6357 8941923
1184.3937 905.62354 3436.0564 8941921
1207.658 907.80457 3444.3318 9006944
1222.3268 903.55939 3428.2246 8480344
1247.1176 906.81274 3440.5686 7756878
1265.9364 905.68903 3436.3049 8612957
1283.2567 903.54584 3428.1733 8810079
1303.9805 903.82825 3429.2451 8744541
1324.9299 904.25623 3430.8689 8612956
1348.1881 906.22321 3438.3315 8349527
1343.3416 889.5213 3374.9624 8152149
1382.5841 902.07574 3422.5959 8020560
1400.3218 900.43903 3416.3857 8349782
1417.7344 898.64294 3409.571 8481368
1433.9493 896.1488 3400.1082 8481370
1454.9166 896.65265 3402.0198 8547163
1479.0341 899.05756 3411.1443 8349785
1503.7876 901.77911 3421.4702 8350296
1519.6814 899.18597 3411.6316 8350040
1564.2188 913.3866 3465.5107 8350039
1574.8713 907.68945 3443.895 7692109
1594.8373 907.43726 3442.938 8218197
1622.2777 911.3905 3457.937 8152405
1618.3386 897.83612 3406.51 7428682
1659.7545 909.46814 3450.6436 8152661
1669.4974 903.6731 3428.656 8283991
1664.7751 890.28162 3377.8469 7494988
1687.2418 891.57556 3382.7566 7823953
1741.4563 909.41846 3450.4548 8416090
1754.2715 905.4787 3435.5071 8218711
1762.9546 899.52094 3412.9023 8810848
1797.0948 906.54016 3439.5344 8547676
1805.5939 900.61224 3417.0432 8547676
1859.4581 917.19281 3479.9519 8744798
1880.3348 917.31659 3480.4216 9205606
1894.7311 914.31061 3469.0164 8284503
1934.5474 923.50385 3503.8967 8284504
1951.4603 921.68457 3496.9944 7363916
1989.9181 929.97241 3528.4395 8153432
1962.0399 907.40863 3442.8293 8153175
1994.0044 912.70062 3462.908 8351067
1992.411 902.68109 3424.8923 8350812
2006.0892 899.71271 3413.6301 6113337
2045.2788 908.13104 3445.5703 5192240
2064.469 907.59076 3443.5205 5654331
2081.0381 905.92004 3437.1814 7758675
2090.926 901.40137 3420.0371 9206890
2106.1946 899.26691 3411.9387 11048580
2119.0737 896.16254 3400.1602 10588027
2143.9182 898.12909 3407.6216 10323829
2145.7019 890.48853 3378.6323 10125936
2133.9365 877.41821 3329.0415 9796714
2168.8369 883.59924 3352.4932 11375746
2165.5042 874.23291 3316.9565 11507846
2193.5955 877.60736 3329.7595 10389365
2224.1853 881.91229 3346.093 10191987
2237.5457 879.36987 3336.4465 11245187
2238.0437 871.86127 3307.9578 9139812
2243.7776 866.50488 3287.6353 9731949
2264.4807 866.97205 3289.4075 10850174
2287.9133 868.46722 3295.0803 11113603
2331.644 877.57678 3329.6433 11047554
2422.7263 904.20599 3430.678 8547420
2454.9182 908.59583 3447.3337 7888975
2481.8083 910.96722 3456.3313 6507836
2510.8208 914.07239 3468.1125 6837315
2552.6184 921.74384 3497.219 7495244
2562.4504 917.84198 3482.4148 7889487
2552.3943 906.93561 3441.0349 7889746
2575.0813 907.74463 3444.1042 6705472
2600.3896 909.45752 3450.6033 7560524
2588.3655 898.18909 3407.8491 7034436
2629.8845 905.53119 3435.7063 8152405
2587.094 883.9538 3353.8386 9073508
2605.272 883.37817 3351.6545 11310215
2623.3882 882.79047 3349.4248 9796466
2665.5354 890.23761 3377.6802 10651261
2652.1265 879.15717 3335.6396 8677726
2657.3208 874.362 3317.446 8348763
2701.9514 882.51794 3348.3909 9467243
2694.6917 873.73016 3315.0486 7955028
2727.2783 877.89569 3330.8533 9598825
2755.2363 880.52222 3340.8188 12362637
2793.2336 886.29675 3362.7283 12296330
2877.3535 906.52063 3439.46 7428163
2914.083 911.6344 3458.8625 4335893
2987.2769 928.00446 3520.9727 5980717
3052.3132 941.63092 3572.6733 6244402
3044.9114 932.87653 3539.458 5849644
2984.4316 908.09161 3445.4207 5060131
3041.384 919.13251 3487.3113 5323303
3045.0469 914.02856 3467.9463 6836542
3058.481 911.90631 3459.8943 8744794
3076.8674 911.27917 3457.5149 10060653
3083.4712 907.19373 3442.0139 10125675
3115.9048 910.71136 3455.3604 10191468
3100.3564 900.25067 3415.6711 11638914
3125.3186 901.61243 3420.8376 12691602
3122.4194 894.97083 3395.6384 12165256
3187.6294 907.81097 3444.356 11047033
3195.325 904.21252 3430.7031 11639427
3222.2903 906.078 3437.7808 11771526
3230.4541 902.66644 3424.8369 11837321
3301.3572 916.71887 3478.1538 11771528
3370.9675 930.2403 3529.4558 11047804
0 0 0 0
0 0 0 0
0 0 0 0
0 0 0 0
0 0 0 0
0 0 0 0
0 0 0 0
0 0 0 0
-2549.6533 773.80872 2871.3711 16
-2527.8484 772.34558 2865.9419 16
-2506.7441 771.07825 2861.2393 16
-2485.9568 769.89185 2856.8369 16
-2465.8513 768.90173 2853.1628 16
-2447.376 768.40979 2851.3374 15
-2427.7356 767.5426 2848.1194 18
-2404.3667 765.47632 2840.4521 18
-2438.1699 781.71094 2900.6941 18
-2420.168 781.44891 2899.7217 19
-2354.8489 765.79553 2841.6365 19
-2344.9932 768.08319 2850.1255 19
-2311.387 762.56836 2829.6616 19
-2314.7793 769.26862 2854.5242 19
-2249.6238 753.11932 2794.5991 19
-2234.6565 753.65698 2796.5942 19
-2220.3804 754.4375 2799.4905 20
-2202.3335 753.93884 2797.6401 20
-2184.7363 753.58789 2796.3376 21
-2164.6584 752.3692 2791.8157 21
-2146.582 751.83276 2789.8252 21
-2127.2051 750.82898 2786.1003 21
-2116.46 752.88013 2793.7114 21
-2093.5044 750.58569 2785.1975 21
-1995.0793 720.98169 2675.3459 21
-2043.5166 744.40161 2762.2502 21
-2039.9075 749.08752 2779.6382 21
-2021.8336 748.49475 2777.4387 20
-2003.7008 747.87024 2775.1213 19
-1979.8341 745.07764 2764.7588 19
-1967.6658 746.67755 2770.6956 19
-1959.1677 749.70892 2781.9441 19
-1830.0852 706.25641 2620.7048 19
-1918.2253 746.60706 2770.4338 19
-1902.9534 747.05695 2772.1035 20
-1885.6115 746.69513 2770.7607 21
-1867.6498 746.07928 2768.4756 21
-1846.8297 744.3006 2761.8755 21
-1744.9775 709.54089 2632.8926 21
-1716.0981 704.09381 2612.6802 21
-1736.1344 718.79968 2667.2493 21
-1705.2953 712.51874 2643.9424 21
-1690.5643 712.91412 2645.4097 21
-1665.2211 708.7998 2630.1428 21
-1632.5872 701.47516 2602.9631 21
-1639.6407 711.22601 2639.1455 21
-1607.3116 703.91711 2612.0244 21
-1592.0688 704.02173 2612.4126 21
-1584.3955 707.50848 2625.3511 21
-1579.463 712.3006 2643.1331 21
-1549.1145 705.61176 2618.3127 21
-1522.077 700.31104 2598.6433 21
-1495.9319 695.31665 2580.1108 21
-1493.9753 701.57825 2603.3457 21
-1478.1226 701.37671 2602.5979 21
-1467.4347 703.64752 2611.0239 21
-1450.7776 703.07391 2608.8955 21
-1441.0111 705.86322 2619.2458 21
-1423.7416 704.99805 2616.0354 21
-1395.9847 698.86359 2593.2722 23
-1387.5355 702.36597 2606.2686 23
-1364.4528 698.45642 2591.7615 23
-1349.5054 698.66968 2592.5527 23
-1335.8643 699.57196 2595.9009 22
-1316.6156 697.52435 2588.303 23
-1307.2521 700.72736 2600.1882 23
-1300.8181 705.59576 2618.2534 23
-1279.5277 702.42596 2606.4912 22
-1272.333 707.01135 2623.5063 23
-1257.2001 707.24463 2624.3718 23
-1273.4761 725.37421 2691.6453 23
-1227.9426 708.31042 2628.3267 21
-1212.0721 708.13843 2627.6885 21
-1202.9108 711.93262 2641.7676 20
-1180.2794 707.74963 2626.2458 20
-1169.9431 710.92609 2638.0327 20
-1154.6531 711.1377 2638.8179 19
-1136.7078 709.69727 2633.4729 21
-1124.0576 711.56873 2640.4175 21
-1170.5582 751.46619 2788.4648 21
-1155.8207 752.63013 2792.7839 21
-1080.9526 714.10419 2649.8257 21
-1057.2799 708.76196 2630.0022 21
-1055.2827 718.00769 2664.3103 21
-1039.8208 718.23376 2665.1492 21
-1025.3109 719.13458 2668.4919 21
-1006.5607 717.04285 2660.7302 21
-991.11548 717.27655 2661.5974 21
-978.13464 719.33014 2669.2175 21
-978.38324 731.34015 2713.7832 21
-998.03503 758.49786 2814.5571 21
-936.09631 723.51672 2684.7527 22
-959.6427 754.54059 2799.8728 22
-938.65344 751.02283 2786.8196 21
-892.75348 727.09082 2698.0151 21
-878.22107 728.29877 2702.4976 21
-912.38635 770.68622 2859.7844 21
-849.59131 731.22626 2713.3606 22
-883.63739 775.20099 2876.5376 21
-816.86554 730.72003 2711.4822 21
-849.89447 775.52142 2877.7263 21
-843.33655 785.2951 2913.9937 21
-812.02625 771.94672 2864.4619 19
-805.00183 781.60864 2900.3142 19
-759.40906 753.42743 2795.7424 19
-779.58948 790.69971 2934.0486 18
-728.70917 755.95496 2805.1213 19
-715.87793 759.98108 2820.061 19
-689.71631 749.70984 2781.9475 21
-677.38727 754.33954 2799.127 21
-666.04791 760.33142 2821.3608 21
-660.2049 773.06781 2868.6218 21
-632.22491 759.87103 2819.6526 21
-621.34076 767.06305 2846.3401 21
-602.05542 763.99548 2834.9573 21
-587.69916 767.18634 2846.7974 21
-571.66956 768.31683 2850.9924 21
-556.90338 771.26581 2861.9353 21
-545.62738 779.38568 2892.0654 21
-529.69287 781.16193 2898.6567 21
-514.12744 783.61981 2907.7773 21
-498.9798 786.9071 2919.9753 21
-480.44394 784.89539 2912.5103 21
-469.85837 796.20581 2954.4802 21
-449.45883 791.1178 2935.5999 21
-432.9921 792.82123 2941.9207 21
-446.04288 850.98236 3157.7393 21
-401.93939 800.42078 2970.1204 21
-386.01544 803.91455 2983.0847 21
-374.31494 816.96155 3031.4983 23
-356.05408 816.28394 3028.9839 23
-335.10303 809.03949 3002.1021 23
-316.64835 807.3476 2995.8237 23
-301.88245 815.41852 3025.7725 23
-283.33533 813.65027 3019.2112 23
-265.86487 814.94385 3024.0112 23
-248.77444 817.67365 3034.1406 23
-235.3884 833.95294 3094.5481 23
-215.6467 828.56323 3074.5486 23
-199.9969 839.35162 3114.5813 23
-193.84669 896.25555 3325.7346 23
-174.05194 895.81427 3324.0972 22
-155.22499 900.8772 3342.884 21
-136.52341 908.25549 3370.2627 21
-117.17231 913.10114 3388.2432 21
-96.978615 912.02661 3384.2563 21
-76.561874 907.7475 3368.3777 21
-56.469589 905.65356 3360.6077 21
-36.741734 910.30688 3377.875 21
-16.828703 916.02118 3399.0789 21
3.3074944 913.95728 3391.4202 21
23.39324 913.4679 3389.6042 21
43.607254 916.12537 3399.4653 21
63.859596 917.65411 3405.1382 21
84.668465 924.52563 3430.6362 21
105.2949 927.12976 3440.2993 21
126.31038 931.75885 3457.4768 21
146.54372 930.13147 3451.4377 21
168.2003 936.82977 3476.2932 21
189.78731 941.72113 3494.4434 21
210.39723 941.27869 3492.8018 21
231.5797 943.2475 3500.1074 21
252.13664 942.55432 3497.5352 21
274.14108 946.96637 3513.9072 20
295.67349 949.2403 3522.3447 21
316.40506 948.81256 3520.7578 20
338.96484 953.58112 3538.4524 20
357.50391 947.14172 3514.5579 21
378.27017 946.98712 3513.9841 20
399.55228 948.07269 3518.0125 19
422.28519 952.32239 3533.7815 19
443.67114 953.27643 3537.3215 19
465.85791 955.78729 3546.6387 19
487.25354 956.52832 3549.3887 19
509.0607 957.98254 3554.7847 19
529.64032 957.10291 3551.5205 19
550.74695 957.20642 3551.9048 19
572.9115 959.07324 3558.832 18
594.52032 959.91034 3561.9382 18
614.17578 957.64423 3553.5293 18
634.72186 956.87103 3550.6602 18
650.15308 948.68396 3520.2805 65552
662.96198 937.29858 3478.0327 65549
676.74622 927.93713 3443.2952 196615
687.63116 915.26459 3396.2712 721413
704.64874 911.24341 3381.3501 3219999
726.92511 914.05725 3391.7915 6706249
739.75232 905.15778 3358.7678 7955799
758.1521 903.36456 3352.1138 9074020
781.70782 907.64948 3368.0139 9271399
801.84784 907.85376 3368.772 8218709
818.52448 904.22217 3355.2964 8481623
835.34436 900.9173 3343.0327 8612952
865.95013 912.28912 3385.2305 7560521
885.55359 911.81738 3383.4797 8283989
903.63 909.8291 3376.1018 7955025
919.92017 906.16724 3362.5139 8349013
946.25513 912.3457 3385.4402 8547161
967.11346 913.09674 3388.2271 8218196
984.33728 910.45551 3378.4263 9007457
1002.2101 908.50793 3371.1995 9533801
1019.4207 906.04791 3362.071 9205093
1045.9785 911.83057 3383.5288 8941921
1064.8768 910.84424 3379.8687 8612956
1085.4185 911.27393 3381.4631 8481370
1097.0223 904.32031 3355.6604 8744542
1120.1262 906.92548 3365.3271 8744541
1138.2494 905.47711 3359.9531 8941920
1154.5916 902.68634 3349.5974 9139300
1174.1543 902.46533 3348.7771 9007714
1187.4026 897.47876 3330.2737 9336679
1218.4983 905.92456 3361.6133 9139300
1250.2133 914.55157 3393.6255 8547163
1257.3441 905.20648 3358.9487 8678492
1274.8356 903.49536 3352.5994 8349784
1304.924 910.62738 3379.064 8349784
1324.2017 910.11377 3377.158 8612956
1337.8923 905.83264 3361.2722 8612956
1356.4034 904.89294 3357.7854 8481370
1372.5771 902.44366 3348.6968 8086612
1388.4811 899.88947 3339.2188 8349784
1407.708 899.53027 3337.886 8744542
1430.8417 901.64294 3345.7256 9007713
1451.3649 902.07538 3347.3301 8876128
1474.2505 903.94464 3354.2664 8349783
1496.915 905.63049 3360.522 8152406
1510.574 901.89514 3346.6611 7757904
1539.8622 907.46722 3367.3376 8020819
1577.1741 917.56476 3404.8064 8218711
1572.3357 903.19482 3351.4839 8284504
1603.8239 909.7901 3375.9573 8481626
1601.9552 897.53406 3330.4785 8350297
1638.6598 906.9248 3365.3247 8021332
1652.6698 903.68011 3353.2849 8021332
1675.2817 905.16046 3358.7778 8152918
1697.118 906.19171 3362.6047 7955539
1721.7683 908.68427 3371.8538 8086868
1743.5729 909.63501 3375.3816 8152405
1756.5771 906.02496 3361.9858 8547419
1791.8875 913.87207 3391.1042 8613212
1820.256 918.04413 3406.5854 8547419
1839.9965 917.82086 3405.7568 8876640
1863.5483 919.48291 3411.9243 8218711
1891.6342 923.32233 3426.1714 8415833
1917.0917 925.8111 3435.4062 8219225
1927.9198 921.25677 3418.5066 7758931
1945.1658 919.83209 3413.22 7297609
1950.7694 912.98785 3387.8232 7231559
1957.8982 906.98981 3365.5659 8021332
1994.9025 914.81256 3394.5942 8482139
2059.8716 935.17535 3470.1541 8349785
2060.1628 926.06219 3436.3379 4601387
2043.2501 909.46973 3374.7683 984067
2052.3638 904.67126 3356.9626 589824
2036.9662 889.26422 3299.7917 1378565
2052.9263 887.70959 3294.0232 3613721
2091.9089 896.04584 3324.9563 7101521
2087.3987 885.77051 3286.8276 11771269
2087.2039 877.49951 3256.1362 10126703
2076.0376 864.80969 3209.0483 10849657
2106.8596 869.68243 3227.1296 10652278
2152.625 880.58038 3267.5686 10981244
2153.7935 873.20337 3240.1948 10718328
2193.1836 881.3158 3270.2974 10389363
2193.4514 873.70282 3242.0481 11902602
2206.1125 871.11566 3232.4478 11047295
2196.3325 859.78809 3190.4148 10060656
2207.1699 856.65607 3178.7927 9863019
2249.4182 865.6651 3212.2227 11112829
2265.9412 864.70612 3208.6638 7494986
2369.7285 896.78674 3327.7056 8548187
2464.2722 924.86865 3431.9092 7495243
2487.8794 926.08557 3436.4246 5915697
2497.4634 922.10498 3421.6541 6310199
2528.6392 926.09637 3436.4648 6112820
2529.3042 918.93896 3409.906 7099971
2532.4778 912.79926 3387.123 6837055
2511.468 898.10797 3332.6084 7494986
2530.8877 897.99084 3332.1736 7034437
2576.313 907.03131 3365.72 7297352
2572.5125 898.73517 3334.9355 7757646
2587.459 897.06519 3328.7385 8546393
2595.2185 892.94745 3313.459 7493704
2604.3362 889.35541 3300.1304 6967102
2628.0632 890.76874 3305.3748 5322024
2640.124 888.23621 3295.9771 5716784
2658.3755 887.80841 3294.3896 7427660
2668.9226 884.83252 3283.3472 6770496
2702.4961 889.47839 3300.5867 6374710
2708.0034 884.88641 3283.5471 10190445
2724.9336 884.06598 3280.5027 8347983
2753.9373 887.14655 3291.9336 8217936
2825.8318 903.90326 3354.1128 8087123
2894.9519 919.54468 3412.1536 8283990
2914.5425 919.34576 3411.4153 6902594
2956.1025 926.03174 3436.2251 5981236
2958.7739 920.52728 3415.7998 5389358
2934.2366 906.69006 3364.4539 3481361
2998.021 920.14728 3414.3894 5520944
3027.5115 922.96899 3424.8601 6902853
3019.238 914.3172 3392.7559 6771520
3009.4688 905.3299 3359.4067 7429448
3030.0298 905.52484 3360.1301 9731945
3035.3618 901.1958 3344.0664 10060653
3049.6694 899.57043 3338.0352 10126445
3084.9441 904.11102 3354.8838 10915191
3093.7678 900.89099 3342.9351 11705220
3110.6533 900.04456 3339.7944 11705220
3157.4431 907.8067 3368.5972 11837062
3179.0718 908.28253 3370.363 11705477
3223.6067 915.25604 3396.2397 12824215
3215.363 907.25104 3366.5354 12758167
0 0 0 0
0 0 0 0
0 0 0 0
0 0 0 0
0 0 0 0
0 0 0 0
0 0 0 0
0 0 0 0
-2534.7371 786.19849 2854.5728 16
-2513.9231 784.98157 2850.1543 16
-2493.6616 783.922 2846.3069 16
-2473.5947 782.90936 2842.6304 16
-2454.095 782.06366 2839.5598 16
-2436.0879 781.6853 2838.186 17
-2418.377 781.39734 2837.1404 18
-2401.6128 781.41345 2837.1987 18
-2386.6399 782.01654 2839.3887 18
-2361.1777 779.16693 2829.0422 19
-2294.5649 762.60028 2768.8909 19
-2312.6621 774.151 2810.8301 19
-2289.9412 772.10663 2803.4072 18
-2267.7593 770.21533 2796.5403 18
-2137.7754 731.41327 2655.6555 18
-2124.7986 732.36493 2659.1108 19
-2095.9736 727.82758 2642.6365 20
-2208.5347 772.68787 2805.5176 21
-2188.1284 771.35535 2800.6794 21
-2161.2629 767.70795 2787.4363 21
-2153.541 770.85693 2798.8696 21
-2137.9954 771.23236 2800.2329 20
-2122.7009 771.70508 2801.9492 20
-2103.8376 770.87769 2798.9451 19
-1994.8926 736.7674 2675.0955 19
-2064.2136 768.47644 2790.2266 19
-2029.0243 761.47583 2764.8083 20
-2013.5271 761.81171 2766.0278 20
-1998.1995 762.21771 2767.502 21
-1880.701 723.33466 2626.3232 21
-1964.1335 761.72742 2765.7217 21
-1948.2235 761.91516 2766.4036 21
-1936.8876 763.91028 2773.6475 21
-1913.3611 761.09027 2763.4084 21
-1809.2914 725.90686 2635.6626 21
-1788.66 723.87854 2628.2981 21
-1867.1768 762.29272 2767.7744 21
-1781.4122 733.72406 2664.0457 21
-1833.6744 762.00299 2766.7222 21
-1722.9178 722.43658 2623.0625 21
-1727.4258 730.92157 2653.8701 21
-1691.4122 722.25897 2622.4177 21
-1672.5852 720.84277 2617.2756 21
-1753.998 763.00537 2770.3618 21
-1719.391 755.01813 2741.3613 21
-1723.6929 764.12708 2774.4346 20
-1683.791 753.62701 2736.3103 20
-1629.3004 736.32947 2673.5056 21
-1670.3555 762.29626 2767.7871 21
-1589.557 732.6167 2660.0249 21
-1548.4659 720.82654 2617.2166 21
-1542.6631 725.39111 2633.79 21
-1526.427 725.09296 2632.7073 21
-1505.4768 722.52612 2623.3877 21
-1496.3435 725.63629 2634.6802 21
-1481.7817 726.15179 2636.552 21
-1458.6343 722.42603 2623.0242 21
-1437.8043 719.78015 2613.4172 21
-1501.7411 759.97375 2759.3545 21
-1423.8037 728.4649 2644.9504 23
-1408.3795 728.59448 2645.4209 23
-1392.7152 728.60132 2645.4456 23
-1375.2805 727.67151 2642.0698 23
-1370.6807 733.58948 2663.5571 21
-1419.2719 768.44501 2790.1125 21
-1323.5947 725.08942 2632.6946 21
-1313.2521 728.00494 2643.2803 21
-1303.6747 731.4201 2655.6804 21
-1288.8016 731.91144 2657.4641 21
-1259.9808 724.39594 2630.1765 21
-1251.577 728.57739 2645.3589 21
-1230.6475 725.48096 2634.1162 21
-1220.3914 728.67792 2645.7239 21
-1252.5442 757.60931 2750.7695 21
-1230.1598 753.88165 2737.2349 21
-1181.8898 733.97882 2664.9707 21
-1166.9186 734.49615 2666.8491 21
-1214.1216 774.69952 2812.8215 21
-1138.1285 736.3197 2673.47 21
-1184.6881 777.26166 2822.1245 21
-1111.0668 739.39777 2684.646 20
-1103.573 745.07983 2705.2769 20
-1079.2592 739.40601 2684.676 21
-1066.6484 741.70013 2693.0056 21
-1054.71 744.53857 2703.3115 21
-1038.7092 744.55261 2703.3625 21
-1020.0249 742.6134 2696.3215 21
-1009.9898 747.00964 2712.2837 21
-987.25897 742.00616 2694.1167 21
-973.32153 743.55579 2699.7432 20
-965.61151 749.99402 2723.1196 20
-1009.7205 797.58331 2895.9092 20
-943.70911 758.32953 2753.3845 21
-988.84442 808.57928 2935.8342 21
-911.11688 758.36456 2753.5117 21
-895.49811 758.95709 2755.6631 21
-881.76599 761.20026 2763.8079 21
-866.08643 761.81543 2766.0415 21
-843.26758 756.05334 2745.1201 21
-831.349 760.02991 2759.5583 21
-821.75964 766.33807 2782.4624 21
-808.87238 769.76605 2794.9089 21
-792.58813 770.03717 2795.8933 19
-778.83185 772.82819 2806.0271 19
-760.62665 771.23016 2800.2249 18
-746.5564 773.84698 2809.7261 19
-731.52216 775.5611 2815.9497 19
-716.6106 777.48834 2822.9473 21
-699.20929 776.74194 2820.2373 21
-689.3327 784.52277 2848.4883 22
-675.06586 787.57227 2859.5605 21
-658.76044 788.33936 2862.3457 21
-645.3421 792.69318 2878.1538 21
-628.29578 792.70599 2878.2007 21
-615.70142 798.49335 2899.2136 21
-594.03094 792.50433 2877.4683 21
-579.15222 795.49011 2888.3093 21
-566.79327 802.22418 2912.7595 21
-552.76794 806.94867 2929.9136 21
-536.75739 808.98749 2937.3162 21
-520.76538 811.19183 2945.3198 21
-526.2926 848.23187 3079.8069 21
-489.43933 817.17426 2967.0413 21
-475.5574 823.58447 2990.3157 21
-475.51251 855.38184 3105.7673 21
-460.71075 862.12543 3130.2522 21
-423.84348 826.41125 3000.5796 21
-408.94189 832.2738 3021.8652 20
-390.60367 831.35834 3018.5417 21
-375.53418 837.64642 3041.3728 23
-378.91104 887.78821 3223.4302 23
-361.91953 892.99744 3242.3442 23
-323.96146 844.15747 3065.0134 23
-306.34665 845.67334 3070.5171 23
-309.85806 909.38269 3301.8367 23
-272.80194 854.59631 3102.9153 23
-265.27139 891.06921 3235.3433 23
-249.06953 901.82837 3274.408 23
-219.0033 859.96411 3122.4048 23
-197.07639 845.2829 3069.0996 23
-183.82732 868.62097 3153.8369 23
-164.49783 865.25897 3141.6299 22
-146.48674 868.85858 3154.6995 21
-128.48035 873.54327 3171.709 21
-115.85393 922.68073 3350.1199 21
-95.866028 921.38922 3345.4304 21
-76.082283 921.89795 3347.2778 21
-56.636166 928.29956 3370.521 21
-36.888187 934.03326 3391.3394 21
-16.820957 935.73395 3397.5144 21
3.3205092 937.73108 3404.7656 21
23.443371 935.55591 3396.8679 21
43.897667 942.50659 3422.105 21
64.23027 943.2774 3424.9033 21
84.38385 941.68011 3419.104 21
104.91421 944.09198 3427.8611 21
126.20848 951.48041 3454.6873 21
146.95937 953.28156 3461.2273 21
167.88307 955.62531 3469.7368 21
188.47192 955.7594 3470.2239 21
208.50777 953.33875 3461.4346 21
229.1062 953.69348 3462.7227 21
250.90341 958.56989 3480.4282 21
271.54193 958.61493 3480.5918 21
292.04364 958.20477 3479.1025 21
312.46988 957.61725 3476.9695 21
334.37277 961.34808 3490.5154 21
354.63565 960.2038 3486.3606 19
374.9834 959.40253 3483.4514 19
396.11957 960.59686 3487.7878 19
416.66068 960.30121 3486.7144 19
437.14389 959.90637 3485.2808 19
459.22116 962.88953 3496.1123 19
481.13028 965.27789 3504.7839 19
500.83835 963.23541 3497.3679 19
521.08978 962.35852 3494.1843 19
543.758 965.84161 3506.8311 19
564.6217 965.98108 3507.3374 19
586.03857 967.02325 3511.1213 19
606.28821 966.13416 3507.8931 19
627.33362 966.52991 3509.3298 19
642.35852 957.92218 3478.0764 18
658.56866 951.56226 3454.9846 17
676.28766 947.7002 3440.9619 65551
686.94592 934.45947 3392.8867 131082
709.46326 937.64508 3404.4534 590343
711.38287 914.18475 3319.2722 3747372
721.12836 901.77325 3274.2078 6838092
740.62927 901.89166 3274.6379 7956306
767.29407 910.505 3305.9116 8547671
782.70416 905.66669 3288.3442 8481880
809.78577 914.24042 3319.4744 8284501
821.32111 905.27216 3286.9119 8810333
844.07434 908.79749 3299.7119 8020561
861.96344 907.04474 3293.3479 8283990
888.5863 914.35663 3319.8962 8218198
907.10919 913.19733 3315.687 7955026
925.54346 911.99994 3311.3396 7889232
946.12579 912.92493 3314.698 7428425
965.67505 912.83575 3314.3743 8086355
984.59192 912.16412 3311.9358 7428425
1009.1777 916.66821 3328.2893 7428683
1030.6715 918.24481 3334.0137 9270887
1042.8198 911.59271 3309.8608 8941921
1062.9469 912.0321 3311.4563 8547419
1077.5007 907.76031 3295.946 7626061
1091.743 903.38275 3280.052 7889231
1094.1552 889.54071 3229.7935 9073250
1129.593 902.56256 3277.0737 9007457
1148.9421 902.50641 3276.8699 9533288
1169.7274 903.56146 3280.7007 8941921
1192.4336 906.04163 3289.7058 8415577
1208.6967 903.625 3280.9314 8415577
1235.592 909.10779 3300.8386 8152147
1255.1534 909.10779 3300.8386 7889232
1279.0231 912.18036 3311.9946 8020819
1295.2788 909.81189 3303.395 8547163
1312.899 908.45819 3298.48 8810335
1335.8389 910.77112 3306.8777 9007714
1347.8185 905.6524 3288.2927 8349784
1361.0353 901.49927 3273.2131 7888976
1379.7385 901.04565 3271.5662 8941921
1404.6482 904.60175 3284.4775 8678749
1432.9406 910.20911 3304.8374 8349784
1451.4523 909.5365 3302.395 8678749
1465.5867 906.17523 3290.1909 8284504
1487.7539 907.80365 3296.1035 8416090
1505.696 906.84528 3292.6238 8481882
1524.9846 906.71204 3292.1399 8284503
1555.6051 913.23444 3315.822 8350297
1570.7976 910.65027 3306.439 8547674
1588.0707 909.32092 3301.6123 8547675
1602.1606 906.22345 3290.366 8547676
1631.2399 911.57697 3309.8037 8218711
1648.797 910.44092 3305.6787 8613469
1676.995 915.13818 3322.7339 8745055
1696.0581 914.79938 3321.5039 8481883
1712.1649 912.89215 3314.5789 8547676
1736.6843 915.46265 3323.9121 8152918
1759.7577 917.22186 3330.2996 8021332
1778.86 916.8952 3329.1135 9008227
1822.2113 928.93744 3372.8372 9139813
1838.5149 927.07947 3366.0913 8745055
1861.6803 928.68445 3371.9185 8613469
1875.3647 925.57599 3360.6321 8547419
1901.9323 928.8244 3372.4265 8284504
1907.3591 921.78839 3346.8799 7100486
1933.9835 925.03613 3358.6721 7955796
1920.6001 909.27667 3301.4517 8547419
1953.2412 915.40472 3323.7019 7956052
1953.1034 906.2019 3290.2876 7692882
1987.0947 912.85956 3314.4607 7823954
2006.0426 912.54376 3313.314 6574401
2009.0283 905.04321 3286.0808 7167051
2049.0972 914.23193 3319.4434 6968903
2042.8129 902.76147 3277.7959 6311228
2065.5654 904.21808 3283.0847 3483162
2073.5469 899.24176 3265.0164 11244929
2085.0601 895.87494 3252.7917 10849398
2083.6379 887.06281 3220.7964 9862503
2091.658 882.39398 3203.8447 9730149
2133.3145 891.87158 3238.2563 8283472
2162.3567 895.95355 3253.0774 9796455
2166.9719 889.93164 3231.2126 10323056
2184.5464 889.29071 3228.8855 10125933
2168.8516 875.23511 3177.8518 10520690
2191.8003 876.88196 3183.8313 10191728
2184.937 866.67542 3146.7727 9993578
2230.5652 877.28662 3185.3003 6705470
2260.0615 881.42822 3200.3379 7297350
2331.3152 901.65082 3273.7634 8481624
2384.5212 914.61731 3320.8428 8218709
2401.9609 913.76495 3317.748 8152915
2448.3499 923.85004 3354.3657 8482137
2461.4199 921.3017 3345.1128 8021331
2505.8208 930.42725 3378.2463 4666919
2489.637 917.09106 3329.8247 3417112
2457.5779 898.16272 3261.0984 7757900
2482.6431 900.24384 3268.6548 7889743
2494.8059 897.65039 3259.2383 7955539
2515.0684 897.98865 3260.4666 7692366
2503.748 887.13135 3221.0452 7692110
2531.6758 890.23956 3232.3306 7692109
2577.5417 899.56158 3266.1775 8021078
2601.3347 901.09839 3271.7576 8020821
2607.7822 896.64868 3255.6011 5586737
2632.4529 898.48401 3262.2651 6442815
2675.8076 906.62305 3291.8169 6573631
2655.4634 893.21802 3243.145 9995382
2684.4595 896.48291 3254.9995 8940636
2733.5762 906.37262 3290.9075 7230784
2732.6204 899.63721 3266.4524 7099969
2759.6104 902.13226 3275.5115 7428680
2792.2759 906.43488 3291.1335 7363400
2829.1274 912.02716 3311.4385 7955024
2890.6631 925.44513 3360.1572 7363400
2899.7129 921.99109 3347.616 7166021
2902.3142 916.54761 3327.8513 6903365
2909.0115 912.46228 3313.0183 6771522
2928.8977 912.54102 3313.304 6771265
2949.0315 912.69525 3313.864 6968642
2943.1836 904.8595 3285.4138 6771263
2924.5095 893.20953 3243.1143 6310455
3009.2043 913.0766 3315.2488 6310454
2973.1724 896.29163 3254.3049 7955535
2997.6091 897.83447 3259.9067 9139552
3027.5684 901.00098 3271.4041 9863531
3040.9001 899.21045 3264.9028 11244927
3083.8955 906.15875 3290.1309 11113340
3086.3967 901.19592 3272.1116 10916217
3112.6086 903.17499 3279.2974 10719095
3124.8303 901.09528 3271.7461 11640967
0 0 0 0
0 0 0 0
0 0 0 0
0 0 0 0
0 0 0 0
0 0 0 0
0 0 0 0
0 0 0 0
-2523.7327 799.62866 2842.1799 15
-2503.6545 798.59686 2838.5125 16
-2483.9888 797.68347 2835.2661 18
-2464.425 796.79077 2832.0928 18
-2446.5537 796.43665 2830.8342 18
-2429.4912 796.34277 2830.5005 18
-2410.428 795.58716 2827.8149 19
-2411.4111 801.48395 2848.7742 19
-2396.0349 801.98804 2850.5662 19
-2368.3071 798.33582 2837.5847 19
-2223.5735 754.90759 2683.2244 22
-2207.7458 754.93274 2683.3137 21
-2296.311 790.91406 2811.2051 21
-2271.2334 787.99365 2800.8247 21
-2155.7891 753.44696 2678.0327 21
-2238.8308 788.27313 2801.8181 20
-2126.3923 754.27863 2680.989 21
-2207.1372 788.81451 2803.7424 21
-2188.8853 788.22522 2801.6479 21
-2172.4814 788.29755 2801.905 21
-2154.9949 787.97516 2800.759 21
-2039.5803 751.56238 2671.3342 21
-2102.6978 780.88147 2775.5454 21
-2023.1248 757.25397 2691.5645 21
-2088.0703 787.77405 2800.0442 21
-1983.4867 754.31183 2681.1069 21
-2052.0188 786.67603 2796.1414 21
-1962.4657 758.46912 2695.8835 21
-2013.2249 784.47333 2788.3123 21
-1996.2268 784.28717 2787.6504 21
-1977.61 783.45648 2784.698 21
-1955.6125 781.26141 2776.8958 21
-1939.3761 781.3501 2777.2109 21
-1919.5936 779.99927 2772.4099 21
-1899.6058 778.5412 2767.2271 21
-1921.5839 794.40674 2823.6194 21
-1861.7828 776.44568 2759.7788 21
-1779.1606 748.56445 2660.6785 21
-1757.6472 746.12537 2652.0093 21
-1740.4574 745.49414 2649.7656 21
-1723.2278 744.83447 2647.4207 21
-1703.1512 742.92065 2640.6184 21
-1685.6925 742.12378 2637.7861 21
-1686.1313 749.26526 2663.1694 21
-1670.9648 749.54156 2664.1516 21
-1653.4709 748.76917 2661.4062 21
-1640.1704 749.89923 2665.4229 21
-1623.6865 749.5816 2664.2939 21
-1623.6243 756.91333 2690.3535 21
-1608.3534 757.22998 2691.479 21
-1629.0234 774.64392 2753.3748 21
-1567.2037 752.78735 2675.6882 21
-1611.74 782.09283 2779.8511 21
-1536.1993 753.13489 2676.9236 21
-1515.496 750.73767 2668.4028 21
-1566.3772 784.12488 2787.0737 21
-1482.9705 750.28302 2666.7871 21
-1506.5902 770.4436 2738.4453 21
-1450.7141 749.94781 2665.5957 21
-1442.8905 754.11505 2680.4075 23
-1471.7987 777.78632 2764.5439 23
-1454.4529 777.27185 2762.7153 23
-1376.845 744.17456 2645.0752 23
-1359.5503 743.28918 2641.9282 22
-1342.6791 742.61737 2639.5405 21
-1326.5033 742.31897 2638.4797 21
-1369.8605 775.72583 2757.2202 21
-1338.0118 766.83746 2725.6277 21
-1276.9717 740.79724 2633.071 21
-1279.5175 751.45673 2670.9587 21
-1347.8685 801.5144 2848.8826 21
-1233.4944 742.80573 2640.21 21
-1259.6713 768.31512 2730.8799 21
-1224.6855 756.698 2689.5881 21
-1234.5267 772.83691 2746.9519 21
-1189.8083 754.79541 2682.8257 21
-1179.7649 758.56036 2696.2078 20
-1170.9447 763.22607 2712.7915 18
-1157.1299 764.72076 2718.1042 18
-1114.6984 747.07867 2655.3975 18
-1175.6117 799.18549 2840.6047 19
-1119.8253 772.3208 2745.1177 19
-1079.5371 755.5105 2685.3674 18
-1066.0045 757.20209 2691.3799 18
-1053.3682 759.59137 2699.8723 18
-1037.3488 759.57721 2699.822 21
-1034.2883 769.20001 2734.0251 21
-1061.3977 801.92371 2850.3374 21
-1053.1176 808.53522 2873.8372 21
-987.69305 770.77014 2739.606 21
-967.03595 767.26202 2727.1367 21
-948.27234 765.16248 2719.6741 21
-937.65155 769.67432 2735.7109 21
-972.22955 812.09937 2886.5054 21
-958.60248 815.05737 2897.0193 21
-903.83679 782.50702 2781.3232 21
-881.80444 777.61316 2763.9285 21
-864.98608 777.21899 2762.5273 21
-856.73004 784.65149 2788.9453 21
-839.98517 784.44879 2788.2249 21
-823.60651 784.58691 2788.7158 21
-808.66669 786.12933 2794.1982 21
-791.84717 785.87085 2793.2795 19
-778.26892 788.88678 2803.9993 18
-766.83521 794.25543 2823.0815 18
-746.39685 790.32904 2809.1255 19
-763.10046 826.44879 2937.5085 18
-717.99548 795.75256 2828.4028 20
-731.04095 829.57745 2948.6292 21
-682.45782 793.41089 2820.0796 22
-669.45074 797.82672 2835.7751 21
-659.1261 805.74915 2863.9343 21
-665.27856 834.76508 2967.0681 21
-625.0979 805.64136 2863.5513 21
-611.4519 810.04498 2879.2036 21
-594.50653 810.20496 2879.772 21
-577.90601 810.8584 2882.0945 21
-564.49927 816.16913 2900.9707 21
-553.61481 825.57483 2934.4023 21
-536.02924 825.2735 2933.3313 21
-516.83173 822.38708 2923.072 21
-533.77734 878.80634 3123.6069 21
-484.40839 826.17719 2936.5432 21
-469.65768 830.86853 2953.218 21
-453.96762 834.19702 2965.0488 21
-437.25098 835.83105 2970.8569 20
-423.99194 844.4892 3001.6309 20
-427.62457 889.02283 3159.9202 21
-409.84525 891.08179 3167.2385 21
-393.0791 895.64709 3183.4653 23
-376.89606 902.0683 3206.2886 23
-357.34744 900.68842 3201.384 23
-324.44229 863.60132 3069.5627 23
-307.42007 866.89685 3081.2761 23
-287.00043 860.4231 3058.2661 23
-285.42392 913.37616 3246.481 23
-252.08566 864.99756 3074.5256 23
-247.73428 916.29443 3256.8538 23
-216.38927 867.9826 3085.1355 23
-196.25377 859.86688 3056.2891 23
-179.83067 868.02002 3085.2686 23
-163.69312 879.55304 3126.261 22
-152.87579 926.26483 3292.2922 21
-136.63036 948.94415 3372.9031 21
-109.39259 889.96777 3163.2788 21
-90.069687 884.30627 3143.156 21
-75.436783 933.74469 3318.8787 21
-56.5303 946.50146 3364.2207 21
-36.379391 940.97083 3344.563 21
-16.564468 941.29321 3345.7087 21
3.3323209 961.31586 3416.877 21
23.302404 949.93994 3376.4424 21
43.756855 959.69836 3411.1277 21
63.399712 951.11407 3380.616 21
83.881905 956.22052 3398.7661 21
103.9411 955.46112 3396.0669 21
125.10055 963.42114 3424.3599 21
145.56049 964.52417 3428.2803 21
166.18964 966.34082 3434.7375 21
187.28275 970.16455 3448.3281 21
207.55669 969.40979 3445.6458 21
228.57481 971.95471 3454.6914 21
249.59398 974.08527 3462.2642 21
269.87054 973.21423 3459.168 21
289.89328 971.61542 3453.4854 21
312.28595 977.64685 3474.9231 21
332.22299 975.71991 3468.0742 21
354.29669 979.92712 3483.0283 18
376.16614 983.13727 3494.4385 18
396.83545 983.03949 3494.0908 19
414.39874 975.63879 3467.7859 19
435.46335 976.79126 3471.8821 19
456.35495 977.46912 3474.2915 19
477.5336 978.67682 3478.5842 19
499.51541 981.36237 3488.1296 19
520.79315 982.50635 3492.1956 19
541.53729 982.59448 3492.509 19
562.83038 983.63562 3496.2097 19
582.4151 981.72327 3489.4124 19
604.91235 984.68311 3499.9326 19
623.56073 981.38904 3488.2244 19
639.62885 974.37573 3463.2964 17
654.99243 966.75873 3436.2229 17
670.93036 960.42316 3413.7039 65552
678.9422 943.44452 3353.3555 14
697.90784 942.22003 3349.0029 196618
702.20471 921.80701 3276.4475 459013
711.42108 908.77673 3230.1331 2759706
722.33453 898.54022 3193.7488 6903883
749.44092 908.45532 3228.9907 8350811
771.30908 911.68512 3240.4707 7823951
787.84302 908.60608 3229.5266 8218709
812.80652 915.16425 3252.8367 8283989
824.02478 906.30078 3221.3328 9205091
840.66388 903.66602 3211.9678 8744283
866.59229 910.91211 3237.7231 8415575
877.73035 902.6344 3208.3008 8283733
898.47595 904.3783 3214.4993 7691854
922.25507 909.03992 3231.0684 8744541
938.41486 906.1543 3220.812 8612956
958.38147 906.98657 3223.7703 8218198
976.92017 906.46136 3221.9033 8547163
999.19781 909.35907 3232.2029 8678749
1010.2599 902.13251 3206.5171 8810335
1027.2125 900.33594 3200.1313 9205093
1048.2869 902.15143 3206.5842 8152405
1064.3367 899.65527 3197.7119 8481626
1084.0193 900.26349 3199.8738 9139299
1104.8757 901.80872 3205.3662 8941920
1130.2731 906.94562 3223.6245 9007713
1148.1334 905.96429 3220.1367 8415320
1170.4675 908.48755 3229.1052 8678749
1193.9587 911.81329 3240.926 8876127
1215.7811 913.77948 3247.9146 8283991
1234.9391 913.71301 3247.6782 8218198
1243.777 906.13007 3220.7256 8415576
1270.4116 911.54578 3239.9753 8218196
1288.9806 911.09924 3238.3882 8481368
1304.338 908.42902 3228.8972 8678749
1308.3229 898.02991 3191.9348 8612955
1340.7365 907.16248 3224.3955 7954769
1360.7803 907.7865 3226.6135 8744285
1375.5194 904.9035 3216.366 8547419
1398.2561 907.28851 3224.8435 8481627
1418.0411 907.72003 3226.377 8547419
1433.7799 905.58417 3218.7856 8942177
1451.2424 904.57892 3215.2126 8876641
1471.6802 905.4303 3218.2385 8810848
1493.1917 906.91205 3223.5051 8613469
1526.5314 915.44946 3253.8506 8744798
1541.8765 913.11743 3245.5615 8218711
1544.7609 903.55444 3211.571 8745055
1573.0548 908.90564 3230.5911 8942434
1591.3712 908.43256 3228.9097 8942434
1617.3875 912.31396 3242.7056 8745055
1645.2866 917.15375 3259.908 8679262
1666.902 918.41895 3264.4053 8745311
1694.4159 922.86786 3280.2183 8942691
1713.9846 922.93768 3280.4663 8745055
1741.2987 927.12976 3295.3665 8876384
1763.3601 928.46307 3300.1057 8679005
1793.6431 934.04865 3319.9587 6902338
1808.5564 931.59589 3311.241 7231303
1838.9376 937.078 3330.7266 7889233
1857.2997 936.38403 3328.2598 7231303
1867.8912 931.82825 3312.0667 6836545
1859.2838 917.88892 3262.5212 7692110
1914.125 935.23749 3324.1843 8021331
1903.8344 920.73346 3272.6316 8021332
1934.0092 925.89453 3290.9761 8219225
1941.2008 920.05945 3270.2358 8087639
1965.1453 922.20135 3277.8491 7429709
1948.0813 905.2453 3217.5811 7692624
1948.5198 896.67236 3187.1096 7824210
1984.4213 904.4267 3214.6714 7758417
1980.2451 893.94141 3177.4026 7823951
1993.8818 891.61908 3169.1482 8218707
2023.0026 896.19958 3185.4292 8941914
2063.6775 905.76666 3219.4341 12427917
2081.0371 905.01886 3216.7764 9401439
2119.0596 913.18921 3245.8167 9466720
2127.7219 908.67377 3229.7671 8940377
2137.0444 904.51837 3214.9973 8019275
2145.9746 900.27173 3199.9031 8480082
2163.1121 899.51251 3197.2046 9729891
2194.207 904.52014 3215.0037 9400926
2185.1089 893.01544 3174.1113 8085580
2191.8691 888.13269 3156.7563 7953994
2223.7009 893.40552 3175.498 7823178
2239.2073 892.08594 3170.8076 7823437
2297.9919 907.8866 3226.9692 7955536
2319.8054 908.94043 3230.7151 8350038
2365.0493 919.0824 3266.7632 7823950
2397.665 924.19214 3284.925 7757901
2407.489 920.505 3271.8198 8350551
2403.9763 911.8183 3240.9438 8547930
2422.0723 911.40039 3239.4585 8613724
2422.8604 904.52747 3215.0295 8416346
2424.0723 897.91882 3191.54 8350811
2434.7556 894.89374 3180.7878 8152918
2454.7546 895.31293 3182.2776 7823952
2459.5876 890.23621 3164.2332 7626571
2472.6421 888.1897 3156.959 7101000
2505.0239 893.06433 3174.2852 7363147
2523.2852 892.86957 3173.593 9468522
2510.812 881.88275 3134.5417 10850430
2534.386 883.62537 3140.7356 11245961
2594.1616 897.87231 3191.3748 9469294
2617.8828 899.5246 3197.2476 9995898
2683.5818 915.47327 3253.9351 9272173
2711.7263 918.47455 3264.6028 8152665
2720.4041 914.8866 3251.8496 7955285
2729.561 911.50903 3239.8445 6836801
2761.0715 915.59125 3254.3542 7428937
2804.2498 923.45911 3282.3198 7100485
2833.2668 926.58734 3293.4387 7429193
2838.0518 921.80219 3276.4304 6771006
2857.4688 921.80219 3276.4304 7100228
2871.5388 920.08905 3270.3413 7034435
2862.5881 911.07202 3238.2915 6837057
2882.0244 911.14966 3238.5674 6244918
2881.165 904.85217 3216.1838 6507834
2884.4719 899.93732 3198.7146 6507834
2925.7646 906.86072 3223.3228 6573626
2918.0425 898.60034 3193.9622 5652781
2956.8049 904.66888 3215.5322 5784369
2961.4509 900.28821 3199.9617 6113334
2993.9146 904.36615 3214.4561 5915696
3004.5068 901.82764 3205.4333 9402725
3010.114 897.83398 3191.2385 10324336
3021.6943 895.66095 3183.5144 10257774
3034.5442 893.88861 3177.2151 10850167
0 0 0 0
0 0 0 0
0 0 0 0
0 0 0 0
0 0 0 0
0 0 0 0
0 0 0 0
0 0 0 0
-2511.7563 812.59747 2828.6924 16
-2492.2905 811.71729 2825.6287 16
-2472.7388 810.79706 2822.425 17
-2452.1865 809.534 2818.0283 18
-2435.7913 809.63538 2818.3811 18
-2417.4854 809.09869 2816.5129 19
-2402.5908 809.70416 2818.6206 19
-2422.4832 822.1239 2861.8545 19
-2400.8872 820.53949 2856.3389 19
-2376.8928 818.10706 2847.8716 19
-2322.1423 804.97821 2802.1692 19
-2216.394 773.85425 2693.8252 19
-2291.1709 805.7663 2804.9126 18
-2274.041 805.58649 2804.2869 22
-2260.8423 806.80701 2808.5354 21
-2221.1558 798.52307 2779.6987 21
-2225.1528 805.93719 2805.5078 20
-2185.2122 797.4292 2775.8909 20
-2189.7056 805.13007 2802.698 19
-2161.5613 800.85645 2787.821 21
-2143.2297 800.18054 2785.4685 21
-2124.7292 799.43054 2782.8577 21
-2107.6069 799.19141 2782.0254 21
-2090.3198 798.88568 2780.9609 21
-2104.9512 810.87054 2822.6809 21
-2089.1309 811.22296 2823.9077 21
-2051.1479 802.9057 2794.9548 21
-2028.3545 800.44714 2786.3965 21
-2005.7847 798.03729 2778.0076 21
-1984.1375 795.95758 2770.7681 21
-1972.8021 798.0144 2777.9282 21
