# .PCD v0.7 - Point Cloud Data file format
VERSION 0.7
FIELDS x y z rgb
SIZE 4 4 4 4
TYPE F F F U
COUNT 1 1 1 1
WIDTH 1373
HEIGHT 1
VIEWPOINT 0 0 0 1 0 0 0
POINTS 1373
DATA ascii
4214.5591 878.70947 4865.5596 1049345
4237.105 877.40729 4858.3491 1508354
4233.6157 870.76758 4821.5845 7162697
4295.2388 877.51965 4858.9717 4795688
4171.5098 846.56635 4687.5781 3545879
4054.7922 817.43604 4526.2788 3347215
4079.7573 817.06396 4524.2183 3215628
4122.5464 820.2428 4541.8203 5518897
4159.25 822.17773 4552.5342 9663853
4170.0513 819.00024 4534.9399 8678241
4232.4209 825.92688 4573.2939 8414554
4226.5991 819.54279 4537.9443 9402218
4256.9976 820.2182 4541.6841 12495246
4166.0981 797.66101 4416.7808 13481630
4211.9014 801.39551 4437.46 13946033
4164.8594 787.52802 4360.6729 14012346
0 0 0 0
0 0 0 0
0 0 0 0
0 0 0 0
0 0 0 0
0 0 0 0
0 0 0 0
0 0 0 0
0 0 0 0
-2207.0132 466.71967 2502.196 16
-2287.7925 487.07477 2611.3245 16
-2170.938 465.34396 2494.8203 16
-2155.2693 465.15314 2493.7976 16
-2134.9819 463.95605 2487.3796 269
-2242.8823 490.79279 2631.2576 270
-2210.7207 487.14182 2611.6841 270
-2094.3792 464.75925 2491.6858 270
-2048.5005 457.80618 2454.4087 14
-2060.427 463.76447 2486.3525 14
-2167.0391 491.2742 2633.8386 15
-2150.2004 490.99335 2632.333 15
-2127.5667 489.3754 2623.6587 15
-2005.7339 464.74823 2491.6267 16
-2049.335 478.37274 2564.6709 17
-2065.824 485.82486 2604.6235 18
-2080.1235 492.87036 2642.3962 18
-1941.8967 463.60858 2485.5168 18
-1937.6166 466.12241 2498.9939 18
-1917.8853 464.92926 2492.5972 18
-1901.5376 464.54422 2490.533 19
-2004.0725 493.42337 2645.3608 19
-1876.1752 465.57571 2496.063 19
-1859.1556 465.01862 2493.0762 19
-1963.7854 495.1236 2654.4763 18
-1834.2343 466.19476 2499.3818 21
-1905.0201 488.12766 2616.9692 21
-1813.6316 468.52521 2511.876 21
-1842.1798 479.83868 2572.53 21
-1839.4017 483.11313 2590.0854 21
-1845.7078 488.84875 2620.8352 21
-1743.6416 465.73495 2496.9165 21
-1802.8717 485.67725 2603.832 21
-1768.2644 480.46667 2575.897 21
-1703.8019 466.9826 2503.6055 21
-1772.3296 490.0321 2627.1794 21
-1666.627 464.89017 2492.3877 21
-1750.9199 492.77008 2641.8586 21
-1642.7855 466.50867 2501.0649 21
-1623.0642 465.10474 2493.5378 23
-1612.7745 466.40247 2500.4954 23
-1623.1276 473.74939 2539.884 23
-1575.5249 464.15976 2488.4717 23
-1567.731 466.2276 2499.5579 23
-1577.0569 473.47467 2538.4111 23
-1520.3429 460.84351 2470.6924 23
-1521.8425 465.78387 2497.179 23
-1514.6193 468.12524 2509.7317 23
-1489.3051 464.86624 2492.2593 23
-1484.6908 468.06784 2509.4238 23
-1488.9172 474.14957 2542.0295 23
-1450.0703 466.49863 2501.011 23
-1433.9659 466.08167 2498.7756 23
-1418.8497 465.98056 2498.2334 23
-1411.4812 468.44864 2511.4653 23
-1398.1249 468.96085 2514.2114 23
-1381.6969 468.44275 2511.4338 23
-1353.2588 463.79712 2486.5276 23
-1355.802 469.7843 2518.6262 23
-1341.1906 469.89444 2519.2168 23
-1325.3016 469.55453 2517.3943 23
-1309.2412 469.14532 2515.2007 23
-1316.42 477.15009 2558.116 23
-1280.1858 469.42249 2516.6865 21
-1272.2368 472.00671 2530.5413 21
-1253.1027 470.45331 2522.2129 21
-1239.4907 470.96069 2524.9331 21
-1221.5449 469.81351 2518.783 21
-1217.5157 474.05673 2541.5317 21
-1203.9325 474.63959 2544.6565 21
-1261.2302 503.53586 2699.5764 21
-1173.8271 474.66187 2544.7759 21
-1167.5052 478.24982 2564.0117 22
-1161.9336 482.24374 2585.4243 22
-1141.6086 480.13959 2574.1433 21
-1129.6134 481.52908 2581.5928 23
-1123.3821 485.44751 2602.6003 23
-1104.7639 484.04782 2595.0964 23
-1096.9674 487.41696 2613.1592 23
-1081.2732 487.32324 2612.6567 23
-1069.7268 489.12329 2622.3071 23
-1058.474 491.11261 2632.9724 23
-1043.8032 491.55188 2635.3274 23
-1026.3696 490.68369 2630.6729 23
-1012.204 491.37512 2634.3796 23
-1015.8879 500.88901 2685.386 23
-986.76648 494.27341 2649.9182 23
-975.05365 496.30493 2660.8098 21
-962.85278 498.15076 2670.7056 20
-948.22327 498.7807 2674.083 20
-941.80878 503.82684 2701.1365 21
-927.82904 504.93036 2707.0527 22
-922.1839 510.68826 2737.9221 24
-908.26849 511.99048 2744.9036 23
-892.12085 512.0589 2745.2705 23
-875.09125 511.61426 2742.8865 24
-855.35803 509.54221 2731.7778 25
-838.70795 509.26233 2730.2773 25
-833.64624 516.1463 2767.1838 25
-824.64941 520.82117 2792.2471 25
-815.66211 525.69366 2818.3699 25
-840.34796 552.9259 2964.3684 22
-825.14508 554.51501 2972.8877 23
-787.72577 540.91772 2899.9897 23
-759.91095 533.4563 2859.9871 23
-740.32721 531.56445 2849.8442 23
-731.12177 537.20996 2880.1113 23
-750.56885 564.68176 3027.3943 23
-693.19104 534.28534 2864.4319 23
-679.2851 536.71045 2877.4333 25
-703.84979 570.43915 3058.261 25
-692.89655 576.4043 3090.2415 25
-631.66315 539.7309 2893.6267 25
-616.27661 541.27814 2901.9219 25
-641.72498 579.80939 3108.4968 25
-629.71283 585.77161 3140.4619 25
-603.25653 578.25153 3100.1448 25
-585.85541 579.21149 3105.2915 24
-574.74854 586.65845 3145.2166 24
-555.28168 585.78534 3140.5356 25
-537.16925 586.33002 3143.4558 25
-517.67047 585.34631 3138.1819 23
-497.19318 583.14166 3126.3621 23
-491.53665 598.82184 3210.4275 23
-469.99533 595.63373 3193.3352 23
-449.49377 593.55115 3182.1699 23
-434.32507 598.63641 3209.4333 23
-408.97232 589.50787 3160.4929 23
-393.42728 594.31873 3186.2852 23
-376.24561 597.01776 3200.7551 23
-357.58768 597.5365 3203.5364 23
-343.30777 605.83929 3248.0498 23
-325.18222 607.93903 3259.3066 23
-306.99799 610.18719 3271.3596 23
-287.97534 610.95966 3275.5012 23
-264.09082 600.78357 3220.9446 23
-247.44466 606.7713 3253.0464 23
-231.25801 614.99292 3297.1245 20
-215.6171 626.31732 3357.8372 21
-193.82047 620.24548 3325.2847 21
-175.7924 626.22406 3357.3372 21
-155.94951 626.43854 3358.4871 21
-137.06664 631.13635 3383.6731 21
-115.10675 620.84784 3328.5139 21
-96.328636 627.01434 3361.5742 20
-76.510506 627.86182 3366.1177 18
-56.687576 629.25378 3373.5803 18
-37.501991 643.09198 3447.77 19
-16.837214 634.33051 3400.7979 19
3.2738085 626.13873 3356.8799 18
23.759615 642.14453 3442.6907 18
44.252872 643.46973 3449.7954 18
82.291695 818.46356 4387.9795 131086
109.33311 826.30328 4430.0098 327689
132.23679 805.89038 4320.5713 2364699
156.24132 797.72083 4276.7725 6113862
181.58484 797.71393 4276.7358 9271923
210.25304 810.52551 4345.4214 9667449
236.13348 810.96698 4347.7886 9535606
256.92441 795.56189 4265.1982 9075312
289.12708 815.08783 4369.8813 9470582
316.0661 817.78436 4384.3379 10325379
342.80112 819.58344 4393.9834 9798777
370.35696 822.95251 4412.0454 9074797
398.58456 827.27142 4435.2002 9732728
424.83517 827.20648 4434.8521 9666933
447.95386 821.40619 4403.7554 9403504
479.95001 831.62677 4458.5508 9600627
502.96481 826.03058 4428.5479 9863799
530.11035 827.43689 4436.0874 9337455
548.78168 816.10815 4375.3516 9732215
581.24396 825.38531 4425.0884 9665652
612.09521 831.67242 4458.7954 9599859
635.17615 827.31836 4435.4521 9534066
673.99603 842.99579 4519.5024 10388862
705.60303 848.79816 4550.6104 9533553
716.93561 830.68219 4453.4863 9665395
743.25897 830.60516 4453.0732 9336687
768.77997 829.66742 4448.0459 9336431
798.58984 833.26709 4467.3442 9664881
830.60681 838.86475 4497.355 9861747
856.18604 837.8147 4491.7251 10453628
894.05872 848.49481 4548.9844 10320758
918.74591 846.40271 4537.7676 9728106
938.388 839.91376 4502.979 9858409
967.22681 841.78766 4513.0254 9397086
1018.8446 862.85211 4625.957 8672593
1024.7926 845.14874 4531.0449 8277577
1055.7761 848.46912 4548.8462 8344141
1085.1049 850.32733 4558.8086 7556936
1080.3406 826.02783 4428.5332 7755086
1112.8727 830.72131 4453.6958 8479834
1128.6171 822.95618 4412.0654 9665393
1148.7264 818.65356 4388.998 9928567
1172.297 816.95349 4379.8833 9796979
1214.6758 828.15027 4439.9121 9862771
1243.4972 829.82483 4448.8901 9862771
1274.5793 832.90741 4465.4165 9336170
1313.3156 840.76453 4507.54 9138789
1337.9287 839.44727 4500.478 9269862
1357.3173 834.96753 4476.4609 9401191
1384.1635 835.15918 4477.4888 9466727
1408.9698 834.13617 4472.0039 9598055
1441.12 837.41821 4489.5996 9729897
1466.562 836.75391 4486.0381 9794917
1478.1962 828.37537 4441.1187 9795172
1514.598 833.92688 4470.8818 9729379
1540.9919 833.87201 4470.5874 9531490
1557.3525 828.48145 4441.6875 9860965
1583.6047 828.44458 4441.4902 9926501
1617.3617 832.271 4462.0044 9794915
1658.7994 839.86304 4502.707 9729379
1674.601 834.44043 4473.6353 9532515
1706.4779 837.07214 4487.7446 9269858
1728.7449 834.98157 4476.5366 9270372
1754.4487 834.58905 4474.4321 9072737
1785.9788 836.93866 4487.0283 9006689
1833.7217 846.7052 4539.3896 9072738
1842.4408 838.43109 4495.0303 8940896
1876.1439 841.60016 4512.02 8546395
1896.4331 838.74744 4496.7261 8349015
1937.363 844.97626 4530.1201 8546393
1965.0449 845.33563 4532.0469 8677722
1988.4049 843.8512 4524.0884 8743772
2020.8746 846.22095 4536.793 9071967
2035.726 841.24756 4510.1299 8546394
2077.6689 847.45361 4543.4019 8809823
2098.864 845.14624 4531.0317 9006946
2140.4534 851.00568 4562.4453 8151894
2152.2407 845.01788 4530.3438 8679007
2178.2222 844.68188 4528.542 8876130
2142.6082 820.75903 4400.2861 7888208
2144.3325 811.5426 4350.874 2757387
2103.1067 786.4834 4216.5259 9204582
2114.0237 781.28308 4188.6455 5785664
2118.3948 773.81244 4148.5938 10784898
2141.8147 773.39154 4146.3374 10588028
2164.6299 772.7644 4142.9751 10126451
2221.1047 784.03284 4203.3877 8283735
2359.6746 823.7088 4416.1006 8546394
2422.8469 836.48358 4484.5889 8677980
2434.5767 831.41327 4457.4058 8546393
2501.1606 844.98376 4530.1602 8085327
2504.6553 837.17828 4488.3135 8480342
2539.5303 839.91565 4502.9888 8283218
2580.2668 844.51434 4527.644 6441268
2602.2415 842.94104 4519.209 10388847
2610.5239 837.00964 4487.4092 10849399
2642.679 838.77484 4496.873 11507842
2644.1575 830.86548 4454.4688 10982014
2642.2048 822.04492 4407.1802 11179650
2691.5891 829.21277 4445.6084 11441795
2807.2449 856.46033 4591.689 10059626
2847.6404 860.44403 4613.0469 11967366
2884.1978 863.20331 4627.8398 11506814
3027.125 897.4458 4811.4224 11967365
3051.5227 896.23706 4804.9419 13020053
3036.467 883.57025 4737.0317 13546397
3068.1233 884.60345 4742.5708 13414811
3066.8679 876.2149 4697.5981 12493712
3082.9998 872.90027 4679.8276 10717046
3112.7317 873.46094 4682.8335 8743513
3151.3093 876.47211 4698.9771 8480344
3174.3291 875.14124 4691.8418 8480344
3208.333 876.83527 4700.9243 8349014
3237.4451 877.17493 4702.7451 8545880
3277.8596 880.54498 4720.813 7888208
3326.8049 886.13025 4750.7568 8348759
3346.3677 883.86108 4738.5913 8349016
3343.2375 875.68585 4694.7617 7691086
3389.4543 880.46405 4720.3789 7756620
3437.5881 885.65802 4748.2251 7690828
3463.9802 885.21161 4745.8315 9401190
3486.6323 883.8244 4738.3945 9730410
3511.1047 882.91705 4733.5298 9335910
3549.8127 885.57544 4747.7822 9335911
3520.7637 871.42151 4671.8994 9271145
3555.1401 873.06439 4680.707 10060405
3471.4634 845.91498 4535.1528 12100245
3582.031 866.15192 4643.6479 10784385
3601.6514 864.25641 4633.4858 9929076
3635.3628 865.74548 4641.4692 10455419
3659.9231 865.04913 4637.7358 10652541
3662.7869 859.27332 4606.77 10323832
3686.4639 858.4295 4602.2461 10258293
3744.8452 865.62 4640.7964 10193012
3747.4768 859.91296 4610.1997 10060656
3804.8784 866.76544 4646.9375 11244927
3838.6831 868.18262 4654.5352 11310465
4048.667 909.14111 4874.1235 6705474
4073.6187 908.2641 4869.4219 6179133
4060.4172 898.95264 4819.5005 5586997
4102.0967 901.83661 4834.9619 7428686
4054.4033 885.16846 4745.6001 7033673
4083.3477 885.34644 4746.5542 7362381
4150.4722 893.74353 4791.5732 8480863
4260.106 911.11816 4884.7227 6178369
4240.1948 900.73901 4829.0776 984324
4177.7817 881.53107 4726.0991 983040
4162.8872 872.5387 4677.8892 1048576
4126.6943 859.23071 4606.542 983040
4107.5586 849.62592 4555.0483 983040
4072.4668 836.86749 4486.6475 917504
4116.2671 840.38147 4505.4863 6507583
4113.4189 834.38776 4473.3525 8415582
4103.105 826.966 4433.563 8679008
4163.5986 833.81885 4470.3027 7757904
4192.5264 834.30359 4472.9014 12495752
4133.8857 817.46576 4382.6299 13285262
4147.0986 814.95837 4369.1875 13484699
4132.9668 807.14191 4327.2812 14077626
0 0 0 0
0 0 0 0
0 0 0 0
0 0 0 0
0 0 0 0
0 0 0 0
0 0 0 0
0 0 0 0
0 0 0 0
-2213.6687 483.00037 2509.7415 16
-2196.6294 482.52454 2507.2693 16
-2308.1353 510.47159 2652.4861 16
-2174.4546 484.20407 2515.9963 270
-2257.4521 506.15662 2630.0649 270
-2145.9294 484.49658 2517.5161 14
-2228.1196 506.57498 2632.2388 14
-2212.3306 506.53149 2632.0129 14
-2211.6196 509.96417 2649.8496 14
-2193.687 509.44656 2647.1599 14
-2103.7925 492.08908 2556.968 16
-2160.2532 508.96152 2644.6396 16
-2134.8386 506.64957 2632.6262 17
-1996.6825 477.35022 2480.3826 17
-2104.3948 506.8324 2633.5764 18
-2085.4666 506.02652 2629.3889 19
-2082.8389 509.19354 2645.8452 19
-2062.3528 508.00967 2639.6936 19
-2029.6664 503.77948 2617.7129 19
-2009.8419 502.70114 2612.1096 19
-1908.3903 481.03094 2499.5083 19
-1989.142 505.30746 2625.6526 19
-1943.1583 497.51797 2585.1772 19
-1857.3444 479.32559 2490.647 19
-1923.6364 500.41037 2600.2065 18
-1907.3069 500.16907 2598.9526 21
-1924.0878 508.67731 2643.1628 21
-1890.8191 503.98495 2618.7805 21
-1872.6852 503.28232 2615.1296 21
-1866.8453 505.89954 2628.729 21
-1749.9589 478.2149 2484.8755 21
-1801.0242 496.34634 2579.0891 21
-1741.9952 484.18747 2515.9099 21
-1788.6608 501.4501 2605.6091 21
-1795.1826 507.66113 2637.8826 20
-1700.563 485.12811 2520.7976 21
-1659.3175 477.55695 2481.4568 21
-1647.4204 478.3725 2485.6946 22
-1627.7948 476.93829 2478.2422 21
-1614.3998 477.32019 2480.2266 21
-1609.1915 480.15186 2494.9402 23
-1586.9012 477.89182 2483.1968 23
-1589.468 483.14514 2510.4939 23
-1576.3573 483.68738 2513.3115 23
-1542.6769 477.86813 2483.0737 23
-1549.4926 484.60187 2518.0632 23
-1512.2205 477.54413 2481.3901 23
-1518.7909 484.32877 2516.644 23
-1498.9265 482.73453 2508.3601 23
-1477.4019 480.56824 2497.104 23
-1462.5693 480.5571 2497.0459 23
-1449.6129 481.16837 2500.2222 23
-1435.9478 481.55453 2502.229 23
-1433.3954 485.71451 2523.8447 23
-1414.4094 484.33481 2516.6755 23
-1401.5498 485.04593 2520.3706 23
-1381.4745 483.24823 2511.0295 23
-1370.8007 484.7359 2518.7598 23
-1358.9617 485.83981 2524.4956 23
-1330.8325 481.07962 2499.761 23
-1330.6047 486.41174 2527.4675 23
-1318.5356 487.4873 2533.0564 23
-1300.3837 486.31284 2526.9536 23
-1287.4049 487.06815 2530.8784 22
-1351.7865 517.45428 2688.7693 22
-1259.3845 487.83383 2534.8569 21
-1251.6395 490.68674 2549.6812 21
-1231.3467 488.63004 2538.9941 21
-1216.609 488.75412 2539.6389 21
-1202.2687 489.04297 2541.1399 21
-1193.3204 491.5603 2554.2202 21
-1180.0897 492.35553 2558.3525 22
-1175.5253 496.83432 2581.6248 23
-1162.4286 497.77753 2586.5259 23
-1151.2917 499.59641 2595.9771 23
-1139.6245 501.23123 2604.4719 23
-1124.6567 501.43939 2605.5535 23
-1112.8046 503.06183 2613.9839 23
-1097.7277 503.25171 2614.9705 23
-1085.1705 504.61868 2622.0735 23
-1070.6824 505.11444 2624.6497 23
-1054.1917 504.66614 2622.3201 23
-1042.9309 506.74557 2633.1252 23
-1034.076 510.07486 2650.4248 23
-1024.1145 512.95258 2665.3779 23
-1007.2388 512.4032 2662.5229 23
-994.44904 513.94788 2670.5496 23
-979.95593 514.64801 2674.1875 21
-978.90033 522.54425 2715.2173 19
-963.07379 522.68774 2715.9631 19
-947.19037 522.80469 2716.5708 21
-929.28162 521.78851 2711.2908 22
-921.74414 526.66248 2736.6165 24
-909.13934 528.76385 2747.5354 23
-893.1662 528.94696 2748.4871 23
-879.7334 530.66937 2757.4368 24
-860.34595 528.79706 2747.708 24
-852.23029 533.91412 2774.2971 25
-838.84814 535.86823 2784.4507 25
-821.50415 535.31903 2781.5972 25
-850.99628 565.89227 2940.4604 25
-839.97821 570.24237 2963.064 22
-836.89825 580.28229 3015.2329 23
-821.48761 582.02393 3024.2827 23
-804.08026 582.39709 3026.2219 23
-780.37811 578.12396 3004.0178 23
-769.57251 583.42841 3031.5806 23
-750.4187 582.50623 3026.7886 23
-707.53296 562.66595 2923.696 23
-694.13184 565.86603 2940.3237 24
-670.50354 560.67871 2913.3699 25
-688.44495 590.89685 3070.3877 25
-633.98126 558.92273 2904.2456 25
-617.0979 559.21985 2905.7893 25
-601.68927 560.90875 2914.5652 27
-625.54065 600.3783 3119.6545 27
-607.16119 600.48541 3120.2112 27
-588.45471 600.26556 3119.0691 27
-575.80609 606.41138 3151.0037 27
-553.48022 602.43604 3130.3469 27
-540.63696 608.86414 3163.7485 27
-521.8772 608.85162 3163.6836 25
-508.02527 614.77734 3194.4744 24
-489.95853 615.86389 3200.1201 23
-466.96964 610.60181 3172.7776 23
-425.15158 579.24445 3009.8403 23
-408.47351 580.89252 3018.4038 23
-421.75891 627.25427 3259.3062 23
-398.51978 621.13861 3227.5283 23
-376.99051 617.20569 3207.0923 23
-358.48444 618.06744 3211.5701 23
-342.73746 624.04956 3242.6541 23
-324.59192 626.11566 3253.3899 23
-308.871 633.41504 3291.3184 23
-288.48685 631.49072 3281.3193 23
-269.77579 633.21527 3290.2805 23
-252.17957 638.02917 3315.2942 23
-233.12633 639.65869 3323.7615 21
-215.75797 646.63873 3360.0308 21
-192.37244 635.17078 3300.4417 21
-176.3291 648.09296 3367.5872 21
-155.08078 642.74109 3339.7783 21
-137.89633 655.13049 3404.155 21
-117.01244 651.17859 3383.6204 21
-95.933868 644.28448 3347.7979 21
-77.604134 657.06982 3414.2322 21
-57.17012 654.77301 3402.2976 21
-37.187462 657.95923 3418.8538 21
-17.047136 662.64441 3443.1985 19
3.3155708 654.27344 3399.7019 19
24.005232 669.39581 3478.2798 19
44.008171 660.2428 3430.7195 19
65.19162 668.98871 3476.1648 65554
85.775177 668.85669 3475.4785 14
132.20511 831.29584 4319.5366 262152
155.338 818.30719 4252.0454 2694179
181.14453 821.06311 4266.3657 6443600
204.26712 812.46857 4221.707 9008752
234.10071 829.52972 4310.3599 9008492
259.26419 828.31378 4304.041 9140076
283.19754 823.73743 4280.2617 9008747
311.76114 832.27435 4324.6211 9403505
336.72906 830.64459 4316.1528 8680037
359.99716 825.34778 4288.6294 9206638
390.38318 835.99237 4343.9404 9995897
414.29019 832.30359 4324.7729 10522241
440.7778 833.92712 4333.209 9666675
462.00281 825.96338 4291.8281 9732468
482.37445 817.38464 4247.252 9403502
511.18872 823.25342 4277.7471 9206380
543.07098 833.27502 4329.8208 9534834
572.32745 838.54535 4357.2061 10258046
596.80896 836.66638 4347.4429 9665908
619.91608 833.09601 4328.8906 9534579
658.07306 849.23108 4412.7305 10520446
670.01813 831.59949 4321.1143 9596262
707.65717 845.98242 4395.8501 9001815
726.30487 837.44641 4351.4961 8013632
749.76477 834.85425 4338.0269 7552310
774.61945 833.93555 4333.2529 7684411
795.50348 828.93823 4307.2861 8737614
828.08087 836.05768 4344.2798 11041396
847.83148 830.18787 4313.7793 10581358
859.31323 816.80194 4244.2241 10648179
895.77826 827.24939 4298.5103 10517622
925.29419 830.87897 4317.3706 9927025
950.55426 830.59442 4315.8921 9928053
981.95392 835.54901 4341.6367 10060409
1008.4246 836.16357 4344.8301 9534576
1036.1261 837.74286 4353.0361 9402733
1062.8965 838.51068 4357.0259 9929077
1086.7148 836.96857 4349.0127 9731442
1115.8899 839.52789 4362.3115 9863028
1136.4099 835.60724 4341.9395 9731442
1169.5122 840.90723 4369.479 9665649
1199.5669 843.8338 4384.6855 9797237
1220.7955 840.55908 4367.6699 9731956
1254.0999 845.56238 4393.6675 9995126
1282.3854 847.047 4401.3818 9929333
1312.5028 849.65839 4414.9512 9797748
1330.2446 844.31287 4387.1748 9534318
1358.5432 845.74414 4394.6123 9533291
1388.7184 848.26807 4407.7266 9532777
1404.6631 842.16675 4376.0234 9664363
1439.901 847.64423 4404.4854 9598313
1467.1023 848.27985 4407.7881 9532517
1489.778 846.32245 4397.6167 9466724
1514.2063 845.41071 4392.8794 9532003
1541.9431 846.34576 4397.7383 9532257
1566.3846 845.47119 4393.1938 9268317
1586.2224 842.18085 4376.0967 9465952
1615.7726 844.07007 4385.9136 9729381
1644.0588 845.24957 4392.0425 9861481
1664.2955 842.31854 4376.812 9730409
1685.1443 839.78235 4363.6338 9401189
1710.1791 839.37744 4361.5298 9796717
1748.2992 845.31134 4392.3633 9599083
1778.6414 847.36572 4403.0381 9204838
1801.6218 845.90417 4395.4434 9533803
1828.9542 846.49847 4398.5317 9204838
1854.9855 846.48236 4398.4478 9007202
1892.7266 851.73608 4425.7471 8283223
1912.6606 848.94257 4411.2314 8348502
1940.6335 849.74426 4415.3975 9006430
1969.5092 850.91467 4421.479 9269346
1993.0173 849.76593 4415.5098 9006431
2015.3749 848.1626 4407.1787 9269604
2036.2629 845.98981 4395.8887 8677724
2062.2517 845.96423 4395.7559 8874847
2078.4924 841.99048 4375.1074 8480348
2091.1189 836.66864 4347.4541 7164234
2124.0166 839.48804 4362.1045 983040
2077.2996 811.15155 4214.8638 1507328
2075.0886 800.66077 4160.3521 983040
2065.4548 787.58594 4092.4133 3810340
2132.145 803.58014 4175.522 458752
2089.8379 778.59894 4045.7158 6573891
2129.0564 784.2135 4074.8894 11772305
2161.2024 787.1261 4090.0239 9731180
2346.0557 844.97449 4390.6128 8020563
2349.2522 836.84448 4348.3682 7427912
2382.5569 839.49951 4362.1641 6901568
2422.8477 844.53278 4388.3179 7691083
2448.7634 844.50159 4388.1558 8940894
2497.2915 852.1875 4428.0928 8743772
2517.6445 850.19891 4417.7598 8546391
2592.3479 866.4162 4502.0269 8677720
2618.9021 866.37457 4501.811 9269857
2637.7161 863.79901 4488.4277 9270114
2658.728 861.98755 4479.0151 9138527
2666.3074 855.8999 4447.3828 8940892
2714.2329 862.75598 4483.0083 9138016
2718.3777 855.69788 4446.333 9664359
2785.3938 868.37592 4512.21 10914681
2832.7422 874.73962 4545.2769 11572867
2890.7219 884.23547 4594.6187 12099210
2973.2761 901.00092 4681.7344 12164747
2979.9268 894.66772 4648.8262 13085848
3030.9263 901.64343 4685.0732 13283226
3044.3071 897.40344 4663.0415 13546399
3097.4744 904.86237 4701.7993 13743778
3111.481 900.85034 4680.9521 13283485
3123.7993 896.42474 4657.9561 11243390
3127.1316 889.52063 4622.0811 8414293
3147.7429 887.6087 4612.1465 8283220
3161.7134 883.87323 4592.7363 8217428
3201.8237 887.44684 4611.3052 8481111
3154.2981 866.87537 4504.4131 8415574
3257.0715 887.60834 4612.1445 10258800
3256.219 879.99115 4572.5649 10654838
3302.2979 885.07849 4598.999 11772294
3315.7449 881.40808 4579.9272 10982780
3364.1716 887.0202 4609.0889 9731945
3329.8684 870.9046 4525.3496 8809564
3391.7241 879.99518 4572.5854 6967107
3379.3091 869.82458 4519.7378 7953745
3477.97 888.17981 4615.1143 12099217
3431.3726 869.44287 4517.7544 12099730
3417.4075 859.20056 4464.5337 12428952
3497.0698 872.47455 4533.5068 12363417
3540.8499 876.66193 4555.2656 10981764
3525.7891 866.32831 4501.5703 10981763
3537.7141 862.73059 4482.8765 9929075
3581.3962 866.87354 4504.4033 9797744
3574.8469 858.88654 4462.9019 10192501
3640.8394 868.31763 4511.9072 10192755
3654.3757 865.19196 4495.6655 10586996
3702.2 870.17053 4521.5352 11047804
3746.1731 874.17896 4542.3638 11442304
3807.5984 882.17371 4583.9053 11836549
3915.0876 900.65192 4679.9209 10586230
3946.4575 901.48242 4684.2363 10717561
4018.5115 911.52972 4736.4438 10586235
3975.3079 895.47491 4653.0205 9401706
4008.9163 896.82471 4660.0342 6441281
4022.8577 893.78638 4644.2466 7691349
4055.0603 894.81909 4649.6128 7954778
4099.2944 898.47485 4668.6089 7823450
4116.9023 896.28485 4657.229 8744548
3990.3044 862.93829 4483.9556 6310724
4073.3772 875.07605 4547.0249 2691857
4113.8213 877.95667 4561.9932 1313032
4081.1204 865.2912 4496.1816 721152
4134.5996 870.94373 4525.5527 4073764
4179.3872 874.70416 4545.0928 4601388
4144.0928 861.76361 4477.8516 7101265
4053.7324 837.60956 4352.3438 9009004
4137.2744 849.46667 4413.9546 12167558
4042.9194 824.8783 4286.1899 13089163
4022.2703 815.54132 4237.6738 13419417
3943.4841 794.60583 4128.8896 13879975
0 0 0 0
0 0 0 0
0 0 0 0
0 0 0 0
0 0 0 0
0 0 0 0
0 0 0 0
0 0 0 0
0 0 0 0
-2220.8474 499.48819 2517.8804 16
-2150.4546 486.92783 2454.5647 16
-2166.6626 493.93893 2489.9072 16
-2137.3999 490.60907 2473.1216 16
-2113.4492 488.46094 2462.293 13
-2105.7874 490.07379 2470.4233 14
-2221.2087 520.55457 2624.0745 16
-2222.8889 524.62122 2644.574 16
-2172.0798 516.26978 2602.4751 15
-2173.0847 520.20233 2622.2988 15
-2134.2195 514.57849 2593.9492 16
-2127.9128 516.78009 2605.0476 16
-2114.3691 517.24353 2607.3838 16
-1992.644 491.05426 2475.3657 16
-1971.5096 489.44928 2467.2751 19
-1953.5841 488.62296 2463.1096 19
-2044.7341 515.27106 2597.4407 19
-2011.4662 510.73245 2574.5618 19
-1937.1165 495.61356 2498.3489 19
-1919.944 495.00339 2495.2729 19
-1995.7573 518.54358 2613.937 21
-1879.1635 492.06918 2480.4817 21
-1935.5474 510.82959 2575.0515 21
-1952.8728 519.49799 2618.748 21
-1925.182 516.23419 2602.2957 21
-1817.8918 491.40091 2477.113 21
-1801.1621 490.84225 2474.2971 21
-1864.9573 512.3988 2582.9619 21
-1777.0367 492.28311 2481.5603 21
-1844.8191 515.3252 2597.7134 21
-1738.0917 489.59796 2468.0244 21
-1729.7755 491.39044 2477.0603 21
-1812.053 519.16949 2617.0923 21
-1801.0773 520.47968 2623.6968 20
-1787.0007 520.90875 2625.8599 20
-1658.921 487.82166 2459.0703 21
-1644.811 487.95901 2459.7629 20
-1635.7131 489.59906 2468.03 20
-1616.202 488.12366 2460.5928 21
-1606.2736 489.54193 2467.7422 21
-1589.4658 488.87033 2464.3567 23
-1576.2817 489.31128 2466.5793 23
-1581.45 495.51068 2497.8301 23
-1558.9993 493.09167 2485.6362 23
-1554.3633 496.31488 2501.884 23
-1597.4781 514.99402 2596.0442 23
-1558.0247 507.15927 2556.5498 23
-1486.8306 488.73721 2463.6855 23
-1495.6068 496.49753 2502.8049 23
-1484.3552 497.69812 2508.8567 23
-1457.9717 493.79791 2489.1963 23
-1442.0527 493.39847 2487.1826 23
-1440.4152 497.92761 2510.0137 23
-1417.348 495.06616 2495.5894 23
-1405.8424 496.22522 2501.4321 23
-1394.9082 497.61282 2508.427 23
-1383.4193 498.83038 2514.5645 23
-1370.1414 499.4223 2517.5483 23
-1357.2205 500.15887 2521.2612 23
-1344.7399 501.07581 2525.8835 23
-1333.8337 502.60672 2533.6008 23
-1316.0743 501.5607 2528.3279 23
-1306.8198 503.76913 2539.4604 23
-1289.8121 503.00549 2535.6108 20
-1272.9861 502.29541 2532.0315 21
-1266.4254 505.6673 2549.0288 21
-1250.1652 505.20084 2546.6775 21
-1234.2059 504.84619 2544.8896 21
-1227.576 508.34607 2562.5325 21
-1221.1862 512.03424 2581.1243 21
-1272.118 540.15552 2722.8811 21
-1175.3463 505.47696 2548.0693 22
-1242.031 541.10779 2727.6814 23
-1148.6587 507.02768 2555.8865 23
-1155.8353 517.01306 2606.2219 23
-1201.1903 544.57764 2745.1729 23
-1195.6005 549.48547 2769.9128 23
-1173.7581 546.95642 2757.1641 23
-1163.1859 549.68188 2770.9028 23
-1083.811 519.50604 2618.7888 23
-1074.1973 522.37799 2633.2659 23
-1059.9707 523.05829 2636.6953 23
-1047.1477 524.46198 2643.7715 23
-1032.1259 524.79034 2645.4265 23
-1009.1539 521.02417 2626.4414 23
-1003.729 526.34137 2653.2454 21
-995.03363 530.08557 2672.1194 21
-978.54797 529.73364 2670.3455 19
-970.16675 533.82959 2690.9927 19
-958.76849 536.37457 2703.8218 19
-949.79327 540.38464 2724.0361 19
-937.05096 542.35303 2733.9587 21
-908.83801 535.27893 2698.2988 22
-905.88605 543.09589 2737.7034 23
-896.02893 546.98267 2757.2964 23
-871.61328 541.96149 2731.9851 23
-867.66095 549.71503 2771.0701 23
-846.49316 546.65027 2755.6208 23
-841.35468 554.02002 2792.771 23
-825.3089 554.35901 2794.48 23
-810.54559 555.591 2800.6904 23
-796.60168 557.44794 2810.051 23
-787.9361 563.15674 2838.8286 23
-774.9187 565.9364 2852.8406 23
-754.18726 563.08075 2838.4453 23
-736.8598 562.69415 2836.4966 23
-728.33344 569.1673 2869.1272 23
-710.34924 568.3822 2865.1699 23
-696.08801 570.6106 2876.4028 23
-715.22046 601.01208 3029.6545 23
-666.3114 574.33057 2895.155 23
-653.18323 577.89526 2913.1245 25
-633.50916 575.70496 2902.083 25
-617.09521 576.43774 2905.7769 25
-602.42834 578.8913 2918.1453 27
-587.22815 580.96228 2928.585 27
-574.2417 585.41626 2951.0371 27
-554.93793 583.50757 2941.4153 27
-543.164 589.64935 2972.3755 27
-526.1944 590.37329 2976.0251 27
-540.54053 627.50128 3163.1843 25
-526.01581 632.57733 3188.7722 24
-508.19009 633.91412 3195.511 23
-489.75653 634.56671 3198.8008 23
-468.27747 631.16711 3181.6636 23
-446.52716 627.10126 3161.1677 23
-432.32092 633.73816 3194.6238 23
-418.1886 641.09619 3231.7153 23
-402.52267 646.69666 3259.9468 23
-378.85822 639.36353 3222.981 23
-356.44678 633.47852 3193.3152 23
-318.30945 597.41852 3011.5396 23
-321.29111 638.83289 3220.3059 23
-302.02875 638.4563 3218.4077 23
-267.89294 604.46875 3047.0791 23
-269.60626 652.30396 3288.2129 23
-250.96054 654.49713 3299.2683 23
-231.99544 656.15753 3307.6382 21
-206.73085 638.66309 3219.4502 21
-190.92621 649.80774 3275.6294 21
-175.50487 664.92719 3351.8455 21
-153.54271 655.96246 3306.6548 21
-125.17887 613.02441 3090.2078 22
-115.6419 663.36865 3343.9888 21
-96.536903 668.29889 3368.8418 21
-70.043755 611.31879 3081.6096 21
-56.373631 665.53253 3354.897 21
-36.796745 671.09418 3382.9329 21
-16.898172 677.08075 3413.1104 19
3.314302 674.16272 3398.4009 19
23.532318 676.41534 3409.7561 19
44.073128 681.57855 3435.7834 19
79.252739 838.32611 4225.9355 18
85.221611 685.00354 3453.0486 65554
106.46192 690.03851 3478.4294 65551
153.93295 835.87616 4213.5854 262154
179.8022 840.07483 4234.7505 1904664
202.64043 830.81775 4188.0869 5785414
228.76733 835.59326 4212.1597 8284772
253.21957 833.91394 4203.6943 8678758
277.01517 830.56677 4186.8213 7888982
302.52948 832.49933 4196.5635 8546655
327.15604 831.88104 4193.4468 8941155
353.43573 835.25677 4210.4634 9137507
374.52911 826.73895 4167.5259 9531495
404.509 837.67786 4222.6675 10320496
429.45139 837.51776 4221.8608 9398880
450.95581 831.03973 4189.2056 8015173
461.0701 805.34283 4059.6694 8146502
499.41281 829.05554 4179.2036 7950151
522.59015 826.54156 4166.5308 8346449
549.48004 829.86127 4183.2651 9334887
576.20428 832.65509 4197.3486 9665133
609.82806 844.77539 4258.4458 9928051
635.39001 845.20837 4260.6284 10060149
649.72546 831.2453 4190.2417 10586496
674.50183 831.17639 4189.8945 10784131
695.31201 826.3985 4165.8096 10060153
724.42163 831.47412 4191.395 9402479
752.57159 835.14825 4209.9165 9730674
769.8031 826.85889 4168.1304 9927538
794.63605 826.99603 4168.8213 9795696
823.10016 830.78992 4187.9463 9928051
852.61096 835.38727 4211.1211 10190967
877.92163 835.72498 4212.8232 10125687
903.14575 835.96368 4214.0269 9599600
931.63367 839.12946 4229.9854 9665649
959.59271 841.66534 4242.7686 9731699
984.76282 841.68805 4242.8828 9599856
1011.4153 842.94513 4249.2197 9402734
1047.923 852.15509 4295.6465 9665906
1064.6848 845.25208 4260.8491 9731699
1091.8196 846.7132 4268.2144 9534319
1116.5909 846.31677 4266.2158 9271148
1147.1479 850.22601 4285.9224 9600113
1169.9038 848.30939 4276.2603 9929079
1195.6892 848.62402 4277.8467 9665906
1222.0419 849.31976 4281.354 9468784
1256.9363 855.80316 4314.0361 9599856
1283.4215 856.41663 4317.1284 9600113
1298.9039 849.8075 4283.8125 9665904
1326.8124 851.42572 4291.9697 9665391
1356.2277 853.93176 4304.6025 9665391
1380.8484 853.3822 4301.832 9532778
1406.9912 853.77618 4303.8184 9599082
1435.4077 855.51117 4312.5645 9401703
1465.7523 858.31464 4326.6963 9730412
1477.3524 850.23401 4285.9624 9598570
1502.4235 850.04816 4285.0254 9006431
1532.0007 852.37567 4296.7583 9269603
1560.2881 853.92102 4304.5483 9335396
1592.4359 857.49554 4322.5674 8677466
1609.3359 852.87634 4299.2822 8545880
1630.3435 850.54382 4287.5239 9861740
1637.3483 841.08997 4239.8677 10717051
1669.51 844.64929 4257.8101 9598570
1675.4136 835.01575 4209.2485 9795949
1701.3527 835.50403 4211.7095 10848638
1737.7344 841.03217 4239.5767 10848637
1772.3718 845.57056 4262.4541 9598313
1819.8959 856.04297 4315.2451 8677980
1861.4817 863.47064 4352.6875 8546395
1872.1272 856.53955 4317.748 8612188
1895.7517 855.65332 4313.2808 8743771
1928.1785 858.71082 4328.6934 8808795
1952.9298 858.31464 4326.6963 8809565
1977.8624 858.00732 4325.147 8743517
2004.5372 858.45404 4327.3989 8612188
2016.0997 852.49927 4297.3813 8546395
2027.4993 846.62494 4267.7695 8349019
2088.0249 861.15649 4341.0215 3942950
2056.0845 837.66272 4222.5918 720896
2055.668 827.42291 4170.9731 786432
2059.6699 819.18353 4129.4395 786432
2069.9734 813.61444 4101.3662 655360
2060.0923 800.33313 4034.416 589824
2058.9832 790.72534 3985.9841 1642767
2076.0947 788.2536 3973.5239 11640718
2104.3008 790.00226 3982.3391 9928557
2217.7168 823.34723 4150.4282 6705214
2257.3813 828.88007 4178.3188 7099716
2321.4536 843.15784 4250.292 7493704
2315.4207 831.93994 4193.7437 8349012
2351.6636 835.98889 4214.1538 8809563
2455.0139 863.55804 4353.1279 9138527
2479.7917 863.20306 4351.3384 9006941
2531.2349 872.04199 4395.8945 8677720
2569.3225 876.14648 4416.585 8612184
2597.6245 876.86493 4420.2065 7690568
2622.8215 876.53137 4418.5254 6901054
2634.2537 871.64978 4393.9175 7822156
2658.8372 871.17279 4391.5132 8611415
2676.8948 868.58746 4378.481 8677463
2706.7266 869.83569 4384.7729 9401443
2731.6672 869.50323 4383.0972 9598822
2787.1265 878.79974 4429.96 10585716
2807.1963 876.86835 4420.2241 11638146
2871.4534 888.64764 4479.6025 10848631
2872.8103 880.92328 4440.6646 11111800
2927.6113 889.57861 4484.2954 11177850
3008.9844 906.07965 4567.4761 12888981
2977.386 888.57129 4479.2178 13614760
3055.1177 903.71252 4555.5435 14075570
3083.4131 904.0932 4557.4624 13416610
3056.0952 888.30243 4477.8623 12099210
2994.3745 862.86987 4349.6587 9861737
3041.0398 868.83765 4379.7422 9204838
2994.5615 848.31824 4276.3052 2694419
3167.5906 889.80481 4485.4355 9732717
3134.5469 873.19482 4401.7061 14535856
3128.6165 864.34985 4357.1191 13155226
3149.0781 862.88129 4349.7163 12629141
3158.1274 858.33484 4326.7979 12169619
3153.8223 850.26123 4286.0996 12498843
3243.1758 867.36511 4372.3188 13878705
3308.8838 877.92413 4425.5459 11509648
3296.8916 867.86346 4374.8311 5915964
3435.021 897.16907 4522.5581 9073254
3429.6311 888.82623 4480.5029 9665646
3435.6133 883.53619 4453.8359 10125427
3468.4067 885.16931 4462.0684 10849408
3467.1677 878.15802 4426.7251 10718076
3456.4204 868.86182 4379.8638 9928560
3490.0386 870.7735 4389.5005 11507079
3515.823 870.71692 4389.2153 9401700
3596.071 884.05035 4456.4277 9533542
3675.6304 897.02136 4521.8135 10519921
3674.7427 890.31378 4488.0015 10323310
3661.1287 880.64148 4439.2441 11178620
3644.6912 870.43292 4387.7837 12034178
3666.8196 869.51422 4383.1523 9072224
3840.2703 904.23914 4558.1978 10388341
3897.5522 911.31647 4593.8745 10717051
3900.9392 905.78162 4565.9731 10717823
3966.1797 914.58618 4610.3564 10651517
3991.3672 914.09729 4607.8921 10190966
3964.3137 901.73224 4545.561 9993330
3965.3948 895.89056 4516.1133 8282967
4066.5437 912.5835 4600.2612 7756625
4076.8147 908.79584 4581.168 7888213
4110.1841 910.1734 4588.1118 7165771
4055.9114 892.2525 4497.7744 7494223
4015.7625 877.65234 4424.1763 6968392
4094.3438 889.02216 4481.4902 6244669
4141.5024 893.46649 4503.8936 6113082
3983.4204 853.85974 4304.2393 6705986
4034.5415 859.315 4331.7388 6705987
4033.4084 853.64215 4303.1426 10324593
3952.2131 831.20245 4190.0259 13085570
3862.2144 807.203 4069.0464 13085827
3762.6509 781.51471 3939.5542 11834741
0 0 0 0
0 0 0 0
0 0 0 0
0 0 0 0
0 0 0 0
0 0 0 0
0 0 0 0
0 0 0 0
0 0 0 0
-2228.366 516.15118 2526.4045 16
-2329.3298 543.18677 2658.7356 16
-2289.3516 537.49988 2630.8999 16
-2270.158 536.64832 2626.7319 16
-2261.6553 538.32977 2634.9619 16
-2256.0266 540.72333 2646.6777 15
-2097.9277 506.35056 2478.4336 15
-2104.8081 511.59296 2504.0933 15
-2189.9124 536.05768 2623.8411 18
-2170.6152 535.13379 2619.3186 18
-2060.989 511.76682 2504.9443 18
-2032.9647 508.47043 2488.8096 18
-1999.231 503.68747 2465.3984 18
-1997.2661 506.89685 2481.1074 18
-2088.8118 534.06244 2614.0747 19
-2091.6482 538.78351 2637.1831 19
-2063.6089 535.56256 2621.4175 19
-1916.7167 501.2132 2453.2876 19
-2000.8364 527.20917 2580.53 19
-1913.1859 507.99649 2486.4897 19
-1989.0494 532.23938 2605.1514 21
-1880.7926 507.20837 2482.6323 21
-1872.6093 508.98309 2491.3188 21
-1955.7457 535.80432 2622.6006 21
-1925.2041 531.66205 2602.3254 21
-1888.1711 525.64575 2572.8777 22
-1793.2269 503.27847 2463.3965 22
-1789.412 506.32977 2478.3318 22
-1772.2657 505.6282 2474.8977 21
-1848.5734 531.79987 2603 21
-1835.6846 532.53589 2606.6025 21
-1806.2769 528.45154 2586.6111 21
-1802.9043 531.97943 2603.8792 20
-1796.5275 534.67413 2617.0688 23
-1754.4108 526.6864 2577.9714 23
-1672.7598 506.58563 2479.584 23
-1657.2983 506.35132 2478.437 23
-1646.2618 507.47684 2483.9463 21
-1624.0858 505.15784 2472.5955 22
-1615.1 506.93665 2481.3022 22
-1602.7805 507.6922 2485.0005 23
-1588.209 507.74179 2485.2432 23
-1569.2963 506.39148 2478.6338 23
-1550.484 505.04837 2472.0596 23
-1547.2446 508.80063 2490.4258 23
-1533.4069 509.10645 2491.9226 23
-1509.052 505.89246 2476.1912 23
-1508.8939 510.80667 2500.2446 23
-1486.6951 508.28287 2487.8916 23
-1470.394 507.74512 2485.2595 23
-1478.1936 515.60297 2523.7212 23
-1467.7439 517.19092 2531.4937 23
-1437.7865 511.86667 2505.4331 23
-1420.2347 510.89398 2500.6721 23
-1416.0994 514.77789 2519.6826 23
-1396.0415 512.89471 2510.4651 23
-1381.7684 513.1192 2511.564 23
-1364.5433 512.24036 2507.2622 23
-1355.0049 514.25946 2517.1453 23
-1340.3038 514.34241 2517.5513 23
-1324.2928 513.91882 2515.478 23
-1313.2712 515.44397 2522.9429 23
-1286.5236 510.76074 2500.02 23
-1280.1364 514.14587 2516.5894 20
-1264.0782 513.68085 2514.3132 21
-1253.1406 515.31042 2522.2893 21
-1239.9889 516.05786 2525.9478 21
-1225.5281 516.27203 2526.9961 21
-1219.3628 520.02942 2545.3875 21
-1204.6494 520.1897 2546.1719 21
-1184.6101 518.02502 2535.5764 21
-1176.8409 521.23932 2551.3096 23
-1153.1852 517.4093 2532.5627 22
-1142.9281 519.56934 2543.1353 22
-1134.3405 522.55609 2557.7546 21
-1115.5598 520.86456 2549.4751 21
-1101.046 521.14612 2550.8533 23
-1094.7231 525.36646 2571.5105 23
-1078.5623 524.91797 2569.3152 23
-1059.691 523.11859 2560.5081 23
-1050.1555 525.94257 2574.3306 23
-1030.431 523.67163 2563.2148 23
-1031.0116 531.8064 2603.032 23
-1011.7454 529.79553 2593.1897 23
-1000.785 532.1391 2604.6604 20
-998.80389 539.40521 2640.2261 21
-979.53528 537.41797 2630.4993 21
-992.79529 553.50177 2709.2246 19
-978.41791 554.45276 2713.8792 19
-964.24469 555.55316 2719.2651 19
-943.32129 552.7356 2705.4741 19
-991.92108 591.2619 2894.0488 21
-934.52185 566.84857 2774.553 22
-921.45587 568.93335 2784.7573 23
-912.8111 573.87384 2808.9395 23
-888.68945 569.08685 2785.5088 23
-873.99469 570.26965 2791.2981 23
-866.83038 576.50641 2821.8252 23
-859.23749 582.69788 2852.1306 23
-843.46552 583.4798 2855.958 23
-827.21545 583.9563 2858.2903 23
-808.39825 582.60254 2851.6641 23
-793.12421 583.79907 2857.5208 23
-783.58698 589.36267 2884.7527 23
-764.83771 588.09113 2878.5291 23
-754.49084 593.36975 2904.3662 23
-742.23895 597.36163 2923.9053 23
-726.56427 598.72382 2930.5725 23
-743.15009 627.38788 3070.8745 23
-687.08527 594.61774 2910.4746 23
-724.3587 643.01678 3147.3733 23
-708.33398 645.41064 3159.0906 23
-647.25391 605.76703 2965.0471 23
-634.60986 610.50732 2988.2495 25
-615.6167 609.23651 2982.0293 25
-599.68872 611.01361 2990.7275 25
-584.56622 613.74463 3004.095 25
-572.77563 620.25537 3035.9631 24
-550.14484 615.06885 3010.5767 24
-536.34442 619.73804 3033.4312 25
-548.72498 656.03198 3211.0789 25
-535.52539 663.25238 3246.4207 22
-517.73688 665.11572 3255.541 23
-497.86438 664.34247 3251.7563 23
-449.66064 624.18005 3055.1733 23
-449.56317 650.22614 3182.6611 23
-443.27936 669.21399 3275.6008 23
-420.69205 664.20056 3251.0618 23
-406.39069 672.41589 3291.2732 23
-387.59265 673.64423 3297.2856 23
-366.72916 671.2226 3285.4324 23
-337.59735 652.54749 3194.0232 23
-325.64066 666.82379 3263.9014 23
-310.48819 675.9458 3308.5513 23
-291.14929 676.56921 3311.6023 23
-262.02045 652.88873 3195.6936 23
-254.20418 682.76123 3341.9106 23
-235.78471 686.79669 3361.6631 21
-215.01482 684.09882 3348.4575 21
-197.37221 691.81384 3386.2202 21
-177.14696 691.19818 3383.2068 21
-157.97447 695.05731 3402.0962 21
-135.96461 685.73535 3356.468 21
-118.43915 699.7113 3424.876 21
-98.203918 700.14844 3427.0156 21
-77.208527 693.98083 3396.8271 21
-56.863693 691.3728 3384.0618 21
-37.116402 697.14624 3412.3208 21
-16.963961 700.02234 3426.3984 21
3.3402803 699.74445 3425.0381 21
23.847002 705.93781 3455.3528 21
44.061962 701.76184 3434.9128 21
65.617767 714.83209 3498.8877 19
85.252037 705.71899 3454.2817 18
105.90283 706.92035 3460.1621 18
128.11653 716.47235 3506.9163 65553
181.87944 875.16602 4283.6743 196618
202.07153 853.23523 4176.3296 1510417
223.28636 839.93768 4111.2417 5585981
241.98161 820.71106 4017.1333 6438456
264.87039 817.87762 4003.2646 7948867
291.78256 826.91241 4047.4871 8606282
318.48715 834.03088 4082.3298 8935248
340.81424 829.49023 4060.1045 8474442
365.34937 830.56787 4065.3794 7883075
385.23688 821.60022 4021.4856 10253420
412.42688 828.3443 4054.4961 9859946
435.40417 826.35052 4044.7371 9400164
461.58987 830.33624 4064.2461 9663850
486.81619 832.28656 4073.792 9861742
516.50446 841.3205 4118.0103 9730669
539.76678 839.54443 4109.3169 9336426
566.05133 842.41943 4123.3896 9402730
585.34595 835.08447 4087.4868 9271145
614.62799 842.01471 4121.4082 9665904
636.10181 838.12701 4102.3794 9665904
659.74115 837.27393 4098.2036 9797490
688.51801 842.76984 4125.1045 9468012
710.78925 840.19885 4112.5205 9862771
734.56006 839.51221 4109.1592 8349789
768.12433 849.70306 4159.0405 9270891
786.97888 843.49432 4128.6504 9863029
818.61469 850.94598 4165.124 9994358
843.2981 850.94598 4165.124 9994358
870.3645 853.2821 4176.5591 9928822
895.34332 853.49915 4177.6211 9007719
921.05939 854.38837 4181.9736 8744547
939.40704 848.57501 4153.519 8941670
978.67273 861.4715 4216.6436 9336941
998.52887 857.0661 4195.0801 8941927
1028.396 861.25861 4215.6016 9205354
1047.871 856.75562 4193.5605 9336941
1068.9977 853.7804 4178.9976 9599856
1100.3534 858.9245 4204.1768 9468527
1124.5397 858.36835 4201.4546 9665651
1145.6023 855.5036 4187.4326 9862774
1169.7128 854.98822 4184.9097 9797235
1197.9451 857.44446 4196.9321 9534320
1221.7872 856.72235 4193.3979 9139562
1245.4772 855.92456 4189.4927 9205099
1251.1339 843.00714 4126.2661 9600111
1291.5995 853.58942 4178.063 9204841
1323.6855 858.33997 4201.3154 9204841
1339.7535 852.71997 4173.8071 9532778
1369.2981 855.72577 4188.5195 9335911
1401.736 860.40033 4211.4004 9401704
1416.2427 854.09772 4180.5508 9466984
1458.7545 864.61041 4232.0078 9466983
1470.443 856.80743 4193.8145 9795946
1499.444 859.18408 4205.4473 9795947
1523.2257 858.54114 4202.3003 9532518
1553.9514 861.7699 4218.104 9466725
1583.2555 864.12042 4229.6089 9006174
1588.8348 853.65076 4178.3633 9072481
1607.7131 850.53821 4163.1279 9072226
1634.4019 851.58917 4168.2725 8216917
1645.1914 844.44818 4133.3193 10322292
1670.934 845.0791 4136.4077 11046016
1695.0846 844.89838 4135.5229 11374981
1715.0283 842.65582 4124.5464 10782586
1741.5448 843.66028 4129.4629 10717050
1795.2976 857.64825 4197.9297 10651256
1824.0214 859.46039 4206.7998 9137760
1870.9659 869.69336 4256.8872 8940894
1884.5415 864.34943 4230.73 8874589
1893.6698 857.13269 4195.4062 8809565
1918.9297 857.31006 4196.2744 8348759
1960.2791 864.57916 4231.8545 7493707
1965.1298 855.7702 4188.7373 7954002
1976.8479 850.13428 4161.1514 8283738
2071.9556 880.05676 4307.6128 8218205
2049.9956 860.13208 4210.0874 7232855
2015.1938 835.36298 4088.8503 590595
2052.1921 840.59241 4114.4468 720896
2062.5715 834.92371 4086.7002 786432
2065.4573 826.38861 4044.9231 655360
2021.7086 799.60468 3913.8242 8417887
2103.0244 822.3316 4025.0657 11442568
2097.8364 811.10321 3970.1057 10455413
2187.2976 836.31274 4093.499 8480598
2211.7229 836.37573 4093.8071 6769981
2268.802 848.65149 4153.8936 6177586
2308.0168 854.05328 4180.3335 8875870
2336.6455 855.4646 4187.2417 8941664
2386.689 864.60425 4231.9771 8743516
2416.3391 866.24274 4239.9971 8743772
2421.342 859.10248 4205.0479 8941151
2466.7163 866.28577 4240.208 8546649
2488.2712 865.04352 4234.1274 8612442
2474.6465 851.71796 4168.9028 8677979
2560.3916 872.51868 4270.7163 8283221
2585.8638 872.57367 4270.9854 7954256
2616.1084 874.22247 4279.0557 8217428
2622.6704 868.0014 4248.6055 7888205
2656.9731 870.99261 4263.2466 7559240
2669.843 866.96765 4243.5454 7164482
2751.8406 885.25586 4333.061 8216912
2767.8274 882.16687 4317.9409 9335137
2784.4846 879.34625 4304.1348 9729894
2831.5693 886.09863 4337.1855 10453873
2890.2517 896.32605 4387.2461 10848886
2967.5327 912.08771 4464.3945 10717043
3011.0996 917.30005 4489.9072 11967110
3019.7971 911.8916 4463.4346 13085079
3018.9241 903.71204 4423.3984 13479834
3038.7532 901.81726 4414.1235 12887697
2939.5168 864.92102 4233.5278 12690061
2998.7351 874.87817 4282.2651 6964792
2975.4194 860.7912 4213.3135 2757131
3067.8315 880.1402 4308.021 2625545
3103.4966 883.02374 4322.1353 5324339
3087.5442 871.29388 4264.7212 12366491
3072.4177 859.98578 4209.3711 14669244
3098.1536 860.20514 4210.4448 13946031
3105.8152 855.44275 4187.1348 13616041
3120.0979 852.56525 4173.0498 13484455
3177.5693 861.44128 4216.4956 13681325
3208.7278 863.10101 4224.6196 13680554
3235.4602 863.55383 4226.8359 7295051
3271.0215 866.33813 4240.4639 8151125
3377.259 887.65582 4344.8076 8217688
3392.1008 884.81085 4330.8828 9007204
3457.2444 895.03119 4380.9077 9928048
3465.6121 890.51013 4358.7788 10191216
3528.3337 899.91919 4404.8335 9862251
3555.7588 900.25372 4406.4707 10124652
3684.9282 926.15533 4533.2515 9400928
3585.5891 894.66534 4379.1172 9136985
3556.2961 880.97992 4312.1313 8084295
3649.042 897.5061 4393.022 10123623
3653.0305 892.12225 4366.6694 9598049
3732.7068 905.16815 4430.5254 9268829
3894.6448 937.84076 4590.4478 9136988
3877.3672 927.20374 4538.3828 7361347
3857.979 916.2121 4484.582 7032383
3912.7253 922.8562 4517.103 9006428
3884.4561 909.96301 4453.9946 11045757
3886.8618 904.38116 4426.6733 10190705
3987.2537 921.52039 4510.5649 7690570
4056.6677 931.31958 4558.5288 8151122
4009.8477 914.4809 4476.1084 8545626
4034.9907 914.16754 4474.5747 8678238
3959.8506 891.28638 4362.5781 8480860
3950.8486 883.49188 4324.4268 7691603
3943.439 876.15173 4288.499 7625556
3983.2717 879.33466 4304.0781 6704196
3982.5728 873.5863 4275.9419 4732207
3996.676 871.13702 4263.9536 7427408
3893.8733 843.39716 4128.1753 8348510
3786.5159 815.02338 3989.2942 3479575
3668.8242 784.79108 3841.3162 4006686
0 0 0 0
0 0 0 0
0 0 0 0
0 0 0 0
0 0 0 0
0 0 0 0
0 0 0 0
0 0 0 0
0 0 0 0
-2236.9785 533.17596 2536.1692 16
-2272.8899 545.39984 2594.3145 16
-2214.8369 535.08893 2545.2686 16
-2197.5596 534.55536 2542.7305 16
-2188.0371 535.91388 2549.1924 16
-2211.1631 545.34326 2594.0457 15
-2176.8975 540.65106 2571.7261 18
-2145.8394 536.69507 2552.9082 18
-2127.9375 535.99664 2549.5862 18
-2117.5552 537.1958 2555.2903 18
-2002.2045 511.59137 2433.4971 18
-1995.9166 513.68469 2443.4543 18
-1997.2633 517.78784 2462.9719 18
-1976.9979 516.30725 2455.9292 18
-2046.3304 538.37744 2560.9109 19
-1948.3245 516.42261 2456.478 19
-1933.2679 516.28943 2455.8445 19
-1932.0807 519.88611 2472.9529 19
-1985.5088 538.34607 2560.7617 20
-1900.1427 519.16815 2469.5378 21
-1870.1616 514.94269 2449.4385 21
-1859.9384 516.13391 2455.1047 20
-1848.9741 517.13666 2459.8745 22
-1914.579 539.74103 2567.3972 20
-1909.8108 542.70966 2581.5181 21
-1803.9169 516.75739 2458.0706 21
-1790.6492 517.13269 2459.8555 21
-1852.7644 539.46307 2566.075 21
-1837.6494 539.49011 2566.2036 21
-1822.5938 539.53516 2566.4177 21
-1804.2828 538.60919 2562.0134 21
-1805.3848 543.51178 2585.3335 21
-1783.65 541.56451 2576.0708 21
-1684.7916 515.96454 2454.2991 21
-1673.4753 516.96191 2459.0432 23
-1654.3821 515.55316 2452.3423 23
-1641.9696 516.21991 2455.5137 23
-1620.6364 514.06879 2445.2815 23
-1625.3477 520.21484 2474.5166 23
-1593.761 514.74933 2448.5188 23
-1577.0466 514.03101 2445.1018 23
-1658.7589 545.67859 2595.6404 23
-1648.814 547.48407 2604.2285 23
-1544.8043 517.79456 2463.0039 23
-1539.9902 521.10468 2478.7493 23
-1521.9514 519.96045 2473.3064 23
-1503.9304 518.80011 2467.7871 23
-1501.9539 523.20605 2488.7449 23
-1484.0968 522.11255 2483.5435 23
-1469.9525 522.31641 2484.5132 23
-1482.9486 532.26575 2531.8394 23
-1446.6688 524.55139 2495.1443 23
-1454.9819 533.01373 2535.3972 23
-1419.6707 525.5047 2499.679 23
-1419.5597 531.00446 2525.8396 23
-1399.0208 528.89856 2515.8225 23
-1388.4945 530.57343 2523.7896 23
-1366.5211 527.86298 2510.8965 23
-1356.1536 529.62524 2519.2793 23
-1341.4857 529.7287 2519.7712 23
-1324.9314 529.08112 2516.6909 23
-1306.6145 527.70697 2510.1545 23
-1291.9126 527.77795 2510.4922 23
-1279.4231 528.76501 2515.1873 20
-1266.6749 529.66711 2519.4783 21
-1253.1084 530.24445 2522.2246 21
-1237.814 530.09576 2521.5173 21
-1222.9811 530.14349 2521.7444 21
