# .PCD v0.7 - Point Cloud Data file format
VERSION 0.7
FIELDS x y z rgb
SIZE 4 4 4 4
TYPE F F F U
COUNT 1 1 1 1
WIDTH 1407
HEIGHT 1
VIEWPOINT 0 0 0 1 0 0 0
POINTS 1407
DATA ascii
2798.418 698.29077 3321.574 5981237
2797.6426 693.22113 3297.4592 11179137
2831.2056 696.67139 3313.8711 10587256
2819.4087 688.98938 3277.3298 10192497
2849.6965 691.62646 3289.8738 8414805
2959.5815 713.41486 3393.5151 7625288
2990.8271 716.08081 3406.1963 7361606
3027.7271 720.05579 3425.104 6835260
3096.0908 731.41077 3479.1165 7559239
3089.0818 724.92737 3448.2769 7164224
3118.24 726.961 3457.9502 7625032
3151.478 729.9129 3471.9917 8019790
3177.3899 731.14081 3477.8325 8085584
3214.4436 734.90021 3495.7148 8414546
3212.9714 729.8598 3471.739 9664357
3226.3481 728.23529 3464.0117 9533027
3261.0854 731.42212 3479.1707 9796201
3297.1265 734.8595 3495.5212 9730408
3280.3291 726.55096 3455.9998 10125165
3308.104 728.15643 3463.6367 9796457
0 0 0 0
0 0 0 0
0 0 0 0
0 0 0 0
0 0 0 0
0 0 0 0
0 0 0 0
0 0 0 0
0 0 0 0
0 0 0 0
0 0 0 0
0 0 0 0
-1786.095 446.71411 2066.637 16
-1683.9541 424.07593 1961.9058 16
-1692.9332 429.30124 1986.0797 16
-1680.4209 429.11163 1985.2026 16
-1668.2734 429.01324 1984.7473 16
-1644.3936 425.87491 1970.2284 16
-1643.3643 428.65195 1983.0759 14
-1695.842 445.52618 2061.1414 14
-1681.678 445.01041 2058.7551 14
-1681.6191 448.24686 2073.728 14
-1593.9114 427.99557 1980.0393 14
-1653.9895 447.42154 2069.9099 14
-1638.2129 446.46503 2065.4846 14
-1624.4799 446.05518 2063.5886 14
-1541.954 426.60651 1973.613 14
-1591.0457 443.55295 2052.0125 14
-1503.0107 422.23773 1953.4017 14
-1487.2079 421.04114 1947.8661 14
-1470.1185 419.4588 1940.5455 14
-1456.5696 418.8696 1937.8197 270
-1446.1182 419.16888 1939.2042 270
-1435.2811 419.36029 1940.0898 270
-1419.4556 418.08551 1934.1921 12
-1407.3956 417.90805 1933.3712 13
-1350.8491 404.40955 1870.9232 12
-1379.0447 416.26721 1925.7803 12
-1397.3574 425.31473 1967.637 13
-1387.9551 426.00787 1970.8436 13
-1413.1263 437.41458 2023.6146 14
-1374.9335 429.23517 1985.774 14
-1276.4318 401.92438 1859.426 14
-1319.7888 419.19559 1939.3279 14
-1331.6564 426.6806 1973.9557 13
-1296.0994 418.96814 1938.2755 15
-1313.4709 428.38007 1981.818 15
-1270.4658 418.09268 1934.2255 16
-1284.2887 426.48953 1973.0719 18
-1243.9539 416.89069 1928.6646 19
-1216.5723 411.49506 1903.7028 19
-1251.3491 427.21979 1976.4502 19
-1238.4241 426.80203 1974.5177 19
-1180.2825 410.64459 1899.7682 19
-1226.311 430.76782 1992.8645 19
-1159.3446 411.20462 1902.3591 19
-1162.848 416.49738 1926.845 19
-1170.4714 423.38538 1958.7112 19
-1111.4836 406.07529 1878.6294 19
-1131.806 417.68369 1932.3334 19
-1126.0681 419.81378 1942.1877 18
-1118.3408 421.23853 1948.7791 19
-1063.6244 404.80917 1872.7719 19
-1034.5649 397.90128 1840.8137 19
-1039.6371 404.11325 1869.5522 19
-1016.2904 399.29349 1847.2546 19
-1007.4659 400.13657 1851.155 18
-1018.6196 409.02032 1892.254 19
-977.7746 396.98975 1836.5968 18
-994.70886 408.41147 1889.4373 20
-989.20905 410.7774 1900.3827 19
-977.07227 410.41 1898.683 21
-961.96191 408.77042 1891.0979 21
-949.68158 408.30902 1888.9631 21
-939.89398 408.92102 1891.7946 21
-927.70563 408.49072 1889.804 21
-917.09326 408.75241 1891.0144 21
-903.73047 407.77945 1886.5133 21
-890.39056 406.79263 1881.9479 21
-876.79865 405.66415 1876.7272 21
-865.24695 405.46271 1875.7954 21
-853.09869 404.97287 1873.5292 21
-845.35803 406.59 1881.0105 21
-834.10034 406.53619 1880.7616 21
-822.61139 406.36664 1879.9772 21
-806.88635 404.07117 1869.3575 21
-798.77911 405.57965 1876.3363 21
-786.84418 405.15982 1874.394 21
-770.79382 402.57849 1862.4521 21
-758.62524 401.97906 1859.679 21
-746.04626 401.14127 1855.803 21
-735.75183 401.52515 1857.5791 21
-727.89954 403.27371 1865.6685 21
-716.97797 403.34955 1866.0192 21
-700.91437 400.48969 1852.7886 21
-692.51068 401.98517 1859.7073 21
-675.6488 398.53992 1843.7683 21
-619.62006 371.4985 1718.6664 21
-609.01404 371.24194 1717.4796 21
-645.31195 400.05429 1850.7743 21
-587.73138 370.65778 1714.777 21
-576.43744 369.9314 1711.4165 21
-565.87476 369.65674 1710.1459 21
-601.12109 399.84244 1849.7942 21
-545.31079 369.45715 1709.2225 21
-534.78052 369.18027 1707.9417 21
-567.82062 399.55136 1848.4476 21
-555.63916 398.67087 1844.3741 21
-505.12762 369.70139 1710.3524 21
-494.9277 369.65356 1710.1312 21
-485.64615 370.30402 1713.1404 22
-518.98364 404.17303 1869.8289 22
-512.82605 408.09094 1887.9542 22
-492.86453 400.95383 1854.9359 22
-482.9162 401.82285 1858.9563 21
-492.05032 418.9812 1938.3361 21
-482.81207 420.9418 1947.4062 20
-473.56723 422.99249 1956.8936 21
-446.01117 408.37988 1889.2911 19
-443.90921 416.92142 1928.8068 19
-429.0553 413.62115 1913.5388 19
-406.08932 402.10916 1860.2808 19
-408.75735 416.04578 1924.7559 19
-399.29834 418.08484 1934.1893 21
-391.99988 422.57358 1954.9556 21
-382.92508 425.36252 1967.858 20
-372.40714 426.67322 1973.9218 20
-370.9549 438.79251 2029.9894 20
-359.82635 439.89481 2035.0887 20
-348.71167 441.09097 2040.6227 20
-335.62512 439.78928 2034.6006 20
-335.19043 455.58685 2107.6851 20
-324.41806 458.01263 2118.9075 20
-301.53412 442.84619 2048.7429 20
-293.52707 449.17267 2078.011 21
-274.06354 437.75406 2025.1851 21
-270.96494 452.62598 2093.9871 21
-259.84058 454.87558 2104.3945 21
-247.73007 455.5386 2107.4619 21
-237.20717 459.34644 2125.0781 21
-218.91692 447.69662 2071.1824 21
-208.77739 452.32166 2092.5791 21
-197.85466 455.72678 2108.3323 21
-185.57108 456.24512 2110.7305 21
-180.44763 475.71472 2200.8027 21
-168.29236 478.23572 2212.4658 23
-155.31802 478.65863 2214.4221 23
-140.67336 473.5368 2190.7271 23
-130.57178 484.22141 2240.1572 23
-117.8182 486.37659 2250.1279 23
-104.79678 487.83514 2256.8755 25
-91.529846 488.41034 2259.5366 25
-76.291634 476.86111 2206.1064 25
-65.784935 496.22562 2295.6926 24
-54.08918 514.38 2379.6802 24
-39.908405 513.37299 2375.0215 24
-25.643234 509.59155 2357.5273 24
-11.536083 503.65649 2330.0701 23
2.2820113 505.78479 2339.9163 23
16.354795 512.23499 2369.7566 23
31.054451 523.28851 2420.8938 23
47.610706 548.75519 2538.7104 21
60.105698 526.42212 2435.3906 21
76.08857 537.37048 2486.0413 21
91.667961 542.37952 2509.2146 21
109.56956 557.8125 2580.6123 21
121.23724 541.61554 2505.6804 21
137.53748 547.39062 2532.3975 21
152.7455 548.11005 2535.7258 21
173.98434 568.4032 2629.6082 21
183.69388 550.79028 2548.1255 21
201.96019 559.56091 2588.7012 21
213.98222 551.01398 2549.1604 21
239.30618 575.58856 2662.8499 21
257.94974 582.04852 2692.7358 21
274.56967 583.45581 2699.2461 21
293.57336 589.49457 2727.1833 21
293.6785 558.93506 2585.8057 21
313.87979 567.7572 2626.6196 21
346.46182 597.08234 2762.2866 21
349.17822 574.61389 2658.3408 21
369.36282 581.59039 2690.6162 19
389.83945 588.43024 2722.2595 19
408.82303 592.56244 2741.3762 19
427.22659 595.57019 2755.291 19
448.90231 602.75006 2788.5073 19
473.50504 613.21075 2836.9016 19
494.27789 618.16425 2859.8181 19
513.37762 620.76617 2871.8555 19
541.40771 633.65314 2931.4744 19
565.00159 640.70807 2964.1128 19
583.56165 641.80127 2969.1704 19
600.19562 640.77435 2964.4194 19
625.28149 648.57245 3000.4958 19
630.76154 636.16559 2943.0977 18
685.17725 672.45319 3110.9756 18
700.8371 669.79974 3098.6997 15
685.36395 638.28717 2952.9131 196617
855.12079 776.55566 3592.5854 1707796
881.55096 781.1098 3613.6545 5061435
895.41376 774.57654 3583.4294 7494483
914.05188 772.38116 3573.2732 8875876
944.83478 780.31525 3609.9785 8546395
957.01776 772.87695 3575.5667 7756877
977.54395 772.35284 3573.1418 8743772
986.78711 763.12518 3530.4521 9006431
1013.6646 767.63507 3551.3162 9006688
1028.6398 763.13135 3530.4805 9072738
1060.519 771.09802 3567.3369 9203811
1086.1125 774.27234 3582.0222 9730925
1112.1873 777.66132 3597.7007 10387572
1121.3672 769.33197 3559.1665 9398366
1150.9545 775.05243 3585.6311 9002325
1169.8027 773.4649 3578.2869 7421492
1182.2972 767.80768 3552.1147 7224370
1180.1333 752.99548 3483.5889 7422777
1183.6471 742.25293 3433.8906 8938327
1213.4685 748.09198 3460.9038 9466470
1244.8431 754.67859 3491.3755 8940897
1265.9919 754.95184 3492.6396 9006947
1307.6713 767.26233 3549.5918 9599344
1333.343 769.93945 3561.9771 9994358
1343.5997 763.77039 3533.437 10520957
1382.8982 774.04626 3580.9763 10652029
1392.806 767.80933 3552.1223 10189935
1417.5063 769.79132 3561.2917 9136989
1431.0717 765.7569 3542.6272 9465441
1431.8081 755.07373 3493.2036 9991785
1467.5768 762.90625 3529.4392 10123630
1485.1078 761.1712 3521.4124 9729129
1513.3162 764.88104 3538.575 9861229
1528.7864 762.13898 3525.8896 10125169
1541.1182 757.92755 3506.406 10059120
1576.3329 764.93225 3538.8123 9795949
1589.8202 761.34808 3522.2305 9401191
1614.4037 763.10168 3530.3433 9730156
1629.5167 760.3913 3517.8042 9730156
1642.528 756.78088 3501.1013 9664364
1666.1215 758.07544 3507.0903 9204070
1691.4675 760.12567 3516.5752 9796207
1711.7062 759.85864 3515.3401 9664621
1727.8578 757.80573 3505.8425 9730414
1750.6128 758.66315 3509.8093 9466985
1780.3385 762.48596 3527.4946 9533035
1807.203 765.00879 3539.1663 9138277
1832.4299 766.78851 3547.3997 9401192
1863.6785 771.01904 3566.9714 9861999
1873.882 766.54584 3546.2769 9665134
1897.515 767.60455 3551.1748 9534061
1931.3108 772.70605 3574.7759 9533805
1948.4282 771.09631 3567.3289 9796720
1962.797 768.44507 3555.0635 9599854
1983.8455 768.4375 3555.0283 9534060
1998.8638 766.11884 3544.3015 9467496
2019.7212 766.06317 3544.0439 9467496
2042.5309 766.74146 3547.1819 9467495
2077.7205 772.0058 3571.5366 9335396
2103.8545 773.83319 3579.9907 9203810
2105.4507 766.6889 3546.939 9335396
2131.0854 768.35272 3554.6362 9269603
2150.4705 767.75275 3551.8606 9466725
2176.2859 769.43793 3559.6567 9861484
2193.6479 768.13068 3553.6089 8545623
2213.7761 767.80768 3552.1147 8611416
2236.3467 768.3299 3554.5305 9071710
2249.3669 765.59186 3541.8635 9269088
2267.8335 764.74091 3537.927 9532261
2290.2922 765.23962 3540.2339 9334625
2304.9797 763.15607 3530.595 9400931
2319.5237 761.06299 3520.9116 9335137
2340.6104 761.13489 3521.2444 9137760
2335.9072 752.89307 3483.1152 9927275
2323.7168 742.40356 3434.5874 8545366
2349.5173 744.1286 3442.5679 8874845
2376.2305 746.11041 3451.7366 8874845
2420.6992 753.58582 3486.3201 10651769
2435.0659 751.64307 3477.3323 9335911
2495.3044 763.77356 3533.4517 8941152
2522.1858 765.57697 3541.7947 8677979
2543.0168 765.52924 3541.574 8283222
2596.667 775.28113 3586.689 8611416
2637.7224 781.14471 3613.8162 8414038
2614.3765 767.99548 3552.9834 8348502
2655.1223 773.73346 3579.5291 8611673
2667.1331 771.073 3567.2209 9006431
2656.0479 761.82983 3524.4592 8677209
2696.4011 767.36981 3550.0891 8743002
2707.6851 764.61523 3537.3457 8545623
2721.6443 762.65265 3528.2659 8479830
2746.7332 763.81494 3533.6431 7558984
2725.7739 752.25134 3480.1462 8414806
2681.5618 734.49243 3397.9883 6177851
2839.7407 772.02087 3571.6062 852225
2842.1509 766.95959 3548.1912 786432
2776.3684 743.70581 3440.6121 983040
2754.3796 732.43665 3388.4773 983040
2749.2283 725.77557 3357.6611 1048576
2737.5347 717.49548 3319.355 1048576
2724.0146 708.85828 3279.3965 1114112
2717.9089 702.25916 3248.8669 3811624
2786.4287 714.89911 3307.3433 524288
2772.4995 706.35681 3267.824 1115909
2738.7036 692.90668 3205.5994 2957849
2801.793 703.98535 3256.853 10390651
2806.6487 700.38068 3240.1765 11508872
2870.7197 711.50134 3291.6243 9400928
2918.1443 718.37402 3323.4192 6572347
2948.1255 720.88916 3335.0552 6309172
3020.8545 733.75415 3394.5725 6045231
3057.3865 737.71484 3412.896 6901053
3059.3787 733.34424 3392.6763 9006940
3130.1565 745.41132 3448.5022 8677720
3142.4258 743.47894 3439.5623 8677717
3170.6704 745.32678 3448.1111 8480338
3167.1228 739.72552 3422.198 7887944
3204.6021 743.71692 3440.6636 8019275
3216.6897 741.80225 3431.8057 8348497
3239.8875 742.45776 3434.8381 9006173
3234.7217 736.64569 3407.95 8874845
3270.9497 740.27399 3424.7354 8743260
0 0 0 0
0 0 0 0
0 0 0 0
0 0 0 0
0 0 0 0
0 0 0 0
0 0 0 0
0 0 0 0
0 0 0 0
0 0 0 0
0 0 0 0
-1806.924 461.15161 2076.499 270
-1791.347 460.31107 2072.7141 16
-1690.6525 437.43573 1969.7098 16
-1679.5599 437.58694 1970.3907 16
-1736.1696 455.50262 2051.0625 16
-1856.5326 490.51532 2208.7195 16
-1845.0995 490.95596 2210.7039 16
-1828.4406 490.00256 2206.4106 13
-1784.2263 481.5976 2168.5645 14
-1715.2701 466.34399 2099.8796 14
-1676.037 459.00748 2066.8442 14
-1659.1466 457.72687 2061.0779 14
-1676.0667 465.8241 2097.5386 14
-1625.1643 455.05188 2049.0327 14
-1495.9977 422.03815 1900.3768 14
-1533.9995 436.0415 1963.4318 14
-1472.2152 421.6777 1898.7537 14
-1460.7158 421.60641 1898.4327 14
-1447.9048 421.1525 1896.3888 14
-1430.7214 419.40982 1888.5417 14
-1466.8518 433.39151 1951.4993 14
-1456.3309 433.70242 1952.8993 14
-1439.8431 432.22717 1946.2563 14
-1380.3287 417.70752 1880.8766 14
-1464.9039 446.91013 2012.3718 14
-1356.0718 417.10345 1878.1565 14
-1344.465 416.95569 1877.4912 14
-1435.1069 448.78024 2020.7925 14
-1408.2258 444.07986 1999.6273 14
-1378.731 438.46844 1974.36 14
-1378.7119 442.21524 1991.2312 14
-1359.2635 439.74103 1980.0902 13
-1381.4769 450.81927 2029.974 16
-1332.2147 438.56247 1974.7834 16
-1358.1282 451.05551 2031.0377 15
-1345.0939 450.7211 2029.532 18
-1288.9736 435.81293 1962.4026 18
-1317.7527 449.59985 2024.4832 18
-1301.0885 447.99301 2017.2477 19
-1286.6331 447.12399 2013.3346 19
-1261.928 442.6434 1993.1592 19
-1251.7755 443.23093 1995.8048 19
-1251.7457 447.44818 2014.7944 19
-1236.3075 446.1857 2009.1097 19
-1220.9586 444.93121 2003.4609 19
-1186.4895 436.61603 1966.0189 18
-1195.1171 444.15237 1999.9539 20
-1186.9923 445.55151 2006.2539 19
-1173.8567 445.07904 2004.1266 20
-1153.0377 441.6539 1988.7036 20
-1158.5428 448.34515 2018.8335 19
-1107.2906 432.98239 1949.6571 19
-1093.3304 432.03159 1945.3759 18
-1099.1549 438.96188 1976.5818 19
-1089.0725 439.62033 1979.5468 19
-1076.338 439.21094 1977.7032 18
-1050.5975 433.42685 1951.6583 19
-1010.0775 421.34882 1897.2727 19
-1035.1055 436.64963 1966.1702 19
-1036.5422 442.23386 1991.3151 19
-989.17645 426.88559 1922.2042 20
-990.81689 432.57513 1947.8232 21
-960.59174 424.32275 1910.6639 21
-871.87646 389.72839 1754.8906 21
-940.69958 425.56854 1916.2736 21
-906.91156 415.29648 1870.02 21
-840.42761 389.61282 1754.3702 21
-830.00244 389.59955 1754.3103 21
-886.27332 421.28983 1897.0071 21
-873.72955 420.66309 1894.1851 21
-881.39978 429.87885 1935.6824 21
-838.0744 414.13809 1864.8038 21
-836.81915 419.04346 1886.8922 21
-848.04407 430.41592 1938.1006 21
-813.23505 418.41583 1884.0659 21
-747.03577 389.7063 1754.791 21
-735.3634 389.03275 1751.7583 21
-724.42944 388.73621 1750.423 21
-713.711 388.54834 1749.577 21
-703.23627 388.48956 1749.3124 21
-737.9588 413.771 1863.151 21
-682.36365 388.41046 1748.9561 21
-713.1026 412.16809 1855.9332 21
-659.12 386.93445 1742.3099 21
-689.39087 411.14557 1851.3291 21
-638.28394 386.82205 1741.8037 21
-626.36383 385.83783 1737.3719 21
-614.46057 384.83124 1732.8394 21
-603.28839 384.25604 1730.2494 21
-589.77686 382.14523 1720.7448 21
-578.4801 381.42047 1717.4812 21
-567.43616 380.83936 1714.8646 21
-557.52747 381.01297 1715.6462 21
-546.51282 380.4231 1712.9902 21
-535.65442 379.92175 1710.7327 21
-529.19922 382.58432 1722.7219 21
-516.19531 380.52417 1713.4453 21
-505.71957 380.28241 1712.3567 21
-497.0033 381.38092 1717.3031 21
-489.34659 383.35538 1726.1938 21
-481.60324 385.34491 1735.1523 21
-472.93802 386.66742 1741.1075 21
-461.07944 385.37994 1735.3102 21
-455.70602 389.57779 1754.2124 21
-446.19089 390.34827 1757.6819 21
-483.27826 432.90012 1949.2866 21
-474.83667 435.75443 1962.1392 20
-464.38354 436.85971 1967.116 19
-444.22507 428.65671 1930.1791 19
-433.81992 429.68033 1934.7885 19
-422.32755 429.6535 1934.6676 19
-421.36728 440.63895 1984.1334 19
-415.05249 446.49493 2010.5021 21
-403.61896 447.02783 2012.9016 21
-379.7399 433.38931 1951.4894 21
-363.94324 428.40799 1929.0593 21
-361.54599 439.388 1978.5007 21
-341.77335 429.27994 1932.9854 21
-342.2579 444.79688 2002.8561 21
-333.08282 448.4241 2019.189 21
-310.12845 433.07956 1950.0947 21
-310.2142 449.96701 2026.1362 22
-299.91565 452.54532 2037.7462 23
-304.91968 479.39899 2158.6643 21
-271.87424 446.16293 2009.0072 21
-271.79727 466.46381 2100.4192 21
-260.91675 469.28223 2113.1101 21
-249.40712 471.19626 2121.7288 21
-237.45638 472.43597 2127.3108 21
-233.68732 491.00534 2210.926 21
-220.73633 491.34238 2212.4436 21
-207.78151 491.71295 2214.1123 21
-185.41965 468.37128 2109.0081 21
-181.02194 490.31271 2207.8071 21
-168.04033 490.61142 2209.1523 23
-157.04869 497.26151 2239.0967 23
-138.46217 478.87216 2156.292 23
-130.74289 498.14902 2243.093 23
-118.00945 500.52249 2253.7805 23
-104.80326 501.24088 2257.0151 23
-91.422981 501.21494 2256.8984 25
-77.996597 500.88409 2255.4087 25
-63.296928 490.5484 2208.8687 25
-50.302109 491.48062 2213.0662 25
-39.318615 519.65295 2339.9221 25
-26.765461 546.47552 2460.7002 25
-11.79993 529.30017 2383.3621 23
2.1892512 498.52866 2244.8025 23
15.62811 502.89471 2264.4622 23
29.263199 506.6239 2281.2542 23
42.904037 508.06436 2287.7402 21
56.745014 510.61392 2299.2207 21
75.134674 545.18176 2454.8745 21
90.3666 549.33868 2473.5925 21
106.69467 558.0686 2512.9021 21
116.58772 535.12402 2409.5862 21
131.84195 539.10883 2427.5291 21
159.77605 589.05731 2652.4399 21
167.77119 563.13214 2535.7024 21
187.9894 579.12384 2607.7109 21
205.63089 585.35126 2635.752 21
212.99217 563.50153 2537.366 21
228.60052 564.91351 2543.7239 21
255.31277 591.89307 2665.2087 21
268.97058 587.22791 2644.2024 21
292.33655 603.10486 2715.6938 21
312.55304 611.16638 2751.9939 21
330.20871 613.66925 2763.2639 21
331.79156 587.47675 2645.323 21
348.79758 589.72424 2655.4429 21
368.75922 596.55908 2686.2192 19
391.1167 606.54364 2731.1785 19
409.44623 609.73645 2745.5552 19
427.14172 611.77704 2754.7437 19
445.86536 615.08582 2769.6423 19
468.46823 623.32104 2806.7246 19
491.91052 632.07019 2846.1206 19
510.70212 634.46155 2856.8887 19
537.51941 646.35004 2910.4207 19
561.94244 654.7099 2948.064 19
589.18274 665.74884 2997.7708 19
618.40704 678.31781 3054.3669 19
643.35004 685.60944 3087.2002 19
655.17346 678.90308 3057.0024 18
701.09558 706.94055 3183.2512 18
739.46234 726.09003 3269.4783 18
782.65662 748.88086 3372.1021 65551
828.10095 772.63605 3479.0684 262154
861.64984 784.40796 3532.0754 1312270
874.95142 777.6264 3501.5393 4666165
892.56586 774.9035 3489.2783 8087134
918.04291 778.97546 3507.6138 8545626
945.0108 784.104 3530.707 8410700
964.00861 782.54065 3523.6672 8934730
968.52582 769.53809 3465.1187 9591375
993.69336 773.14233 3481.3481 9655372
1014.4792 773.26025 3481.8792 8996670
1030.3162 769.67645 3465.7417 7746604
1052.075 770.57007 3469.7656 8144443
1069.3098 768.17944 3459.001 9856861
1080.1393 761.36383 3428.311 9858658
1096.9393 758.93066 3417.355 9529951
1115.1619 757.55194 3411.147 9793893
1145.948 764.60516 3442.9065 9268832
1164.1273 763.14716 3436.3413 9926505
1173.0667 755.78613 3403.1956 9137760
1205.8234 763.75964 3439.0994 9466982
1219.6102 759.65253 3420.6055 9533032
1243.9601 762.15149 3431.8579 9336937
1270.0573 765.62323 3447.4907 9863282
1304.4569 773.91089 3484.8088 10060661
1322.1343 772.17377 3476.9868 9863282
1341.5713 771.50189 3473.9614 9402472
1367.603 774.58539 3487.8459 10192246
1375.4784 767.44684 3455.7021 9533287
1393.1997 765.93066 3448.875 9861997
1418.6796 768.66199 3461.1738 9466984
1451.6469 775.31439 3491.1287 9795949
1469.1152 773.61841 3483.4917 10058608
1483.1567 770.18982 3468.0532 10059120
1507.8054 772.2879 3477.5007 9795949
1530.964 773.57642 3483.3027 9006689
1547.0895 771.32422 3473.1616 9401704
1566.1619 770.58118 3469.8157 9599083
1584.3843 769.44452 3464.6975 9138532
1608.274 771.05408 3471.9451 9335910
1628.8586 771.05847 3471.9646 9401192
1647.6754 770.23621 3468.2625 9072484
1667.2026 769.76233 3466.1284 9138277
1673.3878 763.21478 3436.6458 9335655
1707.9899 769.62946 3465.53 9664621
1728.3795 769.56366 3465.2339 9599084
1752.8976 771.31598 3473.1243 9401705
1773.9709 771.52948 3474.0857 9401449
1799.09 773.47742 3482.8569 9532778
1824.8174 775.63977 3492.5938 9862000
1847.1097 776.30988 3495.6113 9796463
1858.1624 772.29364 3477.5266 9467499
1889.7887 776.82263 3497.9202 9533035
1921.5778 781.31964 3518.1692 9269863
1919.9407 772.2746 3477.4409 9598827
1946.7994 774.76221 3488.6421 9138532
1964.8401 773.7251 3483.9722 9599083
1974.9005 769.59967 3465.396 9467238
2003.5808 772.74054 3479.5388 9269603
2025.443 773.21454 3481.6731 9598568
2053.2998 775.9444 3493.9653 9138017
2066.209 773.0274 3480.8306 9072224
2078.2903 769.86133 3466.5742 8216658
2107.9851 773.21802 3481.689 8479573
2131.625 774.31024 3486.6069 9400675
2143.9502 771.31079 3473.1011 9598312
2154.5229 767.74396 3457.04 9663847
2178.5781 769.00336 3462.7109 9400932
2218.0308 775.62372 3492.5215 9203553
2224.3442 770.64026 3470.0818 9138017
2247.4143 771.50043 3473.9548 8348500
2259.9614 768.76544 3461.6394 7756107
2282.9893 769.61267 3465.4546 5190180
2269.3738 758.20227 3414.0752 10190705
2281.6782 755.57684 3402.2534 10848634
2299.2812 754.73676 3398.4705 9795691
2317.553 754.12878 3395.7329 9137761
2327.1729 750.74017 3380.4746 9927277
2366.1313 756.79333 3407.731 9334885
2388.5854 757.50977 3410.957 10979710
2369.845 745.25952 3355.7959 10979710
2458.2017 766.61243 3451.9448 10519415
2503.5266 774.30365 3486.5774 8677211
2535.7632 777.85419 3502.5649 8019281
2584.7361 786.43915 3541.2219 8611418
2587.3962 780.9082 3516.3167 8282708
2594.4602 776.78412 3497.7466 8414037
2603.8672 773.42133 3482.6045 8282708
2621.9478 772.66754 3479.2102 8677208
2646.5808 773.84131 3484.4956 8480087
2667.0115 773.77777 3484.2092 8480086
2682.1218 772.18341 3477.0303 8282708
2697.2705 770.62433 3470.01 8414294
2714.7808 769.75842 3466.1108 8414037
2711.4021 763.02716 3435.801 8151120
2889.6321 807.12256 3634.356 8414295
2786.7119 772.61646 3478.9802 3745056
2784.9653 766.46167 3451.2659 851968
2751.2527 751.66321 3384.6306 983040
2745.156 744.56921 3352.6875 917504
2737.0981 737.04907 3318.8254 786432
2736.4104 731.60681 3294.3196 851968
2717.3938 721.37585 3248.2512 917504
2702.4954 712.37451 3207.7192 851968
2719.6455 711.8877 3205.5273 720896
2695.5178 700.67786 3155.051 917504
2612.6025 674.44647 3036.9348 2628374
2696.0439 691.22522 3112.4873 11047805
2722.8743 693.36047 3122.1018 11637886
2756.4753 697.17932 3139.2976 6769206
2923.3105 734.41913 3306.9832 7230528
2980.2002 743.72552 3348.8887 7098688
2996.8374 742.93005 3345.3066 6901308
3033.0962 746.97723 3363.5305 8019787
3105.5308 759.82269 3421.3716 8545876
3104.6221 754.67316 3398.1841 8677720
3091.1672 746.55994 3361.6514 8677720
3081.8154 739.53522 3330.02 8546134
3161.0396 753.71997 3393.8921 8414294
3152.5452 746.94196 3363.3716 8348501
3199.6055 753.3291 3392.1321 7756363
3239.9983 758.07654 3413.509 6308406
3301.6218 767.70172 3456.8499 5124133
0 0 0 0
0 0 0 0
0 0 0 0
0 0 0 0
0 0 0 0
0 0 0 0
0 0 0 0
0 0 0 0
0 0 0 0
0 0 0 0
0 0 0 0
-1812.5073 474.92035 2082.9153 14
-1797.9547 474.33762 2080.3596 16
-1766.099 469.15042 2057.6094 16
-1754.6761 469.35663 2058.5139 16
-1742.0229 469.23438 2057.9775 16
-1704.0543 462.24326 2027.3158 16
-1729.9509 472.60004 2072.7388 16
-1669.5386 459.35782 2014.6609 13
-1573.7561 436.12299 1912.7571 14
-1615.4 450.91125 1977.6157 14
-1603.1265 450.75562 1976.933 14
-1539.1442 435.95142 1912.0046 14
-1527.6593 435.90753 1911.8121 14
-1515.623 435.70447 1910.9214 14
-1504.0703 435.63834 1910.6315 14
-1616.813 471.84518 2069.4282 14
-1596.6874 469.53333 2059.2888 14
-1510.6644 447.65833 1963.349 14
-1454.6455 434.40393 1905.2175 14
-1439.2487 433.16812 1899.7975 14
-1427.3682 432.97946 1898.9701 14
-1418.6038 433.74057 1902.3082 14
-1405.6926 433.23587 1900.0946 14
-1389.7482 431.78052 1893.7118 14
-1376.212 431.05591 1890.5337 14
-1365.6971 431.27341 1891.4877 14
-1438.7181 458.09262 2009.1119 14
-1414.7904 454.23309 1992.1847 14
-1440.4734 466.37057 2045.4176 14
-1309.2791 427.49222 1874.9041 14
-1374.7611 452.71469 1985.5251 14
-1354.4542 449.87805 1973.0844 16
-1387.5454 464.88248 2038.891 16
-1367.509 462.19437 2027.1013 17
-1353.6224 461.55551 2024.2996 18
-1309.465 450.49124 1975.7736 18
-1320.0037 458.21402 2009.6444 18
-1316.0452 460.99924 2021.8599 19
-1307.8422 462.33514 2027.7189 19
-1268.4058 452.55212 1984.8123 19
-1270.3619 457.49258 2006.4802 19
-1266.5531 460.4306 2019.366 19
-1253.1034 459.88651 2016.9796 20
-1243.9884 460.93814 2021.5919 20
-1214.7111 454.46677 1993.2095 20
-1209.2074 456.85016 2003.6627 21
-1200.0767 457.89691 2008.2537 21
-1168.2488 450.21765 1974.5737 22
-1153.5254 449.04141 1969.4148 22
-1140.7646 448.61292 1967.5356 21
-1167.8213 463.9957 2035.0017 21
-1131.0966 454.09369 1991.5734 19
-1142.2496 463.40668 2032.4183 19
-1120.8206 459.55881 2015.5424 19
-1088.132 450.96173 1977.837 19
-1077.8907 451.58176 1980.5564 19
-1061.3208 449.53476 1971.5786 19
-1014.6004 434.52948 1905.7683 18
-1007.7889 436.47083 1914.2826 19
-1015.3568 444.75494 1950.6152 20
-989.0976 438.24207 1922.0509 21
-960.31989 430.44852 1887.8699 21
-963.97766 437.18127 1917.3986 21
-953.5014 437.5882 1919.1832 21
-940.37604 436.77451 1915.6145 21
-923.86896 434.35104 1904.9857 21
-915.54919 435.76447 1911.1846 21
-902.02802 434.70657 1906.545 21
-888.72125 433.72653 1902.2467 21
-876.65271 433.33337 1900.5222 21
-865.31805 433.29745 1900.3647 21
-851.84009 432.17319 1895.4338 21
-839.62933 431.67032 1893.2285 21
-827.08392 430.97949 1890.1986 21
-815.28241 430.66269 1888.8092 21
-803.27423 430.22632 1886.8954 21
-791.16956 429.72528 1884.6979 21
-779.95465 429.70004 1884.5872 21
-766.2821 428.30045 1878.4487 21
-754.94379 428.1835 1877.9358 21
-743.60376 428.06204 1877.4032 21
-733.302 428.54364 1879.5154 21
-718.75116 426.51868 1870.6343 21
-704.39429 424.54712 1861.9874 21
-692.47046 424.00259 1859.5992 21
-681.40253 423.97302 1859.4695 21
-670.39716 423.98199 1859.5089 21
-658.05975 423.13486 1855.7935 21
-646.52985 422.7869 1854.2673 21
-633.86859 421.67429 1849.3877 21
-588.87909 398.63812 1748.3552 21
-571.60638 393.87558 1727.4675 21
-609.90735 427.93173 1876.8317 21
-596.12457 426.03046 1868.4932 21
-584.37958 425.54123 1866.3474 21
-572.23615 424.73734 1862.8218 21
-518.83081 392.67307 1722.1935 21
-547.9007 422.99524 1855.1812 21
-500.54062 394.34485 1729.5256 21
-537.58722 432.38547 1896.365 21
-527.27606 433.14709 1899.7053 21
-520.20532 436.6619 1915.1207 21
-510.83505 438.36029 1922.5693 21
-501.82614 440.45325 1931.7489 21
-494.6116 444.25571 1948.4258 21
-485.45456 446.45346 1958.0646 21
-474.04276 446.63443 1958.8584 20
-462.31125 446.51578 1958.338 19
-445.40192 441.26126 1935.2926 18
-435.58566 442.94189 1942.6635 18
-422.70059 441.50836 1936.3763 18
-423.49457 454.68124 1994.1503 19
-402.49191 444.53693 1949.6591 18
-394.99826 449.15408 1969.9091 18
-382.50168 448.19031 1965.6821 19
-373.59479 451.5043 1980.2168 21
-369.79691 461.40796 2023.6525 21
-358.82352 462.72235 2029.417 21
-347.98306 464.30515 2036.359 21
-336.01651 464.44525 2036.9734 21
-319.78455 458.48038 2010.8125 21
-309.0506 460.24142 2018.5363 21
-305.53735 473.33051 2075.9424 22
-293.58411 473.89413 2078.4146 21
-291.6373 491.36664 2155.0459 21
-271.83353 478.97525 2100.6995 21
-260.07919 480.25842 2106.3271 21
-250.75146 486.37769 2133.1653 21
-236.96704 484.04333 2122.927 21
-223.5585 482.25797 2115.0967 21
-214.38719 489.94394 2148.8062 21
-206.13664 500.83786 2196.5847 21
-193.37022 501.4888 2199.4397 21
-187.45015 521.27264 2286.208 21
-168.47566 505.00827 2214.8755 23
-156.71724 509.4534 2234.3711 23
-150.84856 535.63232 2349.187 23
-138.96031 543.58716 2384.0754 23
-125.14507 544.95135 2390.0588 23
-108.45778 532.56122 2335.7178 23
-94.050575 529.3797 2321.7642 23
-78.274483 516.08228 2263.4441 23
-66.123619 526.12994 2307.5115 25
-51.827499 519.8974 2280.1765 25
-39.742756 539.27509 2365.1636 25
-25.312786 530.60712 2327.1475 24
-11.696829 538.67633 2362.5376 23
2.3203931 542.49188 2379.272 23
17.5917 581.18658 2548.9797 23
30.777586 547.06079 2399.3103 23
46.016239 559.45978 2453.6899 21
65.690994 606.88715 2661.698 21
77.105812 574.41418 2519.2773 21
91.271309 569.64417 2498.3569 21
106.51416 571.99121 2508.6506 21
119.38725 562.59607 2467.4453 21
144.73088 607.6048 2664.8455 21
151.17642 572.2254 2509.6777 21
166.60487 574.13989 2518.0745 21
181.42673 573.82111 2516.6763 21
197.71516 577.83698 2534.2891 21
214.5407 582.74469 2555.8135 21
231.00763 586.09528 2570.5085 21
256.21268 609.82959 2674.6028 21
271.34793 608.22681 2667.5735 21
291.72772 617.90906 2710.0381 21
310.55347 623.461 2734.3879 21
327.32947 624.55133 2739.1699 21
345.57541 628.21075 2755.2195 21
364.50867 632.73303 2775.0535 21
390.38364 648.39453 2843.7419 19
408.30655 650.09863 2851.2158 19
425.69846 650.85547 2854.5349 19
442.61169 650.85046 2854.5132 19
444.62183 629.73798 2761.9177 19
465.58878 636.02081 2789.4729 19
498.39719 657.49426 2883.6516 19
520.23047 663.54529 2910.1904 19
541.12982 668.05505 2929.9695 19
559.38763 669.12469 2934.6606 19
578.01318 670.55634 2940.9397 19
617.63965 695.5545 3050.5771 19
638.97089 699.11353 3066.1863 19
654.34705 696.14026 3053.1462 19
693.00256 717.42694 3146.5056 19
731.80402 737.74512 3235.6174 19
771.6001 758.00287 3324.4644 65554
806.60437 772.66174 3388.7554 196624
857.87842 801.81488 3516.616 458763
876.0011 799.33514 3505.7402 720900
886.07428 789.79541 3463.9009 1573897
893.46973 778.35516 3413.7256 3743518
909.71472 774.96002 3398.8354 7950410
933.36902 777.88696 3411.6726 9595748
940.5542 767.25525 3365.0437 8742232
968.93982 774.00018 3394.6257 9597028
987.38159 772.68896 3388.8748 9006174
1011.8482 776.05084 3403.6196 9598055
1008.6431 758.47296 3326.5261 9466981
1038.1987 765.73206 3358.363 9334112
1062.5636 768.96143 3372.5266 9399906
1081.3147 768.08392 3368.6782 8874076
1119.4138 780.73267 3424.1531 9860458
1129.8309 773.96783 3394.4839 9729129
1147.5356 772.34467 3387.365 9531491
1161.9095 768.57404 3370.8276 9729639
1175.582 764.47479 3352.8491 9137758
1204.0032 769.9433 3376.833 9532775
1231.0701 774.3811 3396.2964 9203810
1249.9692 773.62109 3392.9631 9467752
1265.2124 770.65826 3379.9685 9599339
1295.3234 776.7027 3406.4785 9072996
1313.7556 775.66638 3401.9333 9533288
1336.8422 777.3678 3409.3955 8941407
1367.0929 783.12262 3434.6348 9795947
1379.3269 778.53906 3414.5325 9335396
1399.7098 778.62128 3414.8928 9335139
1413.325 774.98999 3398.9668 9335139
1449.2198 783.5061 3436.3169 10190194
1457.5564 777.09351 3408.1924 9927535
1478.6511 777.56519 3410.2612 10058864
1492.1932 774.10614 3395.0903 10124914
1523.1511 779.65363 3419.4209 9796718
1545.6235 780.76917 3424.3132 8941153
1565.9111 780.7663 3424.3008 8349016
1573.4897 774.50793 3396.8528 8151381
1593.2836 774.3443 3396.135 8940896
1618.6189 776.84442 3407.0999 9072738
1638.3448 776.6239 3406.1328 8875360
1652.9502 774.01093 3394.6729 9072739
1678.1167 776.34674 3404.9172 9335654
1699.9624 777.10895 3408.2603 9335399
1722.2306 778.04413 3412.3618 9073254
1740.326 777.09442 3408.1965 9204839
1764.1178 778.68091 3415.1543 9270632
1789.6118 780.97418 3425.2122 9665391
1811.468 781.64624 3428.1599 9730670
1829.1179 780.50861 3423.1704 9533035
1844.2826 778.34698 3413.6902 9138277
1865.0426 778.56824 3414.6604 9138020
1882.5822 777.45471 3409.7766 9006690
1905.1029 778.40002 3413.9226 9204325
1922.1052 777.09442 3408.1965 9401704
1934.5166 773.97919 3394.5337 9072739
1957.2258 775.00574 3399.0359 9006946
1984.5385 777.81567 3411.3596 9401191
2010.5684 780.07117 3421.252 9335141
2035.932 782.02576 3429.8245 9072226
2047.4896 778.6911 3415.199 9466984
2055.4299 774.05927 3394.885 9401190
2095.5002 781.50018 3427.5193 9400933
2096.6399 774.41858 3396.4607 9269346
2123.5762 776.90924 3407.3843 9598311
2157.5457 781.90198 3429.2815 9598568
2166.9592 777.98541 3412.104 9532518
2178.2744 774.81763 3398.2107 9203553
2207.7659 778.11401 3412.6682 9269346
2255.0862 787.57715 3454.1719 8743258
2247.4285 777.84204 3411.4756 8940381
2252.5635 772.66864 3388.7856 8808795
2264.6218 769.94043 3376.8203 8808795
2272.3499 765.80072 3358.6643 7098176
2317.1079 774.10394 3395.0808 8808541
2324.2178 769.79498 3376.1824 10124401
2315.3831 760.32355 3334.6426 9795179
2346.5867 764.04901 3350.9817 10913917
2359.4187 761.78033 3341.0317 11308161
2371.1328 759.19159 3329.6777 11176575
2394.9717 760.49548 3335.3965 10781817
2429.9492 765.28613 3356.4075 10584436
2466.8699 770.6059 3379.739 10453620
2519.7783 780.79413 3424.4229 9137503
2533.4412 778.7558 3415.4832 8874588
2577.2483 785.94244 3447.0024 8151379
2578.2297 780.0589 3421.1982 8348243
2615.3337 785.11102 3443.3557 8545623
2630.8369 783.65051 3436.9502 8019279
2642.876 781.18872 3426.1531 8282450
2666.1926 782.07227 3430.0283 7756107
2694.5452 784.40857 3440.2751 8348244
2708.219 782.46869 3431.7671 8085074
2704.8752 775.67767 3401.9829 7954771
2751.0857 783.09271 3434.5039 7888978
2741.8948 774.74457 3397.8906 8481118
2650.396 743.43109 3260.5552 2233105
2738.1848 762.4967 3344.1736 720896
2722.5618 752.69836 3301.1997 786432
2712.3142 744.51538 3265.3105 720896
2713.6931 739.617 3243.8274 655360
2708.5312 733.01758 3214.8833 655360
2710.05 728.3056 3194.2175 458752
2721.4263 726.28979 3185.3765 458752
2701.6921 716.05621 3140.4939 7168336
2702.8359 711.45837 3120.3286 11641228
2705.7214 707.37823 3102.4338 12757141
2762.2061 717.27161 3145.8242 10124908
2880.9072 743.0799 3259.0149 7361091
2885.6533 739.34753 3242.6453 6374451
2955.0237 752.11255 3298.6306 4598298
2974.3728 752.06219 3298.4097 6901052
2941.9136 738.99841 3241.1143 8348755
3062.8086 764.37622 3352.4167 8546133
3036.9751 753.04437 3302.7173 8085326
3042.428 749.56567 3287.4604 8677463
3076.2153 753.06763 3302.8193 9006174
3127.9646 760.89465 3337.1472 8480086
3127.936 756.10724 3316.1504 8282708
3140.3875 754.37744 3308.564 8480088
3159.3325 754.21936 3307.8706 7558728
0 0 0 0
0 0 0 0
0 0 0 0
0 0 0 0
0 0 0 0
0 0 0 0
0 0 0 0
0 0 0 0
0 0 0 0
0 0 0 0
0 0 0 0
-1815.869 488.16788 2086.7786 14
-1802.115 487.79239 2085.1733 14
-1775.6584 483.94968 2068.7468 16
-1763.2441 483.90729 2068.5657 16
-1750.5537 483.78799 2068.0557 16
-1700.3954 473.23923 2022.9628 16
-1726.8013 484.00073 2068.9651 16
-1711.6809 483.1936 2065.5149 13
-1668.3492 474.35361 2027.7264 14
-1692.3104 484.65726 2071.7715 14
-1553.3918 448.12381 1915.6016 14
-1663.8014 483.50836 2066.8604 14
-1649.5564 482.92392 2064.3621 14
-1635.5959 482.41464 2062.1851 15
-1622.1016 482.03622 2060.5674 14
-1493.724 447.25354 1911.8813 14
-1480.9789 446.82663 1910.0564 14
-1469.4707 446.76926 1909.8112 14
-1539.4368 471.67416 2016.2726 14
-1523.905 470.56781 2011.5432 14
-1534.3235 477.52039 2041.2634 14
-1421.045 445.77985 1905.5818 14
-1408.0969 445.2565 1903.3446 14
-1393.8148 444.29938 1899.2532 15
-1380.9651 443.78702 1897.063 16
-1368.7457 443.47052 1895.71 15
-1356.6254 443.18106 1894.4727 16
-1343.4337 442.53397 1891.7064 16
-1329.7795 441.72226 1888.2367 16
-1392.9253 466.62448 1994.6865 16
-1371.796 463.47949 1981.2428 16
-1362.4052 464.28046 1984.6666 17
-1352.7865 465.01712 1987.8156 18
-1336.9473 463.60956 1981.7987 18
-1321.5092 462.31741 1976.2751 18
-1311.6105 462.95734 1979.0107 19
-1299.4694 462.81027 1978.382 19
-1287.5587 462.74332 1978.0957 19
-1316.3065 477.42184 2040.8423 19
-1296.562 474.62149 2028.8715 19
-1285.1306 474.8403 2029.8068 19
-1264.0779 471.47461 2015.4196 19
-1245.1876 468.85907 2004.2388 19
-1222.655 464.80838 1986.9232 18
-1236.4406 474.61996 2028.865 21
-1222.639 473.93076 2025.9188 20
-1201.1505 470.21863 2010.0507 21
-1199.1422 474.13452 2026.7898 20
-1189.4833 475.07394 2030.8057 20
-1164.3951 469.80731 2008.2924 18
-1160.1348 472.92218 2021.6075 19
-1146.2235 472.12692 2018.208 19
-1121.8911 466.97717 1996.1942 19
-1124.2083 472.92844 2021.6343 20
-1114.3009 473.81006 2025.4028 20
-1098.1533 472.02853 2017.7875 20
-1063.4736 462.1543 1975.5779 21
-1050.9934 461.81485 1974.1268 21
-933.00812 414.58612 1772.2374 21
-919.84497 413.3905 1767.1265 20
-1014.8771 461.35159 1972.1465 21
-901.2746 414.48242 1771.7942 21
-890.50549 414.35718 1771.2588 21
-971.57153 457.47015 1955.5544 21
-868.61127 413.92807 1769.4244 21
-954.0531 460.20007 1967.2242 21
-979.10999 478.12921 2043.866 21
-967.80652 478.52917 2045.5758 21
-963.23022 482.30774 2061.728 21
-920.8078 466.98959 1996.2473 21
-915.44928 470.31442 2010.4601 21
-838.02094 436.21262 1864.6847 21
-890.50012 469.72348 2007.934 21
-871.3963 465.87186 1991.4694 21
-867.12122 469.95108 2008.9069 21
-751.08197 412.72824 1764.2955 21
-830.9942 463.0874 1979.5667 21
-832.41248 470.52026 2011.34 21
-819.24988 469.8075 2008.2931 21
-835.19086 486.00943 2077.5518 21
-807.29462 476.80505 2038.2057 21
-810.50549 485.97263 2077.3945 21
-794.82245 483.91968 2068.6187 21
-784.56738 485.15891 2073.916 21
-769.37427 483.33542 2066.1211 20
-756.98328 483.24176 2065.7207 20
-744.03174 482.78131 2063.7524 21
-728.58673 480.66043 2054.6863 21
-611.48077 410.26022 1753.7455 21
-600.92206 410.14716 1753.2622 21
-709.53278 492.79791 2106.5706 20
-681.02997 481.47296 2058.1597 20
-680.84589 490.12076 2095.1265 20
-669.38495 490.8212 2098.1206 21
-665.24243 497.01587 2124.6011 21
-647.26385 492.91287 2107.062 21
-632.02264 490.77411 2097.9194 20
-599.87616 475.15897 2031.1691 20
-501.58871 405.44156 1733.1471 20
-577.98645 476.9617 2038.8752 21
-594.3924 500.9729 2141.5164 21
-476.63733 410.48972 1754.7264 21
-468.29797 412.30301 1762.4778 21
-552.99585 497.98026 2128.7236 21
-454.06052 418.4332 1788.6826 21
-451.37369 425.8999 1820.6007 21
-442.06732 427.33334 1826.7283 20
-432.79187 428.86945 1833.2947 19
-429.10303 436.16318 1864.4733 18
-423.47372 441.8179 1888.6456 18
-461.23676 494.28073 2112.9092 18
-405.68384 446.87967 1910.2832 19
-414.21011 469.36969 2006.4216 19
-417.85318 487.492 2083.8894 19
-406.99789 489.28845 2091.5686 19
-387.35486 480.30133 2053.1514 21
-395.62692 506.46719 2165.0029 21
-379.95398 502.70618 2148.9255 21
-357.4191 489.29056 2091.5776 21
-351.97571 499.14905 2133.72 21
-336.20566 494.55203 2114.0688 21
-324.10376 495.20374 2116.8547 21
-300.32956 477.35547 2040.5585 22
-317.76312 526.2547 2249.5889 21
-305.66464 528.38623 2258.7004 21
-299.05997 540.64478 2311.1023 21
-268.22433 508.17255 2172.2927 21
-249.76231 497.05081 2124.7505 21
-244.29082 511.97305 2188.5388 21
-232.01102 513.50006 2195.0664 21
-233.89107 548.40936 2344.2937 21
-206.16798 513.93341 2196.9187 21
-197.8436 526.42596 2250.321 21
-181.2032 516.9978 2210.0181 21
-171.84123 528.48468 2259.1213 23
-155.88518 519.91968 2222.5083 23
-145.8212 531.23901 2270.8953 23
-133.16052 534.43823 2284.571 23
-118.58857 529.82269 2264.8408 23
-105.57426 531.87622 2273.6191 23
-92.578644 534.63855 2285.4275 23
-79.409691 537.17517 2296.2708 23
-67.060608 547.45392 2340.2095 25
-53.52507 550.88165 2354.8621 25
-39.21946 546.00629 2334.0212 24
-25.225861 542.52881 2319.156 23
-11.816965 558.3537 2386.8027 23
2.313447 554.92584 2372.1497 23
16.736809 567.31482 2425.1091 23
31.07399 566.68506 2422.417 23
46.038956 574.28424 2454.9014 21
61.077469 578.93103 2474.7651 21
75.303421 575.56769 2460.3879 21
91.922638 588.62073 2516.1858 21
105.76652 582.73877 2491.042 21
121.05478 585.28101 2501.9094 21
136.03868 585.95746 2504.801 21
151.87698 589.81891 2521.3076 21
167.61719 592.64178 2533.3748 21
180.79152 586.67426 2507.865 20
196.57932 589.44983 2519.73 18
213.94972 596.24402 2548.7732 18
233.22279 607.09485 2595.1575 20
252.68413 617.06299 2637.7683 21
270.94067 623.09888 2663.5701 21
288.36533 626.66235 2678.8027 21
307.22238 632.80426 2705.0579 21
325.46521 637.1347 2723.5693 21
343.55951 640.77887 2739.147 21
361.24078 643.35858 2750.1746 21
380.42535 648.27734 2771.2009 19
403.50696 659.15503 2817.7 19
419.11487 657.44464 2810.3884 19
436.57648 658.66168 2815.5908 19
441.56738 641.66711 2742.9441 19
478.23767 670.28003 2865.2561 19
480.25671 650.03015 2778.6936 19
516.84589 676.36255 2891.2571 19
541.05072 685.31848 2929.5413 19
542.84796 666.21759 2847.8901 19
571.62402 680.38025 2908.4316 19
603.33264 697.10229 2979.9133 19
632.60699 710.14056 3035.6484 19
650.04871 709.54211 3033.0903 19
680.4104 722.69897 3089.332 19
723.13245 747.95087 3197.2769 19
765.51862 771.57477 3298.2622 65554
797.30811 783.6076 3349.6992 65554
835.54877 801.24219 3425.082 65552
866.3996 811.12201 3467.3152 131084
894.54608 818.07086 3497.0195 327686
890.1842 795.64893 3401.1724 1969424
889.64294 777.55927 3323.844 5718076
908.36017 776.7207 3320.2595 7691089
934.50336 782.133 3343.3955 8809052
952.37024 780.53748 3336.575 9926764
973.71362 781.7981 3341.9639 9400931
989.96539 779.00195 3330.0112 9795688
1005.9653 776.12073 3317.6948 9795690
1031.9956 780.94025 3338.2969 9269089
1051.1324 780.46014 3336.2446 8940381
1069.7644 779.62982 3332.6951 9005919
1088.1641 778.66339 3328.564 9006431
1114.9199 783.60431 3349.6851 9137760
1129.9286 780.2605 3335.3914 8677466
1153.2922 782.70203 3345.8279 9532518
1164.2581 776.78912 3320.5522 9730154
1183.2799 776.35846 3318.7112 9532775
1220.2141 787.50208 3366.3469 9138530
1241.8644 788.58203 3370.9631 9795947
1237.5127 773.37781 3305.9697 9335396
1256.2502 772.85223 3303.7229 9138017
1286.4546 779.289 3331.238 9203553
1311.6561 782.54639 3345.1626 9993069
1330.5101 781.97626 3342.7253 9532774
1359.8015 787.46704 3366.1973 9532518
1367.2251 780.31854 3335.6394 9335396
1389.4453 781.69836 3341.5376 9335396
1408.4244 781.24158 3339.585 9466984
1437.5959 786.37268 3361.5188 9532518
1454.1903 784.57788 3353.8464 9927789
1496.0002 796.2525 3403.7522 9072736
1507.5067 791.7019 3384.2998 9335909
1510.3109 782.76062 3346.0784 9599081
1513.6747 774.33728 3310.0713 7823440
1541.0852 778.27356 3326.8977 8810079
1562.3776 779.05969 3330.2581 8349527
1592.36 784.10522 3351.8264 8612701
1616.3041 786.08984 3360.3101 9336425
1625.519 780.94971 3338.3374 9138533
1646.1655 781.35925 3340.0879 9006690
1669.7191 783.1225 3347.6252 8875105
1687.6487 782.23767 3343.8428 9401449
1711.547 784.10773 3351.8369 9664621
1729.1448 783.08148 3347.45 9204070
1749.741 783.42114 3348.9019 9335399
1777.0081 786.70636 3362.9453 9269864
1799.1788 787.68762 3367.1401 9401449
1809.5685 783.54602 3349.4358 9204068
1821.9491 780.34711 3335.7612 9072482
1839.7775 779.52509 3332.2476 8940640
1863.3442 781.1261 3339.0913 8480345
1882.4575 780.84619 3337.8948 9335654
1893.3253 777.18738 3322.2544 9072737
1926.4623 782.65106 3345.6101 8875360
1942.4773 781.11823 3339.0576 9006434
1965.9807 782.59723 3345.3799 8940639
1992.524 785.24475 3356.6973 9269604
2014.8749 786.20392 3360.7979 9203809
2022.1106 781.30426 3339.853 9138017
2017.3445 771.90717 3299.6831 8151122
2049.4648 776.66907 3320.0388 8545623
2080.3401 780.87311 3338.01 8940638
2099.4966 780.64062 3337.0161 9269603
2122.0271 781.6554 3341.3538 9203810
2147.5112 783.72913 3350.2185 9466982
2168.0356 783.9715 3351.2549 9401189
2193.6504 786.03345 3360.0691 9466982
2198.6504 780.7381 3337.4329 9532517
2221.9102 781.96326 3342.6702 9005920
2238.5479 780.85693 3337.9409 8743260
2256.7808 780.32153 3335.6521 8545882
2287.0769 783.93042 3351.0789 8282710
2311.1719 785.36963 3357.2314 9664363
2333.594 786.22089 3360.8701 10716795
2335.7178 780.27679 3335.4607 10716281
2343.0007 776.14142 3317.7832 11835019
2351.3428 772.42279 3301.8872 10979963
2363.4258 769.98444 3291.4639 10190193
2396.4844 774.36359 3310.1833 10255216
2399.7981 769.13843 3287.8474 10716024
2432.7495 773.4198 3306.1492 10979452
2444.6111 770.98151 3295.7261 9071712
2438.9019 763.08429 3261.9678 8611418
2507.1472 778.26819 3326.8748 9795691
2524.5242 777.54785 3323.7957 9071968
2556.1067 781.18011 3339.322 8808795
2599.0605 788.20496 3369.3516 8150608
2645.2764 796.10449 3403.1199 7887692
2621.6921 783.03693 3347.2595 7558726
2648.1929 785.01239 3355.7041 6703420
2662.4568 783.35797 3348.6321 7229765
2673.1887 780.69666 3337.2556 8480086
2676.9819 776.06281 3317.4473 8020306
2709.8015 779.8501 3333.6367 7889235
2738.9666 782.53833 3345.1282 7494999
2710.1614 768.74457 3286.1638 721410
2712.8933 764.02942 3266.0078 720896
2702.5845 755.73431 3230.5488 655360
2699.5691 749.58118 3204.2458 524288
2696.9236 743.61584 3178.7458 458752
2691.9631 737.09955 3150.8904 460033
2697.1216 733.42456 3135.1809 10652271
2669.5955 720.9729 3081.9536 10587507
2687.394 720.84796 3081.4194 10322799
2734.9004 728.63953 3114.7263 10322543
2749.9263 727.73114 3110.843 7229761
2866.0122 753.40088 3220.574 7558726
2879.8684 752.03528 3214.7366 5453094
2939.7683 762.6322 3260.0352 6966846
2932.0032 755.65179 3230.196 8480597
2943.2991 753.64252 3221.6069 8480340
2952.988 751.25037 3211.3811 8809307
3003.0063 759.08307 3244.8638 8216916
3004.5093 754.63074 3225.8313 8282708
3033.1548 757.00885 3235.9971 8414294
3077.4468 763.23761 3262.623 8611674
3100.9949 764.27594 3267.0618 8348246
3108.3496 761.33508 3254.4905 8480087
0 0 0 0
0 0 0 0
0 0 0 0
0 0 0 0
0 0 0 0
0 0 0 0
0 0 0 0
0 0 0 0
0 0 0 0
0 0 0 0
0 0 0 0
-1819.9833 501.66867 2091.5066 13
-1805.0142 500.95413 2088.5278 15
-1781.7834 497.92114 2075.8828 16
-1707.8971 480.59167 2003.6345 16
-1751.1075 496.20059 2068.7097 15
-1753.9189 500.50134 2086.6399 15
-1737.2379 499.2612 2081.4697 16
-1723.0995 498.73926 2079.2937 13
-1672.8223 487.67435 2033.163 14
-1630.1064 478.66928 1995.6199 14
-1679.9191 496.90146 2071.6316 270
-1610.282 479.81003 2000.3757 270
-1583.5764 475.35211 1981.7903 269
-1573.0161 475.71024 1983.2834 269
-1560.3655 475.43686 1982.1436 270
-1546.5404 474.79877 1979.4833 270
-1533.3083 474.33438 1977.5472 270
-1520.5664 474.01556 1976.2181 14
-1521.5465 478.00272 1992.8409 14
-1492.3903 472.51065 1969.944 14
-1479.311 472.06232 1968.075 14
-1466.7919 471.78705 1966.9271 14
-1529.1023 495.76871 2066.9092 16
-1439.6063 470.52127 1961.65 16
-1441.6006 475.00891 1980.3594 16
-1444.1401 479.75131 2000.131 16
-1412.4369 473.10248 1972.4113 16
-1347.2255 455.02521 1897.0454 16
-1384.6842 471.6124 1966.1991 16
-1397.2727 479.93869 2000.9121 15
-1395.0065 483.26138 2014.7649 17
-1353.4292 472.9057 1971.5911 17
-1341.2163 472.7193 1970.814 18
-1324.0858 470.78119 1962.7338 18
-1313.8113 471.26797 1964.7632 18
-1304.7057 472.18649 1968.5925 18
-1339.918 489.30542 2039.9631 19
-1331.2189 490.55472 2045.1715 19
-1320.5153 491.08148 2047.3677 19
-1290.4236 484.34103 2019.266 19
-1270.8113 481.44446 2007.1898 19
-1285.824 491.73471 2050.0911 19
-1248.8331 482.14401 2010.1064 19
-1240.2606 483.44583 2015.5338 19
-1248.3438 491.3284 2048.397 19
-1197.8489 476.08401 1984.8416 19
-1223.8932 491.25928 2048.1089 18
-1207.8152 489.6618 2041.4489 19
-1178.9877 482.81085 2012.8866 19
-1161.4159 480.47635 2003.1538 20
-1136.6974 475.10654 1980.7665 20
-1150.0575 485.70651 2024.9587 19
-1126.7161 480.86624 2004.7792 19
-1102.0051 475.33212 1981.707 19
-1093.8046 476.87701 1988.1478 19
-1089.7358 480.27658 2002.3209 18
-1061.5173 472.9903 1971.9437 21
-1041.6743 469.31531 1956.6223 21
-1062.1263 483.91641 2017.4958 21
-1038.587 478.57895 1995.2433 21
-1021.7427 476.23907 1985.4882 21
-1013.6464 477.96967 1992.7031 21
-995.56824 474.97876 1980.2339 21
-881.8457 425.74097 1774.9565 21
-979.96558 478.82312 1996.2612 21
-956.41547 473.02673 1972.0955 21
-848.52643 424.85825 1771.2762 21
-837.85107 424.76782 1770.8993 21
-828.07581 425.13718 1772.4392 21
-817.51947 425.10986 1772.3254 21
-902.04865 475.1698 1981.0303 21
-796.62573 425.17001 1772.576 21
-786.07654 425.14587 1772.4756 21
-875.54016 479.94522 2000.9395 21
-851.57635 473.21814 1972.8934 21
-867.22192 488.62085 2037.109 21
-839.05505 479.42462 1998.769 21
-805.52332 466.85577 1946.3683 21
-816.16345 479.89423 2000.7269 21
-803.75128 479.56287 1999.3453 21
-792.85559 480.13989 2001.751 21
-768.72748 472.5994 1970.314 21
-756.74365 472.40753 1969.514 21
-757.81433 480.48676 2003.1973 21
-766.64771 493.82343 2058.7991 21
-753.83722 493.42438 2057.1355 21
-740.9082 492.93338 2055.0884 21
-729.06134 493.15802 2056.0249 21
-721.2395 496.15915 2068.5369 21
-708.33313 495.70584 2066.647 21
-698.48041 497.41116 2073.7566 21
-683.38403 495.37646 2065.2739 21
-677.36401 499.96698 2084.4121 21
-662.84363 498.33722 2077.6174 21
-653.6048 500.69174 2087.4336 21
-643.26343 502.27621 2094.0396 21
