# .PCD v0.7 - Point Cloud Data file format
VERSION 0.7
FIELDS x y z rgb
SIZE 4 4 4 4
TYPE F F F U
COUNT 1 1 1 1
WIDTH 1427
HEIGHT 1
VIEWPOINT 0 0 0 1 0 0 0
POINTS 1427
DATA ascii
-638.4776 784.013 1800.5697 18
-629.24719 785.81152 1804.7001 18
-618.94141 786.30597 1805.8358 18
-611.15277 790.07202 1814.4847 19
-601.77838 791.88617 1818.6512 19
-589.50165 789.87762 1814.0383 19
-579.58289 791.01263 1816.645 19
-569.0766 791.37354 1817.4739 18
-560.1496 793.98694 1823.4758 18
-547.70477 791.61865 1818.0369 18
-542.65527 800.05872 1837.4203 18
-531.8916 800.24719 1837.8533 18
-520.62244 799.66711 1836.521 18
-508.50543 797.73218 1832.0773 18
-498.5787 799.22382 1835.5031 18
-488.88342 801.16132 1839.9526 15
-478.11771 801.39313 1840.4849 14
-467.35437 801.63971 1841.0511 14
-457.72031 803.88141 1846.1995 14
-445.97699 802.43781 1842.884 14
-435.40402 803.0802 1844.3596 17
-425.185 804.4256 1847.4492 18
-415.53232 806.94171 1853.2278 19
-405.69412 809.22449 1858.4705 19
-393.10175 805.98767 1851.0367 19
-381.80264 805.29266 1849.4407 19
-374.06183 812.28363 1865.4961 19
-364.12238 814.78064 1871.2307 19
-353.7395 816.41095 1874.9751 19
-343.60873 818.74792 1880.342 19
-327.28619 805.99323 1851.0496 19
-309.93451 789.73163 1813.703 19
-316.32687 834.97632 1917.6123 19
-305.78049 837.21539 1922.7546 19
-294.86279 838.57184 1925.8699 19
-284.63416 842.07611 1933.9178 19
-274.50928 846.19415 1943.3754 19
-264.06998 849.66125 1951.338 18
-252.3501 849.1369 1950.1337 17
-241.37837 851.2005 1954.8729 18
-229.80237 851.23389 1954.9495 18
-217.22569 847.36719 1946.0692 18
-205.87532 848.11877 1947.7955 18
-194.68266 849.64795 1951.3074 18
-183.50589 851.44397 1955.4321 18
-172.35835 853.62701 1960.4457 18
-161.27431 856.46271 1966.9581 18
-150.24881 860.0755 1975.2552 19
-138.95224 862.61591 1981.0896 19
-126.99595 861.15167 1977.7268 19
-116.10872 867.37592 1992.0216 19
-104.91969 872.49951 2003.7885 19
-93.305367 874.94281 2009.3995 19
-81.375526 874.70935 2008.8635 19
-68.827065 866.60693 1990.2554 19
-57.808781 878.40424 2017.3492 19
-45.854622 878.42499 2017.3969 19
-34.012615 881.36652 2024.1525 19
-22.047577 882.58832 2026.9584 19
-10.01185 880.51813 2022.204 19
1.9623801 876.151 2012.1744 19
14.014322 884.18683 2030.6296 19
26.338152 894.02679 2053.228 19
38.790066 900.6217 2068.374 19
51.137501 902.20624 2072.0129 19
63.67786 905.92181 2080.5461 19
76.681335 913.95172 2098.9878 19
89.143867 914.19244 2099.5408 19
101.81799 916.2785 2104.3315 19
115.27104 924.15405 2122.4185 19
130.77145 945.27936 2170.9351 19
146.83774 966.34436 2219.313 19
161.35823 974.60931 2238.2944 19
176.61185 985.71039 2263.7893 19
189.16051 981.21295 2253.4604 19
203.73085 987.10394 2266.9897 19
219.24425 996.55255 2288.6895 19
221.28203 947.21674 2175.3845 19
248.49443 1005.1426 2308.4175 19
260.95663 1000.4731 2297.6934 19
276.03143 1005.7864 2309.8958 20
288.93121 1003.0468 2303.604 19
308.93652 1024.1088 2351.9753 19
318.49622 1010.2205 2320.0793 19
334.26694 1016.3669 2334.1951 19
351.6553 1026.7478 2358.0361 19
365.15366 1025.4115 2354.967 19
381.64963 1032.2815 2370.7446 19
392.61255 1024.2292 2352.252 19
412.28989 1038.6835 2385.4478 19
425.94751 1037.5166 2382.7678 19
442.90198 1044.1974 2398.1108 19
458.71118 1047.8467 2406.4917 19
469.25397 1039.6082 2387.5713 19
555.94165 1195.6096 2745.8452 19
568.31598 1187.4646 2727.1394 19
580.7511 1179.8936 2709.7517 19
527.02246 1041.9241 2392.8901 19
543.12952 1045.6327 2401.4072 19
557.64893 1046.1732 2402.6487 19
572.01495 1046.4064 2403.1841 19
586.3645 1046.5988 2403.6257 19
602.58063 1050.0347 2411.5166 19
619.66028 1054.781 2422.4175 19
696.54993 1158.8157 2661.344 19
710.72638 1156.2205 2655.384 18
720.53198 1146.7811 2633.7056 19
733.37817 1142.4789 2623.825 19
703.05426 1072.4999 2463.1106 19
711.5625 1063.4006 2442.2131 19
725.97906 1063.3177 2442.0229 19
863.86694 1240.5482 2849.0515 19
757.09149 1066.3722 2449.0378 18
778.02502 1075.2449 2469.4148 18
791.56366 1073.7585 2466.0012 18
809.6189 1078.3419 2476.5273 18
823.68195 1077.5396 2474.6848 18
838.13666 1077.2686 2474.0625 18
853.9704 1078.7489 2477.4622 18
865.87512 1075.3 2469.5415 18
885.68231 1081.6165 2484.0476 18
904.39606 1086.4127 2495.0627 18
912.37018 1078.3611 2476.5715 18
922.63391 1073.2279 2464.7825 18
939.40601 1075.7073 2470.4768 18
955.43835 1077.2766 2474.0808 18
961.84137 1068.1052 2453.0178 18
972.62067 1063.9945 2443.5769 18
982.29791 1058.8163 2431.6848 18
991.40601 1053.1832 2418.748 18
996.10217 1043.0908 2395.5696 18
984.95044 1016.9197 2335.4646 18
996.84497 1014.9385 2330.9146 18
1011.3384 1015.6212 2332.4827 18
1028.0084 1018.4421 2338.9609 18
1039.9604 1016.5757 2334.6748 18
1047.0708 1010.0878 2319.7747 18
1037.5634 987.94501 2268.9214 18
1044.4933 981.8197 2254.854 17
1054.8031 978.98633 2248.3467 17
1052.9597 965.08459 2216.4199 16
1050.3635 950.84387 2183.7146 16
1052.599 941.27045 2161.7283 196622
1060.9031 937.28888 2152.584 196617
1060.6184 925.90405 2126.4375 327684
1063.7847 917.76355 2107.7422 852996
1081.9357 922.59021 2118.8269 4929842
1101.6525 928.62573 2132.6882 6508609
1114.7341 928.99487 2133.5359 8152403
1124.9624 927.00439 2128.9646 8678745
1130.619 921.3327 2115.939 8481107
1147.7889 925.06445 2124.5095 8612949
1169.2051 932.10065 2140.6687 7099199
1172.3135 924.54712 2123.3213 8809817
1192.1942 930.24109 2136.3982 8875610
1205.4146 930.67328 2137.3906 8414802
1205.5754 921.11829 2115.4465 8284243
1226.9519 927.80286 2130.7983 8350036
1233.5503 923.29004 2120.4343 8152657
1247.4711 924.29376 2122.7395 8283989
1269.1118 930.94031 2138.0039 8481368
1289.2867 936.39087 2150.5217 8349525
1283.8978 923.34967 2120.5713 8415575
1301.6926 927.073 2129.1223 8218196
1307.5858 922.32983 2118.229 7691852
1318.2205 920.98956 2115.1509 8086866
1325.1923 917.13947 2106.3088 7955024
1340.5532 919.1131 2110.8413 8151889
1353.959 919.72198 2112.2397 8020047
1365.4309 919.01825 2110.6235 8743513
1379.8854 920.31641 2113.605 8809306
1407.1143 930.03455 2135.9236 9204320
1414.5664 926.62445 2128.092 8348755
1420.214 922.10284 2117.7078 8414804
1425.6626 917.53265 2107.2117 8086095
1436.3521 916.38525 2104.5767 8677977
1461.3024 924.27777 2122.7026 8217426
1467.4729 920.25861 2113.4722 8743513
1488.3914 925.47772 2125.4585 8546391
1497.2252 923.15808 2120.1311 8283218
1508.7798 922.54065 2118.7131 7560009
1529.621 927.56476 2130.2517 7889231
1548.4578 931.30127 2138.8328 8020560
1563.5315 932.73206 2142.1189 7955024
1578.5634 934.11511 2145.2952 8217939
1587.9969 932.18982 2140.8735 7955023
1609.9128 937.56427 2153.2166 8152403
1601.8379 925.52582 2125.5688 8086610
1637.9146 938.98651 2156.4829 7823438
1645.7068 936.14935 2149.967 7362887
1651.4232 932.18408 2140.8604 7362887
1660.9836 930.43262 2136.8379 7757645
1670.9873 928.95392 2133.4419 7889230
1682.3832 928.26575 2131.8616 7888718
1692.6959 926.99457 2128.9421 7822668
1701.0813 924.69458 2123.6599 7888718
1713.3751 924.53723 2123.2986 6639420
1720.7395 921.7417 2116.8784 7494473
1741.7644 926.25128 2127.2351 8283734
1752.046 925.0238 2124.416 7428423
1778.6287 932.35883 2141.2617 7889231
1767.6644 920.04736 2112.9871 7626059
1772.7833 916.22125 2104.2 7691852
1786.9102 917.07159 2106.1528 7626059
1795.1198 914.89447 2101.1528 7955024
1804.0956 913.13501 2097.1121 8086610
1826.2604 918.0296 2108.353 8481368
1833.2257 915.2691 2102.0132 7757901
1839.5492 912.22748 2095.0278 8153172
1866.4486 919.36182 2111.4126 7823950
1878.3965 919.08539 2110.7778 7692108
1893.4735 920.33362 2113.6445 7297606
1898.8337 916.8736 2105.6982 7297607
1907.9756 915.27289 2102.022 8087122
1922.1432 916.08813 2103.8943 7758414
1943.9839 920.52631 2114.0869 8087123
1960.3964 922.35358 2118.2837 8481624
1983.3162 927.19983 2129.4136 8284245
1998.6012 928.43823 2132.2576 7823439
2013.2388 929.36212 2134.3794 7955026
2025.6826 929.26813 2134.1636 7955026
2041.5123 930.71893 2137.4954 8086869
0 0 0 0
0 0 0 0
0 0 0 0
0 0 0 0
0 0 0 0
0 0 0 0
0 0 0 0
0 0 0 0
0 0 0 0
0 0 0 0
0 0 0 0
-1702.9901 863.75049 1957.0593 19
-1689.963 863.02063 1955.4056 18
-1666.7451 857.04065 1941.8563 17
-1660.5657 859.79956 1948.1074 18
-1639.7732 854.97784 1937.1826 18
-1633.8231 857.88147 1943.7616 19
-1618.4231 855.82935 1939.1119 19
-1618.9437 862.22687 1953.6072 19
-1609.3878 863.31128 1956.0642 19
-1592.9891 860.71423 1950.1798 19
-1577.0598 858.33459 1944.7882 19
-1550.064 849.85248 1925.5698 19
-1549.4669 855.82574 1939.1036 19
-1529.0634 850.86646 1927.8671 19
-1522.3354 853.49988 1933.8339 19
-1525.4645 861.74139 1952.5073 19
-1423.9036 810.51715 1836.4449 19
-1479.5206 848.66205 1922.8726 19
-1472.0541 850.93323 1928.0183 19
-1468.213 855.35193 1938.0303 19
-1456.3231 855.11432 1937.4918 19
-1449.1671 857.67462 1943.2928 19
-1442.4445 860.53448 1949.7726 19
-1417.6503 852.57227 1931.7322 19
-1345.3888 815.70142 1848.1912 19
-1398.7583 855.01959 1937.2772 19
-1378.6882 849.72571 1925.2826 19
-1373.5305 853.61108 1934.0859 19
-1362.0117 853.57544 1934.005 19
-1345.594 850.44287 1926.9073 19
-1328.6604 846.92792 1918.9434 19
-1319.6843 848.46844 1922.4337 19
-1301.4851 844.05414 1912.4321 19
-1283.1224 839.45551 1902.0125 19
-1279.075 844.22369 1912.8162 19
-1249.834 832.30005 1885.8 19
-1251.0488 840.62567 1904.6639 19
-1198.4271 812.59882 1841.1615 19
-1175.6561 804.48328 1822.7734 19
-1172.7321 809.92407 1835.1012 19
-1164.6548 811.87457 1839.5205 18
-1153.0353 811.36926 1838.3755 18
-1133.4392 805.18774 1824.3698 18
-1129.5332 810.14069 1835.5919 18
-1108.0935 802.49194 1818.2616 18
-1107.219 809.7326 1834.6674 18
-1088.1432 803.67407 1820.9399 18
-1079.0547 804.94421 1823.8179 18
-1062.6359 800.71661 1814.2391 18
-1055.5026 803.47089 1820.4797 18
-1039.8524 799.73181 1812.0079 18
-1037.7051 806.40796 1827.1345 18
-1055.4718 828.86359 1878.0137 18
-1013.8407 804.6554 1823.1635 18
-1035.5731 830.75702 1882.3037 18
-1022.1716 828.93512 1878.1758 18
-972.65967 797.4668 1806.8759 18
-958.53314 794.63281 1800.4546 18
-943.68085 791.12653 1792.5101 18
-947.06238 803.00061 1819.4142 18
-929.89331 797.52295 1807.0029 18
-920.93103 799.03821 1810.4363 18
-911.20465 799.91833 1812.4304 18
-897.23676 797.05157 1805.9352 18
-890.01648 800.18231 1813.0284 18
-871.94598 793.51526 1797.9224 18
-861.83551 794.01666 1799.0586 18
-848.57019 791.58789 1793.5555 18
-842.46399 795.86041 1803.2361 18
-834.51843 798.48285 1809.178 18
-820.36987 795.16125 1801.6519 18
-800.74512 786.37396 1781.7421 18
-789.34772 785.53967 1779.8517 18
-778.32977 785.06537 1778.7771 18
-762.96912 780.13776 1767.6122 18
-757.03223 784.84277 1778.2727 18
-742.98474 781.1535 1769.9137 18
-742.68457 792.01898 1794.5323 18
-721.94482 781.08618 1769.7612 18
-708.65485 778.00995 1762.7911 18
-699.08173 778.9834 1764.9967 18
-690.27063 780.84839 1769.2224 18
-694.10272 797.29376 1806.4838 18
-680.44678 793.85175 1798.6848 18
-673.46655 798.21228 1808.5651 18
-660.54797 795.56189 1802.5598 18
-641.42432 785.22809 1779.1458 18
-638.01819 794.11182 1799.2742 18
-632.83887 801.05298 1815.0012 18
-619.50684 797.7359 1807.4856 19
-611.89819 801.80176 1816.6979 19
-600.41809 800.84949 1814.5402 19
-590.87531 802.49365 1818.2655 19
-581.3999 804.29205 1822.3402 19
-571.20416 805.14319 1824.2688 18
-572.67133 822.78375 1864.2383 19
-548.79834 803.99487 1821.667 19
-544.51605 813.72845 1843.7209 18
-527.49872 804.43945 1822.6743 18
-518.22272 806.81458 1828.0558 18
-507.37674 806.79468 1828.0106 18
-498.19485 809.47778 1834.0898 18
-490.00018 813.92041 1844.1558 16
-480.22968 815.88824 1848.6146 16
-488.55029 849.40173 1924.5483 14
-456.6539 812.92395 1841.8982 14
-452.33652 824.9574 1869.1631 14
-437.55576 818.03308 1853.4744 16
-431.09351 826.70459 1873.1219 18
-415.70007 818.25446 1853.976 19
-406.59491 822.05939 1862.5969 19
-394.90298 820.70068 1859.5184 19
-384.58484 822.20099 1862.9177 19
-374.37076 824.01892 1867.0369 19
-364.53497 826.80573 1873.3511 19
-354.74619 829.87744 1880.3109 19
-342.93243 828.25781 1876.6411 19
-334.24554 834.33472 1890.41 19
-321.38385 830.0506 1880.7032 19
-310.98285 832.04248 1885.2163 19
-301.5303 836.81482 1896.0294 19
-295.33566 851.34814 1928.9584 19
-285.94946 857.48108 1942.8544 19
-275.41748 860.54865 1949.8048 19
-259.89032 847.59406 1920.4525 19
-252.58627 861.49933 1951.9587 18
-240.42171 859.36591 1947.125 18
-230.05803 863.77911 1957.1243 18
-218.66727 864.59985 1958.9839 18
-206.73814 863.26465 1955.9586 18
-196.18022 867.83661 1966.3175 18
-184.69012 868.60181 1968.0514 18
-173.54303 871.19214 1973.9204 18
-161.35278 868.54175 1967.9153 18
-150.59521 873.79114 1979.8092 19
-138.91249 874.10608 1980.5228 19
-126.89795 872.19849 1976.2006 19
-116.73307 883.90869 2002.7333 19
-105.48972 889.1792 2014.6749 19
-92.967247 883.63708 2002.1179 19
-81.239937 885.13708 2005.5165 19
-69.586357 888.09204 2012.2117 19
-57.682873 888.42029 2012.9554 19
-43.604031 846.67969 1918.3809 19
-33.590969 882.28729 1999.0594 19
-21.887934 888.12286 2012.2815 19
-10.10575 900.87274 2041.1698 19
1.9973332 903.89362 2048.0144 19
14.173401 906.39392 2053.6797 19
26.38456 907.79144 2056.8459 19
38.694191 910.62305 2063.2617 19
50.936966 910.89935 2063.8877 19
63.334766 913.30402 2069.3362 19
75.927582 917.28455 2078.3552 19
89.552216 930.87946 2109.1582 19
102.35352 933.63403 2115.3994 19
116.97715 950.59644 2153.8323 19
131.57274 964.01562 2184.2371 19
142.79929 952.55756 2158.2756 19
161.839 990.81738 2244.9636 19
170.65971 965.45386 2187.4956 19
191.41791 1006.4363 2280.3525 19
203.48521 999.33221 2264.2563 19
222.71837 1026.1221 2324.9558 19
236.63895 1026.7399 2326.3557 19
246.43993 1010.3995 2289.332 19
261.52475 1016.2974 2302.6956 19
280.647 1036.5221 2348.52 19
295.18698 1038.7113 2353.4802 19
309.1658 1038.8174 2353.7207 19
324.7829 1044.1815 2365.8745 19
341.58966 1052.7682 2385.3298 19
354.37476 1048.7703 2376.2715 19
371.65118 1057.8621 2396.8713 19
383.21213 1050.6147 2380.4507 19
396.65649 1048.8625 2376.4805 19
411.59741 1051.0519 2381.4412 19
432.10651 1066.8436 2417.2214 19
445.93802 1065.6643 2414.5496 19
459.45987 1063.8414 2410.4194 19
517.10822 1161.219 2631.0544 19
494.45428 1077.8473 2442.1536 19
566.21289 1199.1722 2717.0476 19
578.953 1192.2493 2701.3618 19
584.32715 1170.9384 2653.0762 19
598.5509 1168.0133 2646.4487 19
618.33838 1175.8175 2664.1311 19
634.19177 1175.9384 2664.405 19
650.6629 1177.171 2667.198 19
666.32947 1176.9241 2666.6384 19
681.71307 1176.2003 2664.9985 19
640.16382 1079.5038 2445.9067 19
711.72906 1173.6102 2659.1301 18
669.6153 1080.2484 2447.5938 18
685.48071 1082.3966 2452.4612 18
705.39771 1090.7203 2471.3208 18
718.18353 1087.9032 2464.9377 18
842.95746 1251.4561 2835.5107 18
863.53455 1256.9484 2847.9551 18
770.36462 1099.8356 2491.9736 18
780.85229 1093.8397 2478.3884 18
791.97125 1088.9331 2467.2712 18
809.62915 1093.0321 2476.5588 18
833.12537 1104.7271 2503.0566 18
847.96381 1104.7333 2503.0708 18
907.23279 1161.6287 2631.9824 18
884.54352 1113.4342 2522.7852 18
897.40582 1110.8494 2516.9282 18
906.66699 1103.9641 2501.3279 18
929.396 1113.4351 2522.7871 18
939.24268 1107.4174 2509.1523 18
948.43237 1100.8246 2494.2146 18
962.40186 1099.8969 2492.1125 18
967.61578 1089.1421 2467.7446 18
975.23401 1081.3733 2450.1426 18
985.61261 1076.8485 2439.8904 18
989.40887 1065.3668 2413.8755 18
986.27985 1046.8618 2371.9473 18
1003.0751 1049.7278 2378.4409 18
1009.9546 1042.2811 2361.5686 18
1018.7736 1037.0123 2349.6306 18
1028.0659 1032.3608 2339.0916 18
1029.4498 1019.9974 2311.0789 18
1034.2798 1011.3281 2291.4363 18
1037.2523 1001.0909 2268.2412 18
1043.8586 994.57794 2253.4841 18
1042.4135 980.65485 2221.9377 18
1054.4104 979.5672 2219.4734 15
1050.0311 963.48004 2183.0234 16
1052.8174 954.2793 2162.1768 14
1056.693 946.27539 2144.0417 131084
1057.6086 935.84241 2120.4031 196618
1064.0814 930.5141 2108.3303 327685
1075.4623 929.55157 2106.1494 1377800
1091.5504 932.63318 2113.1316 3286046
1096.6903 926.39661 2099.001 5521719
1106.5642 924.25409 2094.1465 7561297
1128.6218 932.22253 2112.2012 7955025
1139.8835 931.19672 2109.877 7559750
1151.6278 930.58319 2108.4868 8283472
1158.238 925.87878 2097.8276 7493956
1176.1189 930.18805 2107.5916 9072987
1184.9371 927.31451 2101.0808 8875610
1201.3735 930.40063 2108.0732 8547415
1214.1824 930.64288 2108.6221 8086863
1225.6381 929.85352 2106.8335 7757645
1234.2867 926.97186 2100.3044 8678747
1243.8466 924.82538 2095.4409 8678747
1258.3572 926.36584 2098.9314 8349782
1264.4274 921.72339 2088.4126 8349782
1281.5293 925.13483 2096.1421 8152403
1279.3824 914.71844 2072.541 9073505
1308.2255 926.44611 2099.1133 7691338
1309.9994 918.96411 2082.1606 8217170
1324.025 920.13599 2084.8159 8151376
1341.7603 923.84045 2093.2092 8480598
1352.256 922.53796 2090.2583 8020047
1364.5673 922.48657 2090.1418 8874841
1378.2299 923.34143 2092.0786 8546132
1393.0383 924.94177 2095.7048 8611924
1405.3187 924.85022 2095.4973 8875096
1414.1376 922.50214 2090.177 8348754
1417.5941 916.72705 2077.092 7888460
1440.0662 923.24243 2091.8545 7427910
1455.7458 925.32928 2096.5828 8217426
1471.3351 927.32367 2101.1016 8480597
1489.3068 930.77356 2108.9182 8349012
1495.6851 926.98077 2100.3247 8349269
1512.1023 929.42114 2105.854 7560009
1529.0029 932.11627 2111.9604 7757645
1545.9066 934.76947 2117.9719 7955023
1564.0159 938.10297 2125.5249 8021071
1579.3414 939.72687 2129.2043 8086610
1596.8643 942.62219 2135.7644 8349782
1603.118 938.87207 2127.2676 7954767
1615.8561 938.94849 2127.4407 7823181
1628.2668 938.83484 2127.1833 7428680
1642.0814 939.52637 2128.75 7297094
1642.1572 932.40631 2112.6177 7823438
1660.2716 935.55896 2119.7607 7757645
1674.8844 936.70581 2122.3591 8349782
1677.2439 931.03375 2109.5078 8020817
1690.1925 931.28015 2110.0659 7692108
1701.1227 930.41901 2108.1147 7691596
1714.2581 930.7677 2108.905 7164997
1724.1589 929.36786 2105.7332 7823440
1730.0516 925.8432 2097.7471 7691597
1742.9069 926.06824 2098.2571 7560011
1752.5641 924.60291 2094.9368 7494473
1761.8663 922.97223 2091.2422 7823437
1771.2555 921.40948 2087.7014 8020560
1767.5104 913.08344 2068.8364 8547160
1779.861 913.12976 2068.9414 7955024
1794.0181 914.09589 2071.1304 8283989
1810.861 916.40802 2076.3691 8152403
1823.2377 916.44403 2076.4509 8087123
1839.9252 918.63184 2081.408 7889487
1852.7407 918.87036 2081.9482 7889743
1863.7678 918.2243 2080.4846 7823951
1877.8269 919.07092 2082.4028 7889743
1890.3728 919.17078 2082.6289 7363400
1895.4413 915.65698 2074.6675 7757901
1915.2209 919.24939 2082.8071 7955537
1934.1465 922.38849 2089.9197 8284502
1955.8905 926.82324 2099.9678 8350295
1969.1708 927.21674 2100.8591 8218708
1985.755 929.15106 2105.2419 7955283
2000.2655 930.09705 2107.3853 7757391
2018.0636 932.55042 2112.9441 7823183
0 0 0 0
0 0 0 0
0 0 0 0
0 0 0 0
0 0 0 0
0 0 0 0
0 0 0 0
0 0 0 0
0 0 0 0
0 0 0 0
0 0 0 0
-1683.1372 865.14386 1934.2445 19
-1669.2402 863.88403 1931.4279 19
-1656.7957 863.36383 1930.2646 19
-1647.1667 864.31366 1932.3883 19
-1638.833 865.96124 1936.0719 19
-1632.489 868.69073 1942.1744 19
-1604.0979 859.64398 1921.9481 19
-1614.9042 871.62402 1948.7325 19
-1589.7806 864.24432 1932.2334 19
-1580.8335 865.6153 1935.2985 19
-1565.8997 863.70416 1931.0258 19
-1554.3228 863.63019 1930.8604 19
-1539.2374 861.59119 1926.3016 19
-1535.0623 865.67438 1935.4305 19
-1527.4047 867.84039 1940.2732 19
-1517.6431 868.83472 1942.4963 19
-1504.6913 868.00403 1940.639 19
-1492.4612 867.57996 1939.6909 19
-1475.5249 864.3924 1932.5643 19
-1469.6208 867.66833 1939.8885 19
-1452.7896 864.49359 1932.7906 19
-1436.3785 861.52057 1926.1437 19
-1400.2045 846.55133 1892.6761 19
-1356.9536 827.02716 1849.025 19
-1333.1346 819.12469 1831.3573 19
-1369.5853 848.42834 1896.8728 19
-1307.204 816.48596 1825.4576 19
-1303.5781 821.01575 1835.5851 19
-1302.3219 827.12683 1849.2479 19
-1332.1857 853.27405 1907.7067 19
-1321.4736 853.65741 1908.5636 19
-1305.8759 850.86401 1902.3184 19
-1287.6084 846.26733 1892.0414 19
-1287.7429 853.79059 1908.8615 19
-1274.0085 852.17059 1905.2394 19
-1261.0936 851.07458 1902.7891 19
-1251.7002 852.35669 1905.6556 19
-1221.1123 839.09821 1876.0129 19
-1214.0046 841.87915 1882.2303 19
-1146.9381 802.74603 1794.7386 19
-1150.3593 812.67682 1816.9413 18
-1199.6237 855.48743 1912.6552 18
-1187.5814 854.97809 1911.5165 18
-1120.1062 814.16663 1820.2721 18
-1109.114 814.0163 1819.936 18
-1102.4301 817.05597 1826.7322 18
-1092.2383 817.53046 1827.7928 18
-1072.3788 810.70563 1812.5342 18
-1065.3048 813.50629 1818.7958 18
-1054.0703 813.1546 1818.0095 18
-1041.3715 811.65417 1814.655 18
-1037.2805 816.90161 1826.387 17
-1015.2606 807.99109 1806.4653 16
-1014.6368 816.10004 1824.5948 16
-990.96722 805.64777 1801.2261 15
-989.2597 813.01721 1817.7023 18
-979.0072 813.44897 1818.6676 18
-933.14709 783.97485 1752.7709 18
-946.60413 804.23297 1798.063 18
-945.95129 812.82812 1817.2797 18
-931.18958 809.35834 1809.522 18
-918.16486 807.33496 1804.9983 18
-907.49152 807.35571 1805.0448 18
-899.00208 809.34332 1809.4885 18
-886.03168 807.2959 1804.911 18
-875.28308 807.24774 1804.8032 18
-864.54596 807.20905 1804.7167 18
-849.2995 802.90631 1795.0969 18
-830.67621 795.26154 1778.0051 18
-819.6543 794.7912 1776.9536 18
-826.82385 812.17792 1815.8259 18
-811.65399 807.78992 1806.0155 18
-804.11694 810.98273 1813.1538 18
-779.55688 796.86115 1781.5814 18
-766.92157 794.70862 1776.769 18
-764.07373 802.77948 1794.8134 18
-757.95868 807.59692 1805.584 18
-731.74469 790.83057 1768.0985 18
-706.88757 775.0647 1732.8501 18
-726.17188 807.94629 1806.3651 18
-715.97986 808.52551 1807.66 18
-708.33575 812.04327 1815.5249 18
-685.96851 798.5304 1785.3135 18
-678.39685 802.0874 1793.266 18
-667.78271 802.10321 1793.3014 18
-657.10828 802.0459 1793.1733 18
-642.0899 796.59753 1780.9921 18
-643.33557 811.48181 1814.2698 18
-632.63989 811.55377 1814.4305 18
-617.1181 805.33014 1800.5161 19
-608.28192 807.76575 1805.9614 19
-589.99011 797.50708 1783.0256 19
-588.71802 810.29987 1811.627 19
-578.08301 810.44141 1811.9436 19
-560.0636 800.0401 1788.6887 18
-560.19019 815.65869 1823.608 18
-550.99438 818.05096 1828.9565 18
-535.16602 810.49426 1812.0618 18
-523.99872 809.83185 1810.5808 18
-513.80225 810.67358 1812.4625 18
-504.79514 813.46765 1818.7095 18
-495.85947 816.50146 1825.4922 18
-486.38104 818.75684 1830.5348 16
-478.33282 823.5777 1841.313 15
-471.12024 830.09589 1855.8861 14
-460.68353 831.10925 1858.1516 14
-447.79663 827.64343 1850.4031 14
-440.10352 833.8443 1864.2666 16
-425.84357 827.60217 1850.3107 18
-418.77896 835.3833 1867.7074 19
-408.23132 836.45044 1870.0933 19
-396.38055 834.83252 1866.476 19
-387.90106 840.4259 1878.9814 19
-374.87234 836.20227 1869.5383 19
-364.96265 838.89056 1875.5488 19
-356.647 845.52704 1890.3862 19
-345.28906 845.14734 1889.5374 19
-335.27988 848.15417 1896.2598 18
-324.35144 848.96356 1898.0693 19
-313.5777 850.25049 1900.9465 20
-303.63022 853.95703 1909.2336 19
-292.73831 855.19171 1911.994 19
-281.4386 855.28644 1912.2058 19
-271.26831 858.96545 1920.431 19
-261.21631 863.35767 1930.251 19
-249.51997 862.46832 1928.2627 19
-238.34549 863.38416 1930.3102 18
-227.34315 865.0473 1934.0287 18
-218.32681 874.84509 1955.934 18
-206.80899 875.15582 1956.6288 18
-197.08345 883.53857 1975.3704 18
-184.12265 877.56024 1962.0044 18
-173.10919 880.68286 1968.9858 18
-161.63199 881.72717 1971.3207 18
-149.92209 881.5658 1970.9598 19
-138.79953 885.12274 1978.9122 19
-128.37708 894.21277 1999.2352 19
-116.36886 892.98254 1996.4847 19
-105.42468 900.56299 2013.4327 19
-93.236046 898.09125 2007.9066 19
-81.325478 897.96667 2007.6281 19
-69.532471 899.31989 2010.6534 19
-57.702694 900.65887 2013.6471 19
-45.897892 903.1875 2019.3005 19
-33.989098 904.73175 2022.7529 19
-22.020632 905.50476 2024.4812 19
-10.02755 905.90448 2025.375 19
1.9565885 897.34399 2006.2358 19
14.075414 912.21393 2039.4814 19
26.423851 921.35059 2059.9087 19
38.726257 923.61517 2064.9717 19
50.831707 921.2226 2059.6226 19
63.463226 927.4447 2073.5334 19
76.724136 939.35376 2100.1592 19
89.309471 940.82172 2103.4412 19
102.66019 949.00525 2121.7375 19
116.2439 957.3219 2140.3313 19
134.59093 999.37085 2234.3423 19
141.4084 955.94543 2137.2539 19
154.99765 961.67468 2150.0632 19
172.52594 989.11676 2211.4167 19
191.06221 1018.0549 2276.1152 19
205.3154 1021.8596 2284.6216 19
217.90761 1017.4382 2274.7363 19
233.27667 1025.7421 2293.3018 19
245.98283 1022.0673 2285.0857 19
259.29971 1021.181 2283.1042 19
276.3508 1034.3596 2312.5684 19
291.87277 1040.8398 2327.0566 19
305.07352 1038.8312 2322.5657 19
319.88388 1042.2404 2330.1877 19
335.63629 1048.3097 2343.7573 19
353.91733 1061.4807 2373.2043 19
365.37064 1053.9495 2356.3665 19
384.24338 1067.587 2386.8567 19
392.93256 1052.9667 2354.1692 19
392.522 1015.7999 2271.0735 19
430.64749 1077.5181 2409.0598 19
441.82263 1070.0068 2392.2666 19
455.05701 1067.7947 2387.321 19
470.22156 1070.1088 2392.4944 19
489.46942 1081.3079 2417.533 19
504.40247 1082.609 2420.4419 19
512.94086 1070.4927 2393.353 19
580.96069 1179.8243 2637.791 19
595.93762 1178.5287 2634.8943 19
612.33264 1180.032 2638.2554 19
632.94653 1189.3882 2659.1733 19
589.61243 1081.0425 2416.9397 19
665.13538 1190.5896 2661.8594 19
681.71783 1192.002 2665.0171 19
697.0979 1191.2955 2663.4377 19
712.64044 1190.8918 2662.5352 19
727.23535 1188.9563 2658.208 19
681.43567 1090.4574 2437.989 19
697.06067 1092.3016 2442.1123 19
713.73444 1095.681 2449.6677 19
834.10822 1254.9459 2805.7441 19
740.56549 1092.4307 2442.4006 19
756.28992 1094.2395 2446.4448 18
899.75104 1277.3202 2855.7673 18
781.71057 1089.2571 2435.3054 18
801.10303 1096.0437 2450.4785 18
810.29138 1088.8762 2434.4539 18
830.29712 1096.2417 2450.9211 18
844.39398 1095.6866 2449.6802 18
866.05225 1104.796 2470.0466 18
878.88477 1102.531 2464.9827 18
897.27441 1107.1975 2475.4155 18
908.88885 1103.4878 2467.1218 18
933.48962 1115.4128 2493.7832 18
930.34387 1094.3291 2446.645 17
942.30774 1091.3923 2440.0793 17
955.35272 1089.7777 2436.4695 17
966.63428 1086.2297 2428.5369 18
976.86298 1081.62 2418.2307 18
988.10126 1078.245 2410.6853 18
994.33838 1069.5869 2391.3276 18
1000.2294 1060.8048 2371.6934 18
1005.3191 1051.4282 2350.7295 18
1014.3423 1046.3656 2339.4106 18
1018.5015 1036.4895 2317.3303 18
1029.4498 1033.6934 2311.0789 18
1033.8796 1024.5111 2290.5498 18
1036.9969 1014.2833 2267.6826 18
1043.7463 1007.8242 2253.2417 17
1042.3647 993.77612 2221.834 18
1054.2897 992.60675 2219.2195 15
1050.1245 976.50403 2183.2178 16
1053.0026 967.26294 2162.5571 14
1055.4757 957.87671 2141.5718 65550
1057.4855 948.29791 2120.156 65550
1062.5649 941.66461 2105.3257 262155
1068.2102 935.68073 2091.9473 327685
1077.97 933.39703 2086.8413 1246987
1082.819 926.96106 2072.4521 2824724
1093.7352 925.80518 2069.8679 4140319
1114.4254 932.85645 2085.6328 6836797
1119.5247 926.8454 2072.1936 7296575
1129.6798 925.1051 2068.3027 7164991
1137.2642 921.31946 2059.8391 7296578
1161.2692 930.77576 2080.981 7625286
1170.9861 928.70148 2076.3435 7691336
1171.1228 919.15131 2054.9917 8612953
1192.2875 926.13165 2070.5979 8218195
1206.4816 927.61041 2073.9041 8218196
1214.6965 924.50861 2066.9692 8744540
1227.4961 924.92328 2067.8962 8612954
1237.6194 923.33301 2064.3408 8283988
1246.9745 921.2063 2059.5862 8349782
1259.6892 921.57892 2060.4192 8744539
1263.1884 915.26697 2046.3073 8547161
1274.6525 914.79132 2045.2438 8677720
1285.3051 913.7478 2042.9106 8612184
1309.5114 922.26935 2061.9626 8283474
1321.5259 922.12616 2061.6426 8283472
1340.214 926.59967 2071.6443 8283472
1355.1311 928.40845 2075.6882 8677461
1368.9916 929.46729 2078.0554 8874840
1385.2507 932.12122 2083.989 8742997
1391.5812 928.10638 2075.0129 7163965
1400.7197 926.01843 2070.3447 6967099
1411.3518 924.94537 2067.9458 7691082
1420.7585 923.09473 2063.8081 8152146
1436.1992 925.16266 2068.4314 7888461
1449.4557 925.80042 2069.8574 8020047
1466.3427 928.72687 2076.4001 7625289
1469.4597 922.95593 2063.4978 7888461
1496.7231 932.32111 2084.436 8283732
1515.4126 936.23602 2093.1887 7428679
1523.2274 933.42328 2086.9001 7691850
1540.8083 936.59247 2093.9856 7560008
1556.0775 938.31677 2097.8408 7230786
1573.9216 941.55432 2105.0791 7691337
1588.5137 942.81079 2107.8882 7625543
1603.8909 944.50995 2111.6873 7626058
1616.2104 944.39606 2111.4326 7165253
1617.7867 938.05475 2097.2549 6638652
1626.1903 935.73859 2092.0767 6506810
1618.9172 924.505 2066.9612 7822668
1630.7465 924.26703 2066.429 7493959
1645.5403 925.70026 2069.6333 8218195
1664.2418 929.29431 2077.6687 8152659
1674.9714 928.41675 2075.7068 8217682
1684.7291 927.01727 2072.5779 8086610
1703.33 930.46881 2080.2947 7954768
1714.6855 929.94128 2079.1152 7757647
1717.3043 924.7168 2067.4346 7428682
1738.1268 929.29895 2077.6792 7033924
1736.9436 922.13397 2061.6602 7888976
1743.5085 919.15393 2054.9973 7823439
1748.6272 915.45789 2046.7341 8086612
1755.8185 912.89056 2040.994 7823440
1775.1055 916.604 2049.2964 8349784
1780.2031 912.98993 2041.2163 8086355
1805.261 919.59229 2055.9775 8481883
1817.1345 919.43512 2055.6262 7297353
1823.5127 916.51807 2049.1042 7363402
1835.5262 916.45312 2048.9592 7494987
1852.132 918.66693 2053.9087 7034435
1872.0024 922.46057 2062.3901 7889743
1880.4799 920.6272 2058.2913 7692365
1887.7296 918.22046 2052.9104 7429195
1874.3007 905.8504 2025.254 7758161
1917.134 920.65631 2058.3564 8152917
1935.5947 923.64471 2065.0376 8152917
1951.0509 925.17072 2068.4495 8152917
1966.1023 926.48712 2071.3926 7955539
1996.1058 934.78918 2089.9541 7494475
0 0 0 0
0 0 0 0
0 0 0 0
0 0 0 0
0 0 0 0
0 0 0 0
0 0 0 0
0 0 0 0
0 0 0 0
0 0 0 0
-1737.6404 898.87115 1983.3715 19
-1738.5665 905.4751 1997.9432 19
-1716.551 900.1394 1986.1698 19
-1701.3605 898.33356 1982.1853 19
-1620.9564 861.82983 1901.6394 19
-1689.7341 904.68738 1996.2051 19
-1669.7067 900.26746 1986.4525 19
-1585.5083 860.93964 1899.675 19
-1649.6655 902.18329 1990.6797 19
-1642.3398 904.64624 1996.1144 19
-1607.6003 891.93518 1968.0673 19
-1610.6248 900.1438 1986.1797 19
-1597.5349 899.401 1984.5406 19
-1591.1338 902.44086 1991.2482 19
-1573.2172 898.94611 1983.5369 19
-1571.4525 904.69745 1996.2274 19
-1559.0837 904.38507 1995.5381 19
-1540.5776 900.48053 1986.9226 19
-1517.5043 893.82562 1972.2385 19
-1517.386 900.69312 1987.3917 19
-1491.9401 892.51648 1969.3499 19
-1492.8783 900.1189 1986.1248 19
-1479.4352 899.10229 1983.8815 19
-1461.4216 895.26941 1975.4242 19
-1443.3212 891.32098 1966.712 19
-1415.4293 881.21234 1944.4072 19
-1425.9495 895.04858 1974.937 19
-1411.0386 893.01892 1970.4586 19
-1405.0629 896.65753 1978.4871 19
-1384.4264 890.92261 1965.833 19
-1373.7909 891.58112 1967.2859 19
-1364.7761 893.31152 1971.1042 19
-1348.3311 890.16638 1964.1643 19
-1330.1327 885.79889 1954.5273 19
-1316.5278 884.44055 1951.5303 19
-1318.7214 893.76562 1972.1062 19
-1300.4647 889.27332 1962.1937 19
-1284.0492 885.97028 1954.9055 19
-1227.2931 854.51941 1885.5088 18
-1212.5597 852.01825 1879.99 18
-1198.0145 849.60425 1874.6633 18
-1184.514 847.89294 1870.8873 18
-1151.4774 832.03271 1835.8917 18
-1145.1305 835.33948 1843.188 18
-1147.7067 845.28162 1865.1255 18
-1130.0765 840.39056 1854.3334 18
-1119.1139 840.41046 1854.3772 18
-1118.2185 848.06592 1871.269 18
-1141.8129 874.63391 1929.8917 18
-1096.0975 848.11084 1871.3682 18
-1105.0638 863.78827 1905.9606 18
-1098.3706 867.42261 1913.9799 17
-1062.7274 848.03131 1871.1926 16
-1039.9579 838.6123 1850.4095 16
-1028.1349 837.91376 1848.8682 17
-1017.0154 837.77979 1848.5725 17
-1003.2768 835.46173 1843.4578 17
-993.40863 836.35126 1845.4205 18
-981.13617 835.21393 1842.911 18
-970.98718 835.87897 1844.3783 18
-955.62122 832.01691 1835.8567 18
-949.48688 836.19598 1845.0779 18
-937.58746 835.33612 1843.1807 18
-922.8667 831.91272 1835.6268 18
-903.21118 823.90625 1817.9604 18
-890.15631 821.80023 1813.3134 18
-892.23132 833.78137 1839.7499 18
-870.64539 823.67444 1817.449 18
-868.75616 832.18201 1836.2211 18
-849.20758 823.77484 1817.6704 18
-840.64954 825.94995 1822.4698 18
-838.7511 834.81012 1842.0199 18
-826.87018 833.8371 1839.873 18
-814.00232 831.82977 1835.4437 18
-806.27545 835.09277 1842.6437 18
-792.65491 832.25708 1836.3867 18
-781.52863 831.99805 1835.8149 18
-772.33557 833.81854 1839.8322 18
-761.71875 834.13226 1840.5243 18
-749.29602 832.44867 1836.8094 18
-738.14575 832.14996 1836.1504 18
-727.28711 832.17609 1836.2079 18
-711.43359 826.40088 1823.4648 18
-698.04333 823.35297 1816.7396 18
-691.21338 828.06873 1827.1451 18
-681.37885 829.27789 1829.8131 18
-667.70557 825.77875 1822.092 18
-654.33282 822.54218 1814.9507 18
-646.37347 826.11627 1822.8368 18
-637.24438 828.29144 1827.6365 19
-626.7774 828.77271 1828.6984 19
-614.33118 826.60779 1823.9213 19
-605.81909 829.75366 1830.8628 19
-599.51117 836.0882 1844.8401 19
-586.36829 832.94891 1837.9132 19
-572.44708 828.56427 1828.2384 19
-557.9411 823.14758 1816.2864 18
-550.3905 827.98126 1826.952 18
-541.71509 831.28278 1834.2368 18
-528.5932 827.75653 1826.4562 18
-519.58136 830.6535 1832.8484 18
-511.01978 834.40955 1841.1361 18
-501.54062 836.79846 1846.4072 18
-491.15802 837.75305 1848.5134 16
-479.37625 836.31006 1845.3296 14
-490.10608 874.98981 1930.677 14
-421.09064 769.74597 1698.4551 14
-471.45868 882.92242 1948.1805 14
-437.84995 840.56604 1854.7205 16
-429.05048 844.88251 1864.2449 18
-419.25626 847.41656 1869.8362 19
-407.85294 846.74744 1868.3597 19
-398.44968 850.30927 1876.219 19
-386.30118 848.04889 1871.2316 19
-375.9769 849.77808 1875.047 19
-364.69794 849.38904 1874.1885 19
-357.84491 859.60742 1896.7355 19
-347.92075 862.87195 1903.9387 19
-349.75662 896.49872 1978.1368 19
-325.90781 864.33948 1907.177 19
-325.80081 895.09735 1975.0446 19
-304.7937 868.58728 1916.5498 19
-293.2182 867.94312 1915.1283 19
-281.30231 866.19891 1911.2799 19
-273.76752 878.36487 1938.1243 19
-267.24802 894.99646 1974.8219 19
-248.98813 872.03302 1924.1528 19
-244.13118 896.05945 1977.1675 18
-223.84972 863.0401 1904.3097 18
-215.2523 873.95349 1928.3903 18
-210.63861 903.17194 1992.8612 18
-196.14331 890.97449 1965.9475 18
-184.63033 891.63922 1967.4142 18
-172.2429 887.88599 1959.1326 18
-161.40038 892.12946 1968.4958 18
-150.40245 896.10815 1977.275 19
-139.1326 899.00238 1983.661 19
-127.45087 899.52362 1984.8112 19
-115.75874 900.07013 1986.0171 19
-104.09225 900.96228 1987.9856 19
-92.992096 907.60956 2002.653 19
-80.935265 905.4986 1997.9951 19
-69.49485 910.74237 2009.5656 19
-57.666588 912.02106 2012.387 19
-45.908024 915.35632 2019.7463 19
-33.974339 916.3208 2021.8745 19
-21.942329 914.23969 2017.2823 19
-9.9738121 912.98816 2014.5209 19
1.970929 915.89752 2020.9404 19
14.017296 920.48389 2031.0603 19
26.148212 923.81976 2038.421 19
38.694916 935.09521 2063.3005 19
50.095375 919.90717 2029.7877 19
63.016476 933.11755 2058.9368 19
76.135452 944.49689 2084.0454 19
88.568695 945.38007 2085.9941 19
101.96893 955.10455 2107.4512 19
118.02551 984.87256 2173.1348 19
128.05545 963.44141 2125.8467 19
141.17508 967.01288 2133.7273 19
153.33641 963.97278 2127.019 19
168.07294 976.35406 2154.3386 19
187.23773 1010.8953 2230.5544 19
201.20378 1014.664 2238.8701 19
213.84312 1011.6897 2232.3071 19
230.15129 1025.408 2262.5767 19
243.45912 1024.984 2261.6414 19
256.53824 1023.6918 2258.79 19
271.80936 1030.8408 2274.5645 19
286.88037 1036.5913 2287.2529 19
301.22565 1039.3188 2293.2712 19
317.20468 1047.2046 2310.6711 19
330.98209 1047.47 2311.2568 19
343.50354 1043.8976 2303.3743 19
356.77487 1042.7899 2300.9302 19
371.99146 1047.2401 2310.7498 19
389.56982 1057.7872 2334.022 19
403.16718 1057.1722 2332.665 19
419.23505 1062.8613 2345.218 19
433.89548 1064.7316 2349.3447 19
448.26691 1065.7985 2351.699 19
462.49158 1066.4626 2353.1643 19
475.61417 1064.6208 2349.1006 19
489.2413 1063.9812 2347.6892 19
503.31372 1064.3185 2348.4333 19
516.84125 1063.5165 2346.6636 19
532.61865 1067.2646 2354.9341 19
547.43073 1068.9366 2358.6233 19
561.716 1069.5221 2359.9153 19
579.91504 1077.3502 2377.188 19
591.31134 1072.4689 2366.4172 19
603.1994 1068.6848 2358.0676 19
617.26691 1068.8459 2358.4233 19
713.06146 1207.3834 2664.1082 19
728.15088 1206.2261 2661.5544 19
668.20416 1083.4514 2390.6504 19
677.81421 1076.2152 2374.6836 18
695.9754 1082.5745 2388.7153 18
832.42072 1269.0009 2800.0679 18
724.93951 1083.5491 2390.8657 18
735.68683 1078.5331 2379.7981 18
898.7254 1292.7688 2852.512 18
767.12628 1083.0978 2389.8701 18
780.4505 1081.9352 2387.3049 18
791.17279 1077.2712 2377.0137 18
806.6167 1079.0868 2381.02 18
825.94946 1085.9531 2396.1704 18
835.63184 1080.1135 2383.2852 18
851.99927 1082.9653 2389.5776 18
865.14288 1081.693 2386.7705 18
880.44757 1083.1204 2389.9199 18
892.13196 1080.1193 2383.2979 18
903.34039 1076.6443 2375.6304 18
916.30829 1075.3411 2372.7546 18
934.6189 1080.2523 2383.5916 18
947.45337 1078.782 2380.3474 18
959.15234 1076.0811 2374.3877 18
974.87317 1077.9053 2378.4126 18
987.3385 1076.129 2374.4934 18
998.31189 1072.7996 2367.1467 18
1010.4457 1070.7919 2362.7168 18
1010.6205 1056.3392 2330.8269 18
995.89905 1026.916 2265.9043 18
994.96008 1012.2985 2233.6506 18
1006.264 1010.3575 2229.3677 18
1020.3653 1011.2391 2231.313 18
1029.2098 1006.955 2221.8601 15
1040.951 1005.5776 2218.8206 16
1051.6542 1003.2441 2213.6719 16
1049.5521 988.90283 2182.0276 16
1052.7069 979.80353 2161.95 16
1055.0232 970.15192 2140.6536 16
1057.2761 960.6723 2119.7366 14
1061.6359 953.30688 2103.4846 14
1066.2334 946.32355 2088.0759 12
1071.8649 940.40771 2075.0225 196615
1075.4266 932.83069 2058.3037 458754
1080.6742 926.86938 2045.15 2628118
1097.8916 931.19293 2054.6899 5455925
1115.519 935.76544 2064.7793 6573372
1123.233 932.01306 2056.4995 6902845
1133.577 930.49994 2053.1609 7888714
1148.2238 932.51343 2057.6038 7888457
1160.6708 932.71698 2058.0527 7493697
1174.9214 934.35046 2061.6572 6967354
1183.2207 931.26636 2054.8521 7625542
1197.8097 933.14508 2058.9973 7164991
1213.704 935.99249 2065.2803 5651753
1216.6122 928.86829 2049.5605 8743512
1228.0975 928.36877 2048.4585 8743513
1239.8195 928.05609 2047.7686 8283219
1249.5966 926.3078 2043.9109 7888717
1260.1797 925.18494 2041.4333 8283732
1271.5449 924.65216 2040.2577 8611927
1285.7417 926.16895 2043.6046 8743770
1299.6757 927.47003 2046.4753 8283218
1312.1841 927.73907 2047.069 8546905
1326.8241 929.49652 2050.9468 8612696
1337.7051 928.61255 2048.9963 8415315
1360.7981 936.14569 2065.6182 8020301
1368.1177 932.78992 2058.2139 8414546
1379.0631 931.94391 2056.3469 7756615
1383.061 926.4588 2044.244 6506549
1421.2767 943.79114 2082.488 7756616
1409.578 927.9649 2047.5673 8415058
1420.9164 927.44531 2046.4209 8151633
1438.8212 931.18433 2054.6709 7361861
1452.0365 931.85101 2056.1421 7493703
1462.4188 930.70361 2053.6104 8151377
1474.8239 930.85187 2053.9375 7691852
1498.4222 938.00482 2069.7205 7955024
1510.9427 938.16309 2070.0696 8218195
1527.7927 940.98535 2076.2971 8152403
1537.8043 939.58435 2073.2058 7757645
1559.106 945.04907 2085.2637 7889231
1572.4718 945.65527 2086.6013 7955023
1583.4791 944.84479 2084.813 8020817
1596.9827 945.52472 2086.3132 8020817
1619.191 951.30859 2099.0754 8218196
1602.0159 934.04193 2060.9763 6836545
1614.5742 934.24133 2061.4163 6902337
1625.1838 933.31848 2059.3801 7033922
1641.2203 935.50287 2064.2 8612953
1651.283 934.27502 2061.4907 8350040
1653.3748 928.58856 2048.9434 7756877
1676.9434 934.95892 2062.9998 7165509
1673.8872 926.50049 2044.3359 7362889
1690.4216 928.92889 2049.6943 8481113
1698.6459 926.78864 2044.9719 8086612
1715.8397 929.53784 2051.0381 8547163
1721.1499 925.8559 2042.9138 7889233
1723.2744 920.5238 2031.1483 7757647
1725.6326 915.3894 2019.8192 8612956
1735.2607 914.15582 2017.0973 7297096
1759.5496 920.60962 2031.3378 8152404
1771.0908 920.35138 2030.7679 8086612
1782.7039 920.13379 2030.2877 8021332
1797.7744 921.69153 2033.725 7166023
1803.5046 918.47192 2026.621 7626574
1820.3107 920.89819 2031.9745 8021332
1827.1779 918.29736 2026.2358 7626574
1841.2926 919.34937 2028.557 5784116
1847.9653 916.69604 2022.7023 7297099
1853.3152 913.42493 2015.4846 7560527
1853.9036 907.86389 2003.2141 6376507
1869.2953 909.57678 2006.9935 7494987
1902.5315 919.89606 2029.7633 7758160
1929.9601 927.29523 2046.0897 8416090
1937.5306 925.1203 2041.2906 8416090
1954.1041 927.24438 2045.9775 8547675
0 0 0 0
0 0 0 0
0 0 0 0
0 0 0 0
0 0 0 0
0 0 0 0
0 0 0 0
0 0 0 0
0 0 0 0
0 0 0 0
-1752.854 918.59784 2000.7367 19
-1757.1677 927.12994 2019.3197 19
-1725.879 916.8653 1996.963 19
-1706.3895 912.77057 1988.0444 19
-1656.7496 892.37872 1943.6305 19
-1703.2739 923.86127 2012.2006 19
-1670.6332 912.54565 1987.5547 19
-1668.524 917.86487 1999.1401 19
-1665.0566 922.50775 2009.2524 19
-1641.8494 916.20203 1995.5184 19
-1632.9519 917.8479 1999.1033 19
-1606.6277 909.65125 1981.2506 19
-1592.423 908.24615 1978.1903 19
-1580.8231 908.31708 1978.3447 19
-1567.7692 907.54724 1976.668 19
-1555.6884 907.33344 1976.2023 19
-1545.7764 908.39087 1978.5055 19
-1554.2926 920.37677 2004.6111 19
-1521.7878 908.06958 1977.8057 19
-1519.2141 913.57019 1989.7861 19
-1504.432 911.75793 1985.839 19
-1484.7104 906.89996 1975.2582 19
-1469.9969 905.04822 1971.225 19
-1463.3156 908.15161 1977.9844 19
-1450.1199 907.22961 1975.9762 19
-1363.2037 859.79584 1872.6639 19
-1418.2068 901.82898 1964.2134 19
-1417.5554 908.87463 1979.5591 18
-1407.3665 909.87177 1981.7308 17
-1326.0789 864.53314 1882.9818 19
-1324.6844 870.95312 1896.9648 19
-1355.1626 898.61798 1957.2197 19
-1341.6002 897.30469 1954.3594 19
-1357.8062 916.05188 1995.1914 19
-1323.5984 900.81793 1962.0114 19
-1316.4248 903.87585 1968.6716 19
-1295.5887 897.5238 1954.8365 19
-1282.474 896.45441 1952.5073 19
-1273.5688 898.33478 1956.6029 19
-1254.4727 892.99524 1944.9731 19
-1262.8444 907.29095 1976.1097 18
-1231.2371 892.86243 1944.6841 18
-1236.5032 905.15387 1971.4551 18
-1209.7101 893.98749 1947.1344 18
-1209.283 902.27844 1965.1925 18
-1129.2031 850.7218 1852.9003 18
-1169.714 889.89545 1938.2218 18
-1112.8792 855.05304 1862.3339 18
-1135.8389 881.43494 1919.7946 16
-1089.4144 853.96234 1859.9583 17
-1085.7168 859.76282 1872.5918 18
-1073.325 858.72717 1870.3362 18
-1038.0833 839.19781 1827.8007 18
-1024.8673 837.25024 1823.5587 18
-1034.0394 853.74554 1859.4861 18
-1022.7366 853.50934 1858.9716 18
-1011.976 853.72534 1859.4421 18
-1001.0696 853.82178 1859.6521 18
-984.50049 849.0368 1849.2303 18
-974.46161 849.83917 1850.9779 18
-967.97186 853.79028 1859.5836 18
-949.77502 847.38745 1845.6379 18
-930.95044 840.26868 1830.1331 18
-918.65186 838.94196 1827.2434 18
-917.97681 848.32513 1847.6803 18
-904.59692 846.05225 1842.7299 19
-897.53943 849.70935 1850.6951 19
-883.05548 846.33917 1843.3549 18
-869.52704 843.81195 1837.8503 18
-858.08679 843.27264 1836.6758 18
-844.71985 840.80176 1831.2941 18
-825.72736 832.59418 1813.4176 18
-818.87195 836.56952 1822.0762 18
-814.85321 843.58795 1837.3624 18
-804.15656 843.78931 1837.8011 18
-783.72632 833.6427 1815.7014 18
-780.46948 841.73517 1833.3271 18
-764.46814 836.117 1821.0906 18
-760.44263 843.62384 1837.4408 18
-746.74603 840.46399 1830.5585 19
-730.85309 834.70251 1818.0098 19
-718.70996 833.1153 1814.5527 19
-706.86896 831.83551 1811.7653 18
-696.69214 832.50482 1813.223 18
-688.10217 835.12097 1818.921 18
-678.19733 836.19916 1821.2694 18
-666.94843 835.62817 1820.0259 18
-655.05359 834.21588 1816.95 18
-634.18597 821.13849 1788.4669 18
-623.95984 821.62927 1789.5358 19
-625.67175 838.12885 1825.4724 19
-603.9743 823.29889 1793.1722 19
-605.10992 839.61969 1828.7196 19
-581.65601 821.79437 1789.8954 19
-572.59998 824.02679 1794.7577 19
-564.2569 827.38916 1802.0811 18
-551.12201 823.7193 1794.0879 18
-543.04163 827.60828 1802.5583 18
-532.23846 827.42047 1802.1492 18
-523.68677 830.79675 1809.5029 18
-514.84576 833.8457 1816.1436 18
-505.70538 836.52954 1821.9891 18
-495.42471 837.40308 1823.8917 18
-486.76819 841.12207 1831.9918 16
-476.99487 843.03705 1836.1626 16
-470.26135 850.53931 1852.5028 14
-457.12451 846.54199 1843.7965 14
-446.29413 846.72467 1844.1945 14
-440.50418 856.7196 1865.9637 16
-430.70917 859.23944 1871.4519 18
-419.11542 858.20923 1869.208 19
-407.81418 857.73822 1868.1824 19
-397.88202 860.20087 1873.546 19
-386.82053 860.29327 1873.7473 19
-375.58194 859.9856 1873.0771 18
-365.66989 862.78912 1879.1833 19
-354.84164 863.53918 1880.817 19
-344.6109 865.83899 1885.8262 19
-335.4472 871.06396 1897.2063 19
-309.29877 831.01703 1809.9827 19
-313.29446 871.99292 1899.2295 19
-303.63751 876.60724 1909.2797 19
-291.65857 874.61566 1904.9418 19
-280.93423 876.37738 1908.7789 19
-270.61304 879.59729 1915.792 19
-260.77914 884.7525 1927.0204 19
-249.83188 886.42963 1930.6731 19
-237.41304 882.79578 1922.7584 18
-226.25955 883.73785 1924.8103 18
-215.90012 888.04608 1934.1938 18
-204.65471 888.98883 1936.2472 18
-194.02618 892.88245 1944.7275 18
-182.40028 892.38818 1943.651 18
-172.42949 900.47052 1961.2546 18
-160.14328 896.7558 1953.1638 18
-150.13689 906.22302 1973.7837 19
-137.93185 902.89783 1966.5414 19
-126.88395 907.23248 1975.9825 19
-114.79282 904.23108 1969.4453 19
-102.78912 901.31696 1963.0981 19
-91.928612 908.96228 1979.7501 19
-80.288704 910.01086 1982.0339 19
-68.928871 915.13733 1993.1995 19
-57.177235 916.10645 1995.3102 19
-45.402874 917.12195 1997.522 19
-33.567638 917.19037 1997.671 19
-21.725824 917.05573 1997.3778 19
-9.937088 921.52106 2007.1034 19
1.9509261 918.45703 2000.4298 19
13.860252 922.07294 2008.3054 19
25.889343 926.63434 2018.2404 19
37.736874 923.8681 2012.2155 19
50.084507 931.73389 2029.3472 19
62.244991 933.74622 2033.7301 19
75.372063 947.25336 2063.1492 19
87.717613 948.53894 2065.9492 19
100.37051 952.42596 2074.4153 19
113.65987 960.8454 2092.7532 19
130.98012 998.33148 2174.3989 19
138.36172 960.13513 2091.2063 19
150.97061 961.5105 2094.2017 19
170.55809 1003.7465 2186.1931 19
181.40909 992.23383 2161.1182 19
199.42091 1018.8235 2219.0315 19
204.33548 979.35016 2133.0571 19
230.84372 1041.9418 2269.3838 19
246.1346 1049.7983 2286.4956 19
255.62645 1033.3918 2250.7617 19
271.62613 1043.6165 2273.0312 19
286.00281 1046.9336 2280.2561 19
303.33307 1060.2755 2309.3154 19
317.55228 1062.0605 2313.2031 19
332.85339 1067.1665 2324.3242 19
340.24161 1047.5054 2281.5012 19
357.13882 1057.5033 2303.2773 19
403.13235 1149.7494 2504.1921 19
393.0127 1081.0898 2354.6494 19
407.80191 1083.3081 2359.481 19
421.81549 1083.3872 2359.6531 19
432.78125 1075.8844 2343.3118 19
448.66898 1080.7035 2353.8081 19
467.47052 1092.0391 2378.4973 19
547.53564 1241.6371 2704.3269 19
560.44501 1234.7697 2689.3694 19
509.53839 1091.5708 2377.4773 19
516.93634 1077.6215 2347.0952 19
534.28851 1084.6104 2362.3174 19
552.08075 1092.1128 2378.658 19
568.37329 1096.349 2387.8845 19
583.19745 1097.6157 2390.6433 19
596.00629 1095.1194 2385.2063 19
606.07605 1087.8224 2369.3132 19
625.79004 1097.7739 2390.988 19
713.54962 1224.0089 2665.9321 19
660.74719 1108.8806 2415.1787 19
671.44757 1102.9467 2402.2544 19
679.43268 1092.8914 2380.3538 18
692.45221 1091.1786 2376.623 18
830.73108 1282.9851 2794.3843 18
724.05835 1096.3835 2387.9597 18
737.88098 1095.895 2386.8958 18
755.39343 1100.8019 2397.583 18
765.55029 1095.0065 2384.9604 18
784.4632 1101.7185 2399.5793 18
801.40497 1105.4723 2407.7554 18
813.26019 1102.2012 2400.6306 18
827.70862 1102.4965 2401.2739 18
843.29913 1104.2775 2405.1528 18
931.09406 1198.9774 2611.4126 18
869.03491 1100.7673 2397.5078 18
888.12677 1106.8539 2410.7644 18
898.16083 1101.6378 2399.4038 18
919.18134 1109.8497 2417.2896 18
930.1134 1105.8154 2408.5027 18
940.83423 1101.6558 2399.4426 18
957.21075 1104.1437 2404.8616 18
966.94574 1099.0101 2393.6804 18
979.78058 1097.4972 2390.3853 18
991.5481 1094.8489 2384.6172 18
1001.9001 1090.7341 2375.655 18
1005.8401 1079.8494 2351.9478 18
981.07312 1038.8644 2262.6809 18
990.84338 1035.0631 2254.4016 18
1007.5759 1038.5392 2261.9727 18
1031.9141 1049.6603 2286.1951 18
1039.2334 1043.4061 2272.5732 18
1046.5815 1037.3407 2259.3623 17
1051.2629 1028.8185 2240.8008 17
1050.4139 1015.1642 2211.0613 18
1048.9073 1001.2186 2180.6873 17
1052.886 992.78461 2162.3179 17
1054.5918 982.43604 2139.7783 16
1056.6072 972.61847 2118.3953 14
1060.6765 964.8999 2101.584 14
1065.4551 957.99823 2086.5518 14
