# .PCD v0.7 - Point Cloud Data file format
VERSION 0.7
FIELDS x y z rgb
SIZE 4 4 4 4
TYPE F F F U
COUNT 1 1 1 1
WIDTH 1475
HEIGHT 1
VIEWPOINT 0 0 0 1 0 0 0
POINTS 1475
DATA ascii
0 0 0 0
-456.43097 284.14035 1102.8641 21
-449.74353 284.04456 1102.4923 21
-443.19986 284.03815 1102.4674 21
-438.09039 284.96442 1106.0626 21
-431.04037 284.63736 1104.7932 21
-423.62125 284.0527 1102.5239 21
-418.12405 284.7587 1105.2642 21
-409.7908 283.5249 1100.4753 21
-405.28455 284.94186 1105.9751 21
-396.70258 283.4928 1100.3507 21
-389.396 282.92197 1098.1351 23
-381.52573 281.91519 1094.2274 25
-375.95209 282.60001 1096.8854 30
-365.09549 279.26785 1083.9519 134450
-355.96579 277.16095 1075.7742 198952
-353.76877 280.47351 1088.6316 22
-345.65112 279.12799 1083.4091 13
-338.14264 278.23276 1079.9344 11
-333.59644 279.78748 1085.9689 11
-328.32492 280.78311 1089.8333 13
-323.68414 282.36887 1095.9883 16
-318.61475 283.63803 1100.9144 19
-312.74179 284.22995 1103.2119 19
-308.06735 285.95966 1109.9255 19
-301.84149 286.29333 1111.2207 19
-295.2872 286.32343 1111.3375 20
-288.48087 286.10492 1110.4894 25
-283.69644 287.92828 1117.5667 858693
-278.32269 289.22644 1122.6052 991056
-272.48566 290.09491 1125.9762 991314
-267.57425 292.01718 1133.4373 34
-260.91745 292.08456 1133.6989 26
-254.76797 292.73846 1136.2368 26
-248.75769 293.5921 1139.5502 28
-242.96608 294.7587 1144.0782 989766
-236.89174 295.6394 1147.4966 727107
-231.32104 297.21933 1153.6289 1573
-224.48026 297.21387 1153.6077 17
-218.19423 297.96561 1156.5255 13
-211.84874 298.68228 1159.3073 13
-205.50482 299.44928 1162.2843 14
-199.02863 300.07007 1164.6938 15
-192.40912 300.51163 1166.4077 273
0 0 0 0
0 0 0 0
0 0 0 0
-298.15628 543.81921 2110.7832 21
-286.30487 545.07104 2115.6421 21
-252.17593 502.08292 1948.7877 21
-241.00493 502.87152 1951.8485 22
-229.71437 503.47757 1954.2009 21
-219.30943 506.19199 1964.7368 21
-209.38429 510.38049 1980.9939 21
-198.86066 513.52094 1993.1835 21
-204.35124 561.02338 2177.5596 21
-193.02731 565.65564 2195.5393 21
-181.62534 570.71234 2215.1665 21
-169.3748 573.68286 2226.6963 21
-157.02644 576.79596 2238.7795 21
-144.83235 581.10278 2255.4958 21
-131.98096 583.37982 2264.334 21
-119.10164 586.03491 2274.6396 21
-105.57124 585.75531 2273.5542 21
-92.331841 587.24457 2279.3347 21
-79.112129 589.39105 2287.666 21
-62.363514 560.69769 2176.2954 21
-49.925961 565.90765 2196.5176 21
-37.280766 571.60883 2218.646 21
-24.411154 578.20679 2244.2554 21
-11.85813 617.07471 2395.1174 21
2.3712213 626.41986 2431.3899 21
17.018875 635.33142 2465.9795 21
28.457314 571.55328 2218.4304 21
43.787376 601.54541 2334.842 21
58.57465 611.46783 2373.355 21
72.740776 612.31897 2376.6587 21
91.882187 647.9812 2515.0784 21
107.72168 653.6524 2537.0906 21
123.53579 657.79913 2553.1858 21
109.31519 518.56384 2012.7568 21
120.9654 517.37561 2008.1449 21
133.04025 518.05377 2010.7771 21
176.36977 630.32007 2446.5283 21
193.37912 638.61139 2478.7102 21
212.51181 652.24896 2531.6433 21
228.15363 654.0802 2538.751 21
245.60892 660.56213 2563.9102 21
263.30023 666.88672 2588.4583 21
282.45062 676.0069 2623.8574 21
301.0097 682.83405 2650.3562 21
321.92065 694.0545 2693.9075 21
345.4697 709.63367 2754.3765 21
0 0 0 0
395.65244 742.5459 2882.1223 21
420.39755 756.33606 2935.6475 21
431.98911 746.30609 2896.717 21
452.06677 751.14307 2915.4915 21
469.52252 751.4278 2916.5967 19
485.5889 749.54779 2909.2993 19
504.19431 751.58142 2917.1929 19
525.89709 757.94446 2941.8901 19
549.83038 767.01044 2977.0791 19
571.58624 772.5697 2998.657 19
596.68854 782.18054 3035.9602 19
622.12653 791.65588 3072.738 19
645.84735 798.46936 3099.1841 19
667.8092 802.7915 3115.96 19
690.85333 808.14716 3136.7473 19
713.37799 812.63025 3154.1482 19
735.51038 816.4491 3168.9707 19
755.47241 817.72852 3173.9368 19
768.30194 811.41315 3149.4241 19
794.73096 819.41919 3180.4988 19
812.26105 818.09149 3175.3455 19
832.57611 819.56537 3181.0662 19
852.48828 820.58618 3185.0283 19
868.69983 818.07782 3175.2922 19
887.94159 818.46893 3176.8103 18
907.34137 818.98639 3178.8188 18
929.14282 821.60657 3188.9888 18
945.55585 819.45239 3180.6277 18
989.55695 840.8241 3263.5798 16
1024.4724 853.8042 3313.9609 14
1013.887 829.08862 3218.0295 196618
1042.8361 837.01727 3248.804 262147
1052.1956 829.22021 3218.5405 2366232
1062.4706 822.40948 3192.1055 5720385
1092.3391 830.73822 3224.4324 7759965
1116.6775 834.64716 3239.6045 9864823
1139.7605 837.50146 3250.6831 10851717
1150.1287 831.07318 3225.7324 10851460
1167.124 829.56561 3219.8811 11048840
1189.3097 831.73633 3228.3066 11049353
1212.0012 834.18646 3237.8167 11049353
1230.7723 833.90405 3236.7205 10786439
1254.0004 836.6037 3247.1987 11181195
1260.6982 828.36035 3215.2031 11443597
1292.4153 836.55682 3247.0171 10127224
1321.0327 842.53613 3270.2251 9534060
1325.4382 833.12366 3233.6914 9599596
1347.1436 834.69855 3239.8042 9797231
1371.394 837.78406 3251.78 10849406
1387.3673 835.79749 3244.0696 10191989
1407.9222 836.58777 3247.137 9863025
1430.6183 838.61176 3254.9929 10125684
1448.1615 837.60156 3251.0718 9664876
1469.8884 839.00586 3256.5227 9467496
1492.9717 841.13812 3264.7986 9467497
1489.6401 828.52399 3215.8381 9072739
1524.9739 837.46216 3250.531 9335911
1513.7917 820.95111 3186.4448 9269862
1561.6562 836.47424 3246.6965 9269861
1585.929 839.1369 3257.031 9203555
1607.7938 840.47668 3262.2314 8677211
1625.2103 839.48682 3258.3894 8874847
1651.0367 842.81348 3271.3013 9006433
1661.9467 838.53656 3254.7012 9071969
1697.1906 846.49475 3285.5901 9006433
1710.7003 843.55518 3274.1802 9401191
1738.8832 847.83582 3290.7952 9204325
1765.5656 851.29791 3304.2332 9006946
1784.9465 851.20227 3303.8618 9006946
1812.1416 854.79462 3317.8049 9270118
1833.1611 855.42816 3320.2639 9401704
1864.4398 860.78461 3341.0547 9467498
1875.8195 856.93793 3326.1243 8480860
1897.5172 857.83594 3329.6099 9533802
1921.1343 859.57428 3336.3569 9336424
1942.5973 860.3233 3339.2642 8875875
1975.8344 866.21887 3362.1472 9336426
1995.7421 866.21155 3362.1187 9665647
2013.4856 865.27417 3358.4805 9337452
2027.0087 862.5592 3347.9429 9074281
2053.4019 865.32068 3358.6609 8942440
2086.6057 870.8714 3380.2056 9534833
2117.0256 875.16577 3396.8738 10258812
2139.2917 876.04034 3400.2683 9732724
2139.6853 868.02515 3369.1582 9666674
2153.2878 865.46735 3359.2302 9863540
2175.4883 866.38049 3362.7747 9929075
2197.3367 867.13824 3365.7156 9468010
2234.1062 873.71753 3391.2527 9205096
2252.9573 873.23456 3389.3779 8875105
2256.166 866.75073 3364.2117 9138532
2284.2964 869.87079 3376.322 9072739
2301.7844 868.91925 3372.6284 8677211
2318.8804 867.83728 3368.429 8940640
2367.2656 878.38385 3409.3645 9203042
2373.0444 873.07642 3388.7642 8874334
2389.3718 871.70642 3383.4468 8742491
2410.3755 872.05109 3384.7844 8479833
2412.5813 865.64532 3359.9211 8151124
2448.9663 871.50763 3382.675 5716272
2454.376 866.34119 3362.6221 3676942
2471.0256 865.19342 3358.167 3874064
2435.6355 845.98859 3283.6255 6769205
2424.7991 835.54913 3243.1055 4203794
2417.1455 826.362 3207.4465 5058844
2448.0103 830.38379 3223.0569 4729622
2438.2915 820.68378 3185.4072 6439214
2475.9597 826.95984 3209.7671 4401689
2473.9285 819.98187 3182.6826 10847337
2454.041 807.23578 3133.21 9001026
2432.0229 793.98553 3081.7805 8474681
2454.9766 795.50543 3087.6797 9987663
2457.5903 790.46075 3068.0991 9923155
2462.1765 786.11969 3051.25 10318685
2556.3428 810.23456 3144.8496 9727320
2543.5142 800.33368 3106.4202 9528660
2532.1829 791.04291 3070.3586 9594709
2559.6509 793.91888 3081.5217 10055002
2568.0352 790.87695 3069.7146 10384737
2579.7188 788.88666 3061.9897 10515809
2601.8196 790.08759 3066.6509 9793115
2619.6829 789.99402 3066.2878 10385254
2636.0967 789.46765 3064.2446 10056546
2621.1997 779.63556 3026.0823 10714991
2666.3801 787.68475 3057.3245 10188903
2686.137 788.16553 3059.1907 10583918
2743.8794 799.71088 3104.0027 11440001
2816.9915 815.55206 3165.4888 9993067
2793.0645 803.27563 3117.8391 8348757
2880.7083 823.03705 3194.541 9467494
2854.4341 810.20575 3144.7378 8743771
2901.1831 818.13354 3175.5085 8677977
2916.2476 817.08167 3171.4258 8349012
2946.3025 820.21643 3183.593 8085841
2971.8499 822.06439 3190.7659 8612185
2953.2163 811.74518 3150.7126 9664619
2988.2344 816.20996 3168.0425 9072229
2976.9277 808.0448 3136.3503 7887954
3000.9482 809.51074 3142.0398 4861223
0 0 0 0
0 0 0 0
0 0 0 0
0 0 0 0
0 0 0 0
0 0 0 0
0 0 0 0
0 0 0 0
0 0 0 0
0 0 0 0
0 0 0 0
0 0 0 0
0 0 0 0
0 0 0 0
0 0 0 0
0 0 0 0
0 0 0 0
0 0 0 0
-1247.9094 396.89529 1505.8737 14
-1238.9852 396.89529 1505.8737 13
-1023.7126 330.31424 1253.2563 14
-1220.8521 396.8027 1505.5223 14
-1212.9688 397.14282 1506.8127 14
-961.45099 317.12701 1203.2222 11
-1195.4077 397.24194 1507.1888 11
-968.46777 324.25104 1230.2517 12
-925.39227 312.17911 1184.4492 12
-917.16882 311.76978 1182.8961 13
-914.70203 313.32608 1188.8009 14
-1167.7404 403.10773 1529.4445 14
-885.80865 308.17599 1169.2609 14
-884.55267 310.16531 1176.8086 14
-875.13483 309.30161 1173.5315 14
-868.11182 309.27719 1173.439 14
-860.0827 308.89114 1171.9741 268
-852.53802 308.6741 1171.1508 268
-843.6413 307.96002 1168.4414 268
-840.7467 309.44321 1174.0688 12
0 0 0 0
-815.06134 305.03839 1157.3563 12
-819.36389 309.25095 1173.3394 12
-879.98145 334.97244 1270.9302 12
-793.79785 304.77451 1156.3551 12
0 0 0 0
-870.87732 340.24332 1290.9286 12
0 0 0 0
0 0 0 0
0 0 0 0
0 0 0 0
-755.99908 308.93073 1172.1244 16
-727.7569 300.14767 1138.8003 16
-718.8526 299.25034 1135.3958 16
-711.64404 299.04868 1134.6305 15
-698.46613 296.31073 1124.2424 18
0 0 0 0
0 0 0 0
-682.40802 298.02679 1130.7534 18
-688.57135 303.70078 1152.2812 19
-667.97333 297.56683 1129.0083 19
-674.74652 303.6254 1151.9952 19
-649.44 295.22491 1120.1227 19
0 0 0 0
-640.82019 297.38577 1128.3213 19
-626.021 293.5813 1113.8866 19
-625.87506 296.64084 1125.4949 19
-621.57343 297.77539 1129.7996 19
-613.97278 297.33701 1128.1362 19
0 0 0 0
-601.2312 297.64868 1129.3188 19
-606.04602 303.40973 1151.177 19
-586.53833 296.98657 1126.8066 19
-574.97186 294.48267 1117.3065 19
0 0 0 0
-564.9389 296.16541 1123.691 21
-557.8623 295.94397 1122.851 21
-548.71362 294.60474 1117.7697 20
-542.43036 294.78998 1118.4725 18
-549.84039 302.51367 1147.7772 20
-528.32092 294.31491 1116.67 20
-519.51471 293.08023 1111.9855 19
-514.08673 293.74411 1114.5044 19
-507.38446 293.68768 1114.2903 19
0 0 0 0
-493.31342 293.17422 1112.342 19
-486.03079 292.75821 1110.7637 21
-480.95493 293.67825 1114.2545 21
-473.41748 293.09991 1112.0602 21
-469.63373 294.86203 1118.7458 21
-456.82071 290.92435 1103.8058 21
-452.34146 292.25671 1108.861 21
-444.00415 291.09888 1104.468 21
-438.444 291.75446 1106.9553 21
-433.33569 292.73517 1110.6763 21
-426.47534 292.54431 1109.9521 21
-421.267 293.49841 1113.5721 21
-415.67297 294.2099 1116.2716 21
-403.99661 290.56979 1102.4606 21
-401.66022 293.63806 1114.1019 21
-393.20346 292.25977 1108.8726 23
-384.61884 290.73795 1103.0985 27
-378.15955 290.79785 1103.3258 32
-364.67566 285.36304 1082.7054 265782
-356.7879 284.19101 1078.2587 133158
-351.29602 284.91943 1081.0223 18
-345.38007 285.32458 1082.5596 11
-340.26398 286.41833 1086.7094 11
-334.90536 287.34625 1090.23 11
-329.03186 287.86017 1092.1798 17
-324.6377 289.71487 1099.2169 132386
-318.34625 289.91779 1099.9867 661308
-313.01025 291.01743 1104.1589 595001
-307.05707 291.57794 1106.2856 22
-301.27148 292.32556 1109.1222 19
-295.47458 293.09531 1112.0427 18
-289.6319 293.85373 1114.9203 25
-283.7348 294.59106 1117.7178 990280
-278.10849 295.65149 1121.7412 925005
-272.16675 296.42038 1124.6584 1056590
-267.69476 298.86871 1133.9478 286
-261.00845 298.90732 1134.0942 23
-254.79807 299.50739 1136.371 26
-248.90553 300.5238 1140.2274 30
-241.91438 300.23352 1139.126 1055817
-236.95772 302.52393 1147.8162 924489
-232.24339 305.26831 1158.2288 1573
-224.34013 303.8606 1152.8876 18
-217.10178 303.29321 1150.735 13
-211.9149 305.64801 1159.6693 14
-205.45044 306.2562 1161.9768 14
-198.9987 306.92612 1164.5187 16
-192.19131 307.07599 1165.0873 528
0 0 0 0
0 0 0 0
-266.61679 477.44778 1811.5006 21
-263.37305 491.42633 1864.537 21
-249.99721 486.89578 1847.3475 21
-252.27895 513.84161 1949.5837 21
-240.23598 512.79718 1945.621 21
-228.86772 513.16016 1946.9982 21
-218.24664 515.32605 1955.2157 21
-207.22461 516.73486 1960.561 21
-195.98669 517.74078 1964.3777 21
-183.84201 516.32709 1959.0138 21
-193.33218 579.58087 2199.0071 21
-181.98843 585.00714 2219.595 21
-170.47443 590.6889 2241.1526 21
-158.15302 594.29688 2254.8416 21
-145.17354 595.86963 2260.8088 21
-131.98431 596.8139 2264.3916 21
-118.96777 598.841 2272.0828 21
-105.46741 598.63947 2271.3179 21
-92.421295 601.33447 2281.5432 21
-79.354294 604.79388 2294.6687 21
-66.164787 608.5575 2308.9482 21
-52.844131 612.76282 2324.9038 21
-39.235973 615.42487 2335.0039 21
-24.263115 587.91956 2230.6453 21
-10.685306 568.83325 2158.2292 21
2.3928275 646.66791 2453.5442 21
17.140312 654.58307 2483.5754 21
31.933477 656.12341 2489.4197 21
46.850269 658.42767 2498.1624 21
61.895748 660.99957 2507.9207 21
73.213478 630.47424 2392.1033 21
92.194016 665.13593 2523.6143 21
108.12973 671.22076 2546.7012 21
124.20487 676.57458 2567.0142 21
140.40434 681.36328 2585.1833 21
156.25394 683.67896 2593.9692 21
133.73299 532.72961 2021.2472 21
147.82971 540.47455 2050.6326 21
193.37912 653.30072 2478.7102 21
210.11621 659.73029 2503.1047 21
229.68333 673.61176 2555.7727 21
245.64433 675.85394 2564.28 21
263.40866 682.50739 2589.5242 21
282.58875 691.89465 2625.1406 21
300.92087 698.33441 2649.574 21
321.48511 709.05859 2690.2629 21
335.52502 705.05939 2675.0894 21
351.67816 705.66132 2677.373 21
0 0 0 0
389.09003 716.11243 2717.0261 21
444.52908 785.63513 2980.8044 21
451.62714 767.67358 2912.656 21
447.55472 732.74603 2780.1362 19
486.07764 767.56067 2912.2275 19
506.13062 771.82208 2928.396 19
525.90088 775.38416 2941.9109 19
548.11627 782.20697 2967.7979 19
568.46777 786.0285 2982.2969 19
592.79425 794.94995 3016.1462 19
618.37347 804.97998 3054.2014 19
641.48639 811.32019 3078.2571 19
662.90735 815.22913 3093.0881 19
682.9411 817.2677 3100.8225 19
703.40442 819.69995 3110.0508 19
724.91632 823.19879 3123.3259 19
753.58093 834.44348 3165.99 19
757.65381 818.573 3105.7751 19
783.57678 826.50232 3135.8599 19
804.95154 829.37787 3146.7705 19
831.20416 837.03546 3175.8242 19
850.2041 837.2121 3176.4941 19
869.18707 837.36456 3177.073 19
886.68695 836.1123 3172.3215 18
904.93109 835.59912 3170.3745 18
918.59174 830.96063 3152.7756 18
938.30872 831.87646 3156.2502 18
967.43512 840.93549 3190.6216 16
1018.9358 868.72302 3296.051 65552
999.61438 836.2196 3172.7288 131085
1024.1874 840.95801 3190.7068 196616
1040.257 838.66888 3182.0217 590339
1037.4438 821.50897 3116.9148 2759961
1056.7891 822.18872 3119.4939 5259832
1092.3405 835.23688 3169 8022106
1118.3016 840.63483 3189.4807 9008486
1136.7645 840.31067 3188.2507 9468522
1159.4766 843.08661 3198.7832 8744799
1185.0576 847.82593 3216.7646 9403499
1195.3851 841.67499 3193.4272 10785411
1216.4285 843.14337 3198.9983 11772562
1233.051 841.5495 3192.9509 11773076
1252.6003 841.97107 3194.5508 10719875
1273.8153 843.48309 3200.2876 9995638
1289.9313 841.62384 3193.2332 9666416
1310.5237 842.6969 3197.3042 9994868
1332.4445 844.58124 3204.4539 9994611
1353.1422 845.64832 3208.5024 10059377
1371.0056 844.93903 3205.8113 9993841
1395.4958 848.2774 3218.4775 9927791
1425.0649 854.57135 3242.3577 9664876
1446.0511 855.61945 3246.3342 9664876
1457.2733 850.93848 3228.5742 9270118
1473.7667 849.41699 3222.8015 9861998
1489.9141 847.73761 3216.4294 10125427
1508.0533 847.21967 3214.4644 9599083
1515.6074 840.84198 3190.2666 9401705
1549.7238 849.17645 3221.8887 9664619
1578.8613 854.61322 3242.5164 10322806
1578.8301 844.32019 3203.4634 8940896
1597.5253 844.1673 3202.8835 8282710
1605.2181 838.27258 3180.5181 9401191
1645.5518 849.3623 3222.594 9335398
1688.3706 861.46558 3268.5151 9335398
1679.7981 847.37018 3215.0354 8808797
1726.1431 860.98315 3266.6848 9335655
1734.5354 855.57361 3246.1604 9269861
1756.7751 857.03833 3251.7178 9270118
1779.8124 858.85608 3258.6145 9072739
1807.6223 862.91302 3274.0073 8809054
1834.5365 866.46088 3287.4683 9730156
1861.2166 869.82477 3300.2312 9203812
1873.0922 866.27179 3286.751 9203812
1889.2888 864.7699 3281.0522 9006433
1907.338 864.13794 3278.6545 8743262
1941.4325 870.71472 3303.6079 9072228
1961.4875 870.9267 3304.4119 9269606
1980.8795 870.84277 3304.0938 9072227
2007.1223 873.74292 3315.0972 8809568
2019.9257 870.79303 3303.905 8810338
2081.8242 888.86169 3372.4597 8679009
2082.094 880.52362 3340.824 8284764
2086.5808 874.10931 3316.4873 8811365
2122.4434 880.83606 3342.0093 9074537
2130.8875 876.16449 3324.2849 9666674
2143.2795 873.18707 3312.988 9995895
2165.4446 874.20905 3316.8657 10652799
2177.676 871.23846 3305.595 10521212
2202.8123 873.43762 3313.939 10060404
2222.1382 873.31464 3313.4724 9533290
2235.907 871.02887 3304.7998 9598826
2259.9688 872.75775 3311.3594 9335911
2282.9644 874.04865 3316.2571 8874847
2305.8928 875.29199 3320.9744 8940640
2322.2078 874.02527 3316.1682 9137506
2341.4009 873.85376 3315.5178 9071456
2365.5874 875.53345 3321.8906 9203299
2395.2356 879.19 3335.7642 8743002
2404.8691 875.50031 3321.7651 8348244
2430.8184 877.76221 3330.3469 7229761
2437.4429 873.06555 3312.5273 8940121
2442.1042 867.74658 3292.3464 5783344
2445.5037 862.06708 3270.7974 5123869
2418.6089 845.88177 3209.3882 6439986
2421.748 840.37109 3188.48 6177068
2426.207 835.40033 3169.6201 7295037
2459.8616 840.4812 3188.8979 5975581
2465.7217 836.06036 3172.1245 6500384
2453.2542 825.53912 3132.2053 7883576
2432.2007 812.30829 3082.0059 10186844
2446.593 811.0246 3077.1355 10252891
2472.541 813.56219 3086.7637 9989721
2483.4258 811.14258 3077.5833 10384221
2508.9243 813.49664 3086.5149 10318174
2528.9785 814.06409 3088.6677 9726039
2536.6223 810.65729 3075.7417 9792345
2550.1016 809.15063 3070.0254 9726296
2558.551 806.08063 3058.3777 9792345
2558.8545 800.50568 3037.2251 9726809
2554.8696 793.67615 3011.3132 9989725
2591.8152 799.56842 3033.6692 9989726
2603.4258 797.61755 3026.2676 9595481
2604.9954 792.63812 3007.375 9200724
2595.8445 784.48657 2976.4468 8937553
2614.8286 784.89038 2977.9788 9990752
2680.5063 799.21069 3032.312 10517356
2709.417 802.45105 3044.6062 11043956
2751.5486 809.53815 3071.4956 11636606
2810.4504 821.43372 3116.6289 10124139
2858.4846 830.01837 3149.2004 8940637
2909.1562 839.25244 3184.2356 8414038
2902.5378 831.94666 3156.5166 7427146
2888.7888 822.70361 3121.4473 8545633
2921.9502 826.85297 3137.1904 1114627
2961.8496 832.84442 3159.9231 983041
2955.2102 825.75677 3133.0312 917504
2939.9055 816.35126 3097.3455 786432
2933.4236 809.49719 3071.3403 983298
0 0 0 0
0 0 0 0
0 0 0 0
0 0 0 0
0 0 0 0
0 0 0 0
0 0 0 0
0 0 0 0
0 0 0 0
0 0 0 0
0 0 0 0
0 0 0 0
0 0 0 0
0 0 0 0
0 0 0 0
0 0 0 0
0 0 0 0
0 0 0 0
-1233.4244 401.10895 1488.3944 14
-1223.9474 400.89389 1487.5966 14
-1213.5441 400.37012 1485.653 14
-1204.174 400.18213 1484.9553 14
-1196.6816 400.61993 1486.58 14
-1192.4178 402.15311 1492.269 11
-960.69684 326.42413 1211.2617 12
-1179.0024 403.61545 1497.6954 12
-933.33453 321.93796 1194.6149 12
-927.05811 322.2171 1195.6506 12
-1165.2911 408.1391 1514.4813 13
-1158.6155 408.95074 1517.493 14
-1149.5956 408.94122 1517.4576 14
-1140.6029 408.94122 1517.4576 14
-1133.8794 409.76129 1520.5007 12
-1123.0654 409.10443 1518.0634 14
-1114.5571 409.28363 1518.7284 268
-1106.671 409.69617 1520.259 268
-1105.2147 412.51529 1530.72 268
-1050.3511 395.28214 1466.7729 268
0 0 0 0
-1033.5488 395.50507 1467.6002 12
-868.33679 335.10379 1243.4692 12
-815.53076 317.41888 1177.8459 11
-810.96997 318.36871 1181.3704 13
-1006.4298 398.54242 1478.871 13
-998.83185 399.00827 1480.5996 13
0 0 0 0
0 0 0 0
0 0 0 0
-759.88733 314.61087 1167.4263 18
-749.00543 312.95483 1161.2811 18
-730.27307 307.95752 1142.7377 18
0 0 0 0
-718.43585 308.69095 1145.4592 18
-710.45563 308.17389 1143.5405 19
-702.57251 307.68942 1141.7428 19
-693.84375 306.82162 1138.5226 19
-708.26208 316.27298 1173.5939 19
-701.14764 316.20105 1173.3269 19
-675.26672 307.57968 1141.3356 19
-666.25806 306.54681 1137.5029 19
0 0 0 0
0 0 0 0
-642.29102 304.77039 1130.9111 19
-662.65271 317.74762 1179.0658 19
0 0 0 0
0 0 0 0
-616.5014 305.27469 1132.7825 19
0 0 0 0
0 0 0 0
-592.39288 303.24289 1125.243 19
-599.53851 310.39471 1151.7814 19
0 0 0 0
0 0 0 0
-576.12671 308.82162 1145.9441 21
-576.48828 312.70142 1160.3408 20
-559.22711 307.00049 1139.1864 20
-546.39514 303.62146 1126.6478 20
0 0 0 0
-531.70502 302.86011 1123.8226 20
-523.6153 302.0354 1120.7625 21
-517.51355 302.35098 1121.9335 21
-501.50269 296.81012 1101.373 21
-506.81952 303.91223 1127.7268 19
-495.75812 301.25174 1117.8545 20
-489.11237 301.23874 1117.8063 21
0 0 0 0
-475.60913 301.07761 1117.2084 21
-470.06192 301.76682 1119.7659 21
-464.34363 302.36441 1121.9833 21
-457.69376 302.36392 1121.9814 21
-451.09052 302.39462 1122.0955 21
-444.14273 302.19189 1121.3431 21
-436.72116 301.6557 1119.3535 21
-429.83783 301.4805 1118.7034 21
-422.77386 301.17114 1117.5554 21
-415.29361 300.55063 1115.2529 21
-408.25955 300.23822 1114.0936 21
-401.08148 299.80786 1112.4967 22
-392.97485 298.65741 1108.2278 24
-387.686 299.64578 1111.8953 28
-375.17331 294.9884 1094.6132 34
-362.74744 290.2366 1076.9806 200243
-357.16516 290.88828 1079.3988 132900
-351.56918 291.55234 1081.8629 19
-345.8696 292.15356 1084.0939 11
-340.38455 292.96219 1087.0945 11
-334.86035 293.76767 1090.0834 11
-328.98749 294.29294 1092.0325 18
-325.58374 297.09238 1102.4203 397104
-319.18506 297.21759 1102.885 792899
-313.33221 297.86694 1105.2946 990277
-306.94809 298.02826 1105.8931 25
-300.89377 298.52374 1107.7317 20
-295.31842 299.5271 1111.455 18
-289.59232 300.41992 1114.7679 24
-283.6626 301.13824 1117.4333 924482
-278.0593 302.24573 1121.5428 1056330
-271.77048 302.64401 1123.0209 859464
-267.95578 305.88672 1135.0535 32
-261.11591 305.754 1134.561 26
-254.96204 306.43884 1137.1023 27
-248.75497 307.09515 1139.5377 1062
-242.05717 307.16541 1139.7983 859210
-236.82935 309.1586 1147.1945 858952
-231.09424 310.5878 1152.4978 802
-223.81754 309.96909 1150.2019 19
-217.01013 309.98184 1150.2493 14
-211.77666 312.31656 1158.9127 14
-205.37485 313.02707 1161.5492 14
-199.00407 313.83578 1164.5502 16
-192.16542 313.93826 1164.9304 66066
0 0 0 0
0 0 0 0
-264.0817 483.54126 1794.2761 20
-259.40326 494.90213 1836.4329 21
-251.17021 500.17947 1856.0154 21
-247.5614 515.57056 1913.1271 21
-236.81166 516.85364 1917.8882 21
-227.38063 521.28925 1934.3475 21
-217.22179 524.43872 1946.0342 21
-206.5571 526.65167 1954.2456 21
-194.96515 526.62286 1954.1388 21
-183.57997 527.18414 1956.2216 21
-170.85835 523.72461 1943.3843 21
-179.54678 590.13562 2189.8157 21
-168.13722 595.69 2210.4263 21
-156.03867 599.53571 2224.6965 21
-143.78723 603.44965 2239.22 21
-131.97586 610.19403 2264.2463 21
-118.95549 612.24274 2271.8484 21
-105.47699 612.1554 2271.5244 21
-92.047707 612.37 2272.3206 21
-78.78727 613.97388 2278.2722 21
-62.225586 585.19495 2171.4822 21
-49.882336 591.42444 2194.5981 21
-37.319221 598.52191 2220.9346 21
-25.701811 636.78369 2362.9126 21
-10.673677 580.99042 2155.8806 21
2.3459656 648.25885 2405.4934 21
16.601124 648.24683 2405.4487 21
30.645767 643.8233 2389.0344 21
44.977222 646.31677 2398.2871 21
59.493706 649.6333 2410.5935 21
73.863304 650.37207 2413.335 21
74.54184 549.87579 2040.4235 21
86.11747 546.59845 2028.2623 21
97.898521 545.26807 2023.3256 21
109.79141 544.78296 2021.5254 21
121.61 544.06085 2018.8461 21
134.07512 546.1015 2026.4182 21
148.07732 553.55261 2054.0671 21
193.46675 668.29279 2479.8335 21
210.25424 675.00732 2504.749 21
228.65128 685.6629 2544.2886 21
245.65573 691.08246 2564.3989 21
262.12106 694.44226 2576.866 21
282.68762 707.69928 2626.0591 21
300.76361 713.66321 2648.1892 21
321.37112 724.74457 2689.3088 21
333.72522 717.04535 2660.7395 21
349.81152 717.69824 2663.1621 21
0 0 0 0
420.66974 791.64282 2937.5481 21
432.00876 780.67468 2896.8489 21
451.73242 785.11768 2913.3352 21
442.62024 740.96124 2749.4841 19
486.07764 784.81915 2912.2275 19
506.3891 789.57947 2929.8916 19
525.10522 791.61914 2937.4602 19
546.46313 797.38275 2958.8472 19
565.61444 799.66821 2967.3279 19
588.74335 807.26978 2995.5352 19
614.17688 817.49396 3033.4741 19
637.1601 823.96802 3057.4971 19
658.42328 827.92114 3072.166 19
679.2702 831.15216 3084.1553 19
699.31403 833.25696 3091.9656 19
718.25702 833.97607 3094.634 19
738.3584 835.97089 3102.0361 19
748.97095 827.38647 3070.1821 19
769.98773 830.43024 3081.4768 19
794.91187 837.44946 3107.5229 19
819.13434 843.42828 3129.7085 19
842.48688 848.26642 3147.6614 19
855.64954 842.85754 3127.5906 19
876.71313 845.29578 3136.6382 18
899.29858 849.06958 3150.6416 18
928.07666 858.41772 3185.3296 18
931.63385 844.53027 3133.7976 18
951.19165 845.4068 3137.0503 17
971.02051 846.48602 3141.0549 15
988.12347 845.19312 3136.2571 15
1015.3959 852.48578 3163.3181 65548
1045.6207 861.94788 3198.429 262153
1042.5574 844.12073 3132.2778 721413
1053.6248 838.15833 3110.1533 3285792
1059.1678 828.08191 3072.7627 5455669
1094.4952 841.23859 3121.583 8020819
1130.9197 854.78711 3171.8577 9137761
1138.2272 846.24493 3140.1602 9138015
1163.6887 851.25745 3158.7603 9204067
1178.3197 848.31403 3147.8379 8941923
1200.8093 851.0318 3157.9229 9732466
1213.9739 847.15887 3143.5513 10851205
1242.1615 853.72815 3167.9282 11377806
1262.5638 854.83081 3172.0195 11311756
1273.0267 849.27014 3151.3857 9666417
1292.7012 849.92676 3153.8223 8876387
1317.2799 853.74316 3167.9836 10126196
1341.3512 857.12805 3180.5442 9862768
1356.3137 854.6792 3171.4573 10059633
1373.5181 853.69073 3167.7893 9862255
1398.621 857.57196 3182.1914 9335911
1440.3656 871.41815 3233.5703 9204068
1445.0348 862.76459 3201.4597 9467240
1453.7046 856.69299 3178.9299 9138276
1473.6196 857.31909 3181.2529 9204325
1486.9697 854.15814 3169.5237 9269861
1503.6285 852.953 3165.052 9401704
1516.6681 849.74982 3153.1658 9598826
1524.5361 843.76239 3130.9482 10651514
1554.4435 849.97003 3153.9829 9335398
1588.4954 858.26947 3184.7798 9137762
1588.5648 848.2287 3147.5215 9598570
1623.2236 856.67615 3178.8674 9532777
1640.2158 855.71277 3175.2925 9335398
1660.532 856.4859 3178.1611 9269605
1691.3497 862.59735 3200.8391 8809310
1705.1425 859.98676 3191.1521 8941153
1732.9374 864.41803 3207.595 8480345
1752.1161 864.50183 3207.906 9270118
1776.577 867.16205 3217.7773 8677981
1794.9498 866.82574 3216.5293 9270118
1816.5428 868.03534 3221.0178 9796461
1839.2889 869.76495 3227.4358 8874590
1857.7736 869.46454 3226.3213 9729899
1883.4312 872.4931 3237.5593 9598571
1904.8411 873.5127 3241.3428 9269863
1930.771 876.56409 3252.6653 9072227
1946.9034 875.15106 3247.4219 9664621
1974.8607 879.02893 3261.8118 9138277
1975.6678 870.86407 3231.5144 9270633
2019.2755 881.54114 3271.1338 9796720
2031.8629 878.60156 3260.2258 9600111
2031.6014 870.21375 3229.1013 8877414
2082.1328 883.53601 3278.5359 9008744
2067.1838 869.0827 3224.9043 8942695
2124.9653 885.19135 3284.6785 8745572
2105.1624 868.98175 3224.5298 10258810
2151.0261 879.92627 3265.1416 10521981
2170.3762 879.92639 3265.1418 10784638
2185.269 878.13544 3258.4961 10126453
2196.6853 874.99084 3246.8276 9599852
2222.7339 877.67877 3256.8018 9401961
2227.2332 871.88458 3235.3013 9270118
2256.0674 875.63428 3249.2153 9532520
2278.1992 876.74121 3253.3228 8940639
2291.4482 874.43982 3244.7827 9071456
2317.5984 877.0589 3254.5015 9269345
2337.4304 877.26355 3255.261 8940381
2383.5225 887.23975 3292.2795 9334883
2398.9143 885.71893 3286.6365 8150607
2397.8955 878.21246 3258.782 8676952
2365.6951 859.49701 3189.3347 8545878
2385.8062 859.93335 3190.9536 9334365
2383.5188 852.35297 3162.8252 7095863
2408.269 854.48419 3170.7336 6371626
2399.74 844.86597 3135.0432 4201234
2419.7776 845.37561 3136.9343 5253915
2437.4602 845.06085 3135.7666 5516318
2474.8777 851.54126 3159.8135 6503458
2443.5876 834.46136 3096.4351 8345922
2445.3494 828.83887 3075.5715 10714726
2485.9541 836.3678 3103.509 9594708
2489.3652 831.36456 3084.9436 10318430
2500.5608 829.0152 3076.2258 10515553
2515.6975 827.99701 3072.4475 10252384
2529.2715 826.48273 3066.8286 9858138
2537.6086 823.29114 3054.9854 9595223
2547.7244 820.71759 3045.4358 9792601
2533.0586 810.25342 3006.6064 8673608
2558.9827 812.82831 3016.1611 9462867
2538.325 800.67389 2971.0598 9661015
2583.5532 809.32654 3003.1672 9661015
2587.52 805.02368 2987.2004 9660756
2593.7542 801.4798 2974.05 9134670
2586 793.69049 2945.1465 11371374
2602.7676 793.48132 2944.3704 10779236
2640.6162 799.65894 2967.2937 11437167
2692.2122 809.89044 3005.2598 11568751
2742.0623 819.46576 3040.7905 11569011
2768.9988 822.11279 3050.6133 11240820
2803.0718 826.83081 3068.1204 10517870
2891.8801 847.52936 3144.926 8808538
2887.8872 840.93945 3120.4731 8546391
2876.8237 832.3877 3088.74 5980470
2984.5151 858.08752 3184.1045 4929327
3000.0815 857.1438 3180.6025 1904396
3011.6523 855.07739 3172.9346 983040
2994.8186 845.02197 3135.6221 917504
0 0 0 0
0 0 0 0
0 0 0 0
0 0 0 0
0 0 0 0
0 0 0 0
0 0 0 0
0 0 0 0
0 0 0 0
0 0 0 0
0 0 0 0
0 0 0 0
0 0 0 0
0 0 0 0
0 0 0 0
0 0 0 0
0 0 0 0
0 0 0 0
-1220.9363 405.77902 1473.3247 14
-1215.8983 407.01532 1477.8136 14
-1209.689 407.87463 1480.9336 14
-1201.2333 407.98349 1481.3289 14
-1187.795 406.38928 1475.5405 14
-1187.6531 409.35434 1486.3062 11
-1181.0388 410.11612 1489.0723 12
-984.9798 344.6095 1251.2271 12
-943.17499 332.48645 1207.2101 14
-1164.412 413.61389 1501.7721 14
-1158.272 414.60178 1505.3589 14
-1151.8542 415.50482 1508.6377 14
-1141.9996 415.17249 1507.431 14
-1134.6392 415.74878 1509.5236 14
-1128.1396 416.65228 1512.804 14
-1115.7324 415.37082 1508.1512 13
-1110.8107 416.87793 1513.6233 12
-1102.9473 417.29666 1515.1437 12
-1054.9763 402.42313 1461.14 12
-1049.2446 403.54895 1465.2278 12
0 0 0 0
-1073.1958 419.70761 1523.8975 11
-916.09784 361.30984 1311.8636 13
0 0 0 0
-872.21906 349.94354 1270.5942 14
-864.68921 349.94354 1270.5942 14
0 0 0 0
0 0 0 0
0 0 0 0
-772.32452 323.84338 1175.8284 15
-760.06445 321.60425 1167.6984 18
-742.34717 316.99365 1150.958 18
-760.95044 327.95081 1190.7418 18
-752.09296 327.16739 1187.8973 18
-720.99304 316.60211 1149.5364 18
-720.44757 319.38031 1159.6235 19
-785.61389 351.62311 1276.6925 19
0 0 0 0
0 0 0 0
0 0 0 0
0 0 0 0
0 0 0 0
0 0 0 0
0 0 0 0
0 0 0 0
-637.9729 312.64066 1135.1528 19
-632.22809 313.12717 1136.9193 19
0 0 0 0
0 0 0 0
0 0 0 0
0 0 0 0
-597.13544 312.3924 1134.2515 19
-591.99725 313.23032 1137.2938 19
-588.72266 315.0849 1144.0276 20
0 0 0 0
-574.58112 314.76605 1142.8699 21
-566.39978 313.98529 1140.035 21
-574.01282 322.04703 1169.306 20
-555.20569 315.30173 1144.8148 19
0 0 0 0
-534.39551 311.08636 1129.5094 19
-525.49945 309.78802 1124.7954 19
-519.72467 310.32001 1126.7269 21
-512.03253 309.70612 1124.498 21
-505.90054 310.0322 1125.6819 21
-483.15985 300.05261 1089.4475 21
-487.33417 306.74387 1113.7424 21
0 0 0 0
-462.51779 299.22891 1086.4568 21
-468.55051 307.41116 1116.1654 21
-451.33875 300.35895 1090.5598 21
-454.99609 307.19168 1115.3684 21
-453.12854 310.4407 1127.1652 21
-444.47919 309.07114 1122.1925 21
-437.17438 308.60916 1120.5151 21
-430.1261 308.3168 1119.4536 21
-423.2532 308.14294 1118.8224 21
-416.24301 307.86206 1117.8025 21
-400.85901 301.27844 1093.8983 21
-398.58298 304.49207 1105.5665 22
-393.95358 305.9852 1110.9879 23
-387.37466 305.9892 1111.0023 27
-378.78745 304.37952 1105.1578 34
-364.65109 298.1756 1082.6324 134194
-356.31036 296.57352 1076.8154 66595
-351.25485 297.69727 1080.8956 20
-345.68024 298.41464 1083.5004 11
-340.52481 299.52792 1087.5425 11
-334.69061 300.07553 1089.5308 11
-328.75787 300.55466 1091.2704 17
-324.32504 302.45172 1098.1583 397365
-319.0036 303.58084 1102.2581 859208
-313.5423 304.62131 1106.0358 793673
-307.48865 305.11838 1107.8406 1319
-301.26895 305.46878 1109.1129 30
-295.27475 306.06857 1111.2906 27
-289.76547 307.20987 1115.4344 26
-284.19073 308.33344 1119.5139 26
-279.09232 310.03976 1125.7095 24
-272.31403 309.91791 1125.267 28
-267.37592 311.93677 1132.5972 547
-260.68701 311.96442 1132.6975 465219
-255.07716 313.31897 1137.6157 663120
-248.54774 313.58685 1138.5884 663124
-243.07925 315.24561 1144.6111 597586
-236.79451 315.91061 1147.0256 924747
-230.30461 316.33316 1148.5598 802
-223.65691 316.55807 1149.3765 19
-216.9323 316.68481 1149.8367 15
-211.73181 319.11694 1158.6674 14
-205.22516 319.67749 1160.7026 14
-198.94951 320.64923 1164.2308 16
-192.23901 320.96475 1165.3765 263961
0 0 0 0
0 0 0 0
-263.74503 493.54453 1791.9886 20
-256.02466 499.19766 1812.5143 21
-250.15588 509.11426 1848.52 21
-234.60028 499.32181 1812.9651 21
-235.80992 525.98499 1909.7753 21
-226.29634 530.2121 1925.1233 21
-216.49744 534.18408 1939.545 21
-206.33887 537.66431 1952.1812 21
-194.8329 537.83838 1952.8131 21
-183.54807 538.68347 1955.8816 21
-175.92281 551.10669 2000.9886 21
-164.49512 552.5531 2006.2402 21
-166.22232 601.85602 2185.252 21
-155.39639 610.19769 2215.5393 21
-142.94458 613.10553 2226.0972 21
-130.57454 616.99091 2240.2046 21
-118.50385 623.33051 2263.2227 21
-104.97747 622.65411 2260.7668 21
-91.670235 623.26978 2263.0022 21
-70.690521 562.99152 2044.1405 21
-66.039345 634.71851 2304.5708 21
-49.964924 605.43079 2198.2314 21
-39.975121 655.21539 2378.9919 21
-25.979828 657.82642 2388.4724 21
0 0 0 0
2.3689203 668.99683 2429.0305 21
16.999809 678.41235 2463.2168 21
28.679068 615.75507 2235.7173 21
41.838829 614.43958 2230.9409 21
59.492451 663.90497 2410.5427 21
74.149162 667.2464 2422.6748 21
92.870911 700.14984 2542.1426 21
108.64431 704.74323 2558.8206 21
98.150291 558.69183 2028.5291 20
110.08913 558.27264 2027.0071 21
121.98382 557.73413 2025.0518 21
134.61078 560.34021 2034.514 21
148.358 566.79779 2057.9607 21
193.5731 683.36432 2481.1968 21
210.75835 691.505 2510.7544 21
228.82352 701.2688 2546.2053 21
245.68488 706.3634 2564.7031 21
263.61899 713.76898 2591.5918 21
282.85275 723.68439 2627.593 21
300.62756 729.02704 2646.9915 21
318.26776 733.52954 2663.3394 21
331.40643 727.72186 2642.2524 21
347.84137 729.34973 2648.1631 21
365.14816 732.5863 2659.9146 21
382.56784 735.77203 2671.4817 21
441.89993 816.10931 2963.1746 21
451.57663 802.1059 2912.3303 21
469.52521 803.28558 2916.6135 19
485.69647 801.44867 2909.9438 19
505.24918 805.1261 2923.2961 19
524.10925 807.49268 2931.8887 19
0 0 0 0
563.41797 814.07953 2955.8047 19
584.38971 818.92108 2973.3838 19
610.21027 830.07513 3013.8826 19
632.74127 836.24731 3036.2927 19
654.1875 840.68408 3052.4019 19
674.87561 843.93396 3064.2019 19
695.8819 847.40106 3076.7905 19
714.18359 847.48181 3077.0835 19
732.5437 847.62598 3077.6072 19
742.90741 838.73541 3045.3267 19
762.00629 839.89453 3049.5352 19
782.85034 842.87903 3060.3713 19
807.18384 849.40015 3084.0488 19
826.7215 850.69751 3088.7595 19
845.33661 851.01013 3089.8945 19
868.75391 856.04132 3108.1619 18
892.4837 861.16528 3126.7661 18
906.29773 856.70734 3110.5803 18
923.17133 855.26184 3105.3315 18
941.07672 854.80994 3103.6909 17
962.9176 857.88159 3114.8438 15
974.34503 851.73462 3092.5249 16
1020.1558 875.31641 3178.147 65552
1039.1379 875.44086 3178.5989 131085
1044.9938 864.69922 3139.5977 327687
1048.6139 852.51593 3095.3618 1443853
1048.1741 837.50757 3040.8684 3482401
1071.0535 841.32391 3054.7253 5784637
1102.2375 851.42859 3091.4138 8415836
1123.1531 853.40045 3098.5732 8480859
1144.027 855.27777 3105.3894 8941409
1166.2679 858.10144 3115.6418 9007201
1163.7831 842.92828 3060.5503 8217943
1196.8025 853.54175 3099.0864 9271915
1215.0315 853.44574 3098.7375 10653569
1251.604 866.04523 3144.4846 11377805
1258.4865 858.03241 3115.3914 10456446
1285.1552 863.54651 3135.4121 9798003
1310.8744 868.27448 3152.5789 10389370
1313.0804 857.51428 3113.5098 9994611
1336.6113 860.78552 3125.3875 9994611
1360.9126 864.45673 3138.717 10126197
1386.2 868.64685 3153.9307 10059891
1401.8446 866.76331 3147.092 10059634
1431.47 873.46014 3171.407 9533290
1439.4092 866.9223 3147.6692 10454135
1445.4977 859.45142 3120.5432 9270118
1463.9069 859.4021 3120.3645 9072995
1486.1855 861.59753 3128.3354 9401960
1505.9462 862.29681 3130.8748 9006433
1517.941 858.58673 3117.4038 9532777
1537.9604 859.45007 3120.5386 9927279
1547.4185 854.46106 3102.4243 9072226
1570.1787 856.84833 3111.092 8414039
1607.3422 866.94885 3147.7656 9138019
1628.4626 868.26373 3152.5398 9466984
1642.678 865.90881 3143.9895 9269605
1662.0265 866.28229 3145.3455 9466983
1681.9978 866.96863 3147.8372 8808798
1713.4005 873.46722 3171.4329 9335398
1730.3292 872.52637 3168.0168 9598314
1738.1018 867.03833 3148.0903 9006177
1770.3813 873.76196 3172.5029 8743518
1779.9531 869.25482 3156.1382 9072227
1830.1716 884.48517 3211.4375 9993329
1821.842 871.39807 3163.9202 9532777
1850.5751 876.12439 3181.0806 9072483
1873.0428 877.81915 3187.2339 9203814
1895.9543 879.68579 3194.0115 9861743
1923.0292 883.42822 3207.5996 9861999
1933.8352 879.69672 3194.0513 9336426
1949.0947 878.04388 3188.0498 9336426
1968.7673 878.39166 3189.3127 9204839
1987.1039 878.14246 3188.408 8875619
1993.5487 872.69214 3168.6187 9073510
2028.4052 879.66498 3193.936 8942181
2059.6409 884.95325 3213.137 9205352
2088.854 889.28351 3228.8594 9731696
2080.6956 877.76929 3187.0532 9994868
2114.2822 883.91479 3209.3665 10191990
2132.2878 883.49475 3207.8413 9401702
2143.8916 880.45306 3196.7974 9072738
2159.8357 879.23145 3192.3618 9401704
2176.6926 878.39941 3189.3408 9335655
2203.7251 881.65265 3201.1531 9137762
2219.46 880.36914 3196.4929 9203812
2234.1821 878.70917 3190.4656 8874588
2240.7188 873.88452 3172.948 8150608
2252.894 871.32092 3163.6401 8940124
2296.2866 880.77356 3197.9609 8742746
2327.533 885.45081 3214.9434 8939610
2351.0342 887.12939 3221.0383 9136476
2395.1604 896.50098 3255.0649 8279371
2350.6609 872.81549 3169.0664 8475979
2350.5811 865.86792 3143.8408 6040099
2316.5732 846.63019 3073.9915 4856596
2326.1318 843.49042 3062.5916 7950657
2360.2019 849.21875 3083.3901 9004883
2417.3 863.08112 3133.7224 7820096
2441.2742 864.99548 3140.6731 5451548
2467.7466 867.7594 3150.7085 4530448
2464.5437 860.12524 3122.99 6306854
2476.3625 857.80823 3114.5774 5057043
2503.0117 860.62476 3124.8037 4333845
2489.2412 849.60431 3084.79 11701621
2493.6521 844.90479 3067.7268 10845286
2499.6074 840.79279 3052.7966 10187614
2517.802 840.82727 3052.9216 9792344
2524.6062 837.08429 3039.3318 9594967
2529.3528 832.71722 3023.4753 9529430
2498.6924 816.83673 2965.8157 9726552
2527.2766 820.41022 2978.7905 10450531
2516.8435 811.35608 2945.9163 9661014
2556.4995 818.46271 2971.7195 10318688
2554.0229 812.07568 2948.5291 10910823
2552.2673 806.00317 2926.4807 11173991
2566.4624 805.01581 2922.8955 9923412
2573.8552 801.92218 2911.6633 8607808
2623.0232 811.79901 2947.5244 8871238
2646.9707 813.79114 2954.7576 9397582
2674.2805 816.78406 2965.6245 10187615
2708.6975 821.89441 2984.1794 9859419
2737.8198 825.34235 2996.6982 9596511
2793.2737 836.63257 3037.6917 7886921
2831.2148 842.56641 3059.2366 8348241
2874.0669 849.87695 3085.78 8479830
2858.6943 839.98657 3049.8694 8874332
2883.3892 841.9198 3056.8887 9137763
2957.2422 858.09277 3115.6106 8282198
2944.23 849.01624 3082.6548 7032645
0 0 0 0
0 0 0 0
0 0 0 0
0 0 0 0
0 0 0 0
0 0 0 0
0 0 0 0
0 0 0 0
0 0 0 0
0 0 0 0
0 0 0 0
0 0 0 0
0 0 0 0
0 0 0 0
0 0 0 0
0 0 0 0
0 0 0 0
0 0 0 0
-1216.2371 412.91483 1467.6541 14
-1202.4127 411.16177 1461.4231 14
-1192.5276 410.74005 1459.9241 14
-1186.0405 411.49112 1462.5936 14
-1178.4865 411.88034 1463.9771 14
-1174.8411 413.65149 1470.2725 14
-1172.9834 416.08331 1478.916 14
-1149.9407 410.98029 1460.778 14
-1151.7849 414.76181 1474.2189 14
-922.25885 334.64703 1189.4609 14
-914.17847 334.2699 1188.1205 14
-1142.2916 420.92157 1496.1129 14
-1135.1093 421.54697 1498.3358 14
-1129.03 422.59506 1502.0612 14
-1116.5533 421.24625 1497.267 14
-1105.6943 420.49103 1494.5826 12
-1083.6458 415.4339 1476.6078 12
-1092.3427 422.17719 1500.5759 12
-1053.2079 410.39304 1458.6907 12
-1046.8721 411.30008 1461.9147 14
-829.737 328.71136 1168.3634 13
-916.52264 366.14807 1301.4275 13
-852.00287 343.26117 1220.0789 13
-1056.5181 429.30096 1525.8965 14
-1048.9078 429.88812 1527.9834 14
-1038.1322 429.17682 1525.4552 14
-1033.9099 431.18613 1532.597 15
0 0 0 0
0 0 0 0
0 0 0 0
0 0 0 0
0 0 0 0
-890.82855 392.18604 1393.9762 19
0 0 0 0
-721.75024 323.75418 1150.7437 19
-833.2605 377.33945 1341.2058 19
0 0 0 0
-957.47705 442.02322 1571.1162 19
-944.45569 440.29343 1564.9678 19
-683.78918 321.9353 1144.2787 19
-680.79956 323.73831 1150.6873 19
0 0 0 0
0 0 0 0
0 0 0 0
0 0 0 0
-646.29333 323.53299 1149.9574 19
-628.62366 318.0412 1130.4376 19
-642.91669 328.77625 1168.594 19
0 0 0 0
-615.87305 321.88107 1144.0859 19
-602.46692 318.37946 1131.6399 19
-599.5968 320.42957 1138.9268 19
-600.52826 324.58105 1153.6827 19
-576.79364 315.34286 1120.8467 19
-584.22095 323.12463 1148.506 19
-567.16644 317.38965 1128.1217 19
-555.75067 314.711 1118.6008 19
-555.57886 318.41174 1131.7546 19
-543.8316 315.48779 1121.3618 19
-539.53906 316.86966 1126.2734 19
-531.70709 316.1814 1123.8271 19
-527.69324 317.7749 1129.4911 18
-518.2951 316.12531 1123.6278 21
-509.95676 315.08762 1119.9395 21
-506.77295 317.24939 1127.6232 21
-495.96442 314.63193 1118.3197 21
-490.68829 315.50073 1121.4078 21
0 0 0 0
-480.09949 317.2868 1127.7562 21
-474.2095 317.81854 1129.6461 21
-467.13794 317.56223 1128.7351 21
-459.57352 316.95856 1126.5895 21
-452.67288 316.80161 1126.0316 21
-440.67087 313.01639 1112.5775 21
-438.14688 315.95087 1123.0078 21
-430.75037 315.40805 1121.0784 21
-423.79248 315.17441 1120.2479 21
-416.77286 314.88669 1119.2253 21
-409.90845 314.70883 1118.5931 21
-402.9895 314.4826 1117.7891 22
-394.88281 313.30643 1113.6084 23
-389.28485 314.11456 1116.4808 28
-373.74554 306.79025 1090.4475 290
-364.80911 304.72354 1083.1017 68915
-356.74484 303.32437 1078.1285 1313
-350.99548 303.87836 1080.0975 19
-345.20554 304.41708 1082.0125 11
-340.54102 305.98749 1087.5942 11
-334.68494 306.52716 1089.5123 14
-328.92026 307.1734 1091.8093 21
-324.01355 308.6629 1097.1036 331833
-319.64502 310.7366 1104.4744 662092
-313.5184 311.15216 1105.9514 531539
-308.18231 312.38678 1110.3397 466002
-301.98608 312.78439 1111.7529 597073
-296.16281 313.59467 1114.6329 727881
-291.05209 315.21359 1120.3872 1316
-283.90851 314.65509 1118.4021 25
-278.90118 316.49408 1124.9386 23
-272.75519 317.09937 1127.09 26
-267.15695 318.38785 1131.6697 200754
-261.04767 319.11792 1134.2646 859723
-255.51813 320.61404 1139.5824 663123
-249.37064 321.39493 1142.358 597590
-243.33763 322.37112 1145.8278 597332
-237.11972 323.15134 1148.601 728138
-231.42139 324.7067 1154.1293 1314
-222.08345 321.09457 1141.2904 19
-217.68079 324.6152 1153.8041 16
-211.60283 325.78488 1157.9615 14
-205.25995 326.61145 1160.8994 12
-198.83987 327.36819 1163.5892 13
-192.10774 327.64713 1164.5807 527646
-184.84827 327.01395 1162.3301 17
0 0 0 0
-266.34741 509.13879 1809.6702 20
-257.81189 513.49878 1825.1671 21
-248.2005 516.00378 1834.0709 21
-237.50728 516.38617 1835.4299 21
-235.31145 536.16699 1905.7383 21
-227.58823 544.71283 1936.1135 21
-216.72824 546.26001 1941.6127 21
-219.82906 585.14154 2079.8123 21
-208.41214 587.70343 2088.9182 21
-196.92529 590.37921 2098.429 21
-184.77995 591.30847 2101.7319 21
-175.7094 602.92285 2143.0137 21
-153.41685 567.44275 2016.9041 21
-147.42409 591.34888 2101.8755 21
-135.25293 592.5976 2106.314 21
-122.32719 590.45795 2098.709 21
-111.25906 597.81531 2124.8596 21
-103.63496 627.91779 2231.855 21
-86.373322 599.89203 2132.241 21
-73.991417 601.96008 2139.5918 21
-61.806461 606.81726 2156.856 21
-52.604767 651.13361 2314.3728 21
-39.01524 653.24225 2321.8677 21
-23.277567 602.08569 2140.0383 21
0 0 0 0
2.0944531 604.21283 2147.5989 21
14.665821 597.8631 2125.0295 21
26.992428 592.01215 2104.2332 21
39.188194 587.89612 2089.603 21
59.694687 680.49579 2418.7371 20
74.390907 683.82587 2430.5732 21
74.954437 577.23724 2051.7175 23
86.471252 572.98254 2036.5946 23
98.487 572.6712 2035.4879 23
110.58989 572.87915 2036.2272 23
122.66369 572.9104 2036.3383 23
136.59894 580.85132 2064.5632 23
177.44304 692.5033 2461.4163 20
201.60703 727.04047 2584.1743 21
217.6011 729.31866 2592.272 21
233.22549 730.13904 2595.1877 21
249.54634 732.90332 2605.0129 21
263.87317 729.83038 2594.0906 21
283.0701 739.8241 2629.6121 21
300.54858 744.51807 2646.2961 21
318.22067 749.20221 2662.9453 21
344.23029 772.14569 2744.4951 21
347.26077 743.79974 2643.7429 21
364.46155 746.94232 2654.9128 21
356.06546 699.5365 2486.4148 21
440.29056 830.63342 2952.3826 21
451.14285 818.578 2909.533 21
469.17618 819.96002 2914.4453 19
484.90601 817.36121 2905.208 19
504.16476 820.685 2917.022 19
523.2439 823.50568 2927.0479 19
0 0 0 0
562.04718 829.573 2948.6133 19
580.99133 831.67725 2956.0928 19
605.76746 841.76245 2991.9392 19
628.30762 848.25531 3015.0171 19
649.61957 852.77673 3031.0881 19
670.58771 856.61572 3044.7332 19
691.91888 860.70514 3059.2686 19
712.8913 864.15076 3071.5156 19
721.97021 853.36676 3033.1853 19
741.0365 854.62494 3037.6572 19
760.00696 855.71564 3041.5339 19
779.086 856.87512 3045.6553 19
801.04932 861.08258 3060.6101 19
820.06079 862.00098 3063.8743 19
838.63531 862.43005 3065.3997 19
860.63452 866.28821 3079.113 18
885.01642 872.33478 3100.6047 18
899.03479 868.12811 3085.6526 18
918.05579 868.82343 3088.124 18
932.63708 865.37213 3075.8567 17
950.86523 865.37213 3075.8567 17
965.26282 861.95142 3063.6985 16
1014.3961 889.10248 3160.2034 16
1040.1608 895.15814 3181.7275 65549
1016.7376 859.42108 3054.7046 131084
1033.1489 858.0163 3049.7114 393222
1049.9192 856.95276 3045.9312 1641745
1044.2939 837.9549 2978.4055 4798259
1074.8679 848.15234 3014.6511 6507589
1106.4773 858.81995 3052.5679 8678497
1125.2657 859.35321 3054.4634 8941410
1149.2208 863.75281 3070.1011 9862510
1172.6841 867.65143 3083.9583 10388854
1190.973 867.66071 3083.9912 9731693
1206.228 865.4928 3076.2856 8876385
1219.6664 862.10541 3064.2456 9731439
1242.1715 865.13202 3075.0034 9008484
1262.4971 866.57513 3080.1328 8744798
1275.3824 862.94305 3067.2229 9337189
1298.9652 866.54926 3080.0405 10191986
1320.1517 868.47913 3086.9001 10060659
1337.2611 867.71069 3084.1689 9863280
1360.3137 870.76733 3095.0334 9796972
1382.506 873.19928 3103.6775 9599336
1405.9845 876.36914 3114.9443 9928301
1419.4193 873.27753 3103.9556 9928046
1435.6475 871.96173 3099.2786 10257012
1442.8798 865.28436 3075.5447 9730669
1463.0026 866.40735 3079.5366 9401704
1480.5818 866.01501 3078.1421 9730669
1496.9447 864.92944 3074.2834 9467498
1509.8916 861.92004 3063.5867 9928048
1539.9865 868.65472 3087.5242 9006689
1561.1978 870.27893 3093.2976 8940640
1572.457 866.38226 3079.4473 8809054
1619.2059 881.9046 3134.6194 9466984
1624.6947 874.85724 3109.5706 9335398
1638.8159 872.56427 3101.4202 9203812
1657.2213 872.57776 3101.4683 9730156
1679.3723 874.54144 3108.4482 9401191
1697.3989 874.3382 3107.7256 9401191
1710.87 871.81781 3098.7673 8874590
1735.3048 874.87854 3109.6462 8874847
1755.8267 875.92291 3113.3582 8808797
1776.5078 877.02417 3117.2725 9598571
1796.4805 877.75653 3119.8757 9269606
1815.9945 878.25238 3121.6379 9269349
1839.531 880.6637 3130.209 9203556
1861.8 882.42627 3136.4736 8874848
1895.0989 889.33008 3161.0122 9006691
1908.4164 886.81366 3152.0681 9795950
1921.5924 884.28094 3143.0657 9994098
1936.9972 882.81262 3137.8467 9599853
1959.1635 884.42444 3143.5759 9205094
1978.5443 884.76038 3144.77 9205094
1996.9379 884.65289 3144.3877 9073509
2016.399 885.01569 3145.6775 9205094
2033.6608 884.41547 3143.5439 9204838
2044.38 881.00671 3131.428 9401960
2044.8871 873.29797 3104.0283 9796459
2078.7827 879.8587 3127.3474 9138529
2103.6951 882.53473 3136.8591 9203809
2120.1094 881.63013 3133.6438 9664361
2138.228 881.44391 3132.9819 9598568
2153.8711 880.24908 3128.7349 9335396
2167.0083 878.05927 3120.9517 9072226
2184.0952 877.49335 3118.9402 10059118
2202.7712 877.57007 3119.2126 10387316
2232.594 882.04926 3135.1335 8214607
2252.7378 882.66223 3137.3123 8213068
2247.7654 873.50464 3104.7629 8144707
2285.373 880.90857 3131.0791 5906974
