# .PCD v0.7 - Point Cloud Data file format
VERSION 0.7
FIELDS x y z rgb
SIZE 4 4 4 4
TYPE F F F U
COUNT 1 1 1 1
WIDTH 1545
HEIGHT 1
VIEWPOINT 0 0 0 1 0 0 0
POINTS 1545
DATA ascii
1385.8516 691.17029 2745.8733 65548
1445.9058 712.7522 2831.6138 262154
1467.5426 715.11853 2841.0146 393221
1443.374 695.36383 2762.5334 2102040
1484.7637 707.28149 2809.8799 6903894
1508.6179 710.67438 2823.3589 9535091
1527.2131 711.54248 2826.8079 8614241
1560.9489 719.36945 2857.9026 11245187
1568.2551 714.97894 2840.46 11310724
1586.1858 715.474 2842.4268 11047550
1591.2177 710.20154 2821.4805 10982013
1615.0796 713.35571 2834.0112 11047548
1630.6068 712.80157 2831.8098 10784377
1654.7565 715.98944 2844.4746 9797740
1664.864 713.09851 2832.9895 11376004
1684.2191 714.18665 2837.3125 9599849
1710.3057 718.07965 2852.7786 9665899
1720.8253 715.42444 2842.23 9534570
1747.3143 719.39557 2858.0063 10588029
1760.6772 717.93811 2852.2163 10456443
1770.1534 714.9386 2840.2998 10916736
1801.4626 720.73065 2863.3103 11047550
1813.905 718.93658 2856.1831 10982015
1840.6216 722.78113 2871.4565 10323058
1869.5988 727.43469 2889.9441 9862507
1872.8685 722.09222 2868.7197 8808793
1877.6807 717.43518 2850.218 9006172
1905.6505 721.63049 2866.8853 9137501
1933.3201 725.63898 2882.8101 10190446
1946.608 724.22662 2877.1992 10058860
1978.2489 729.6076 2898.5767 8874586
1999.4458 731.07721 2904.415 8940379
2013.4331 729.90814 2899.7708 9532516
2034.8795 731.44006 2905.8567 10124653
2059.2175 733.97687 2915.9348 9729895
2059.0164 727.79767 2891.3862 9400930
2093.8547 734.00366 2916.0413 8742743
2111.1882 734.02185 2916.1135 9531746
2111.3035 728.10187 2892.5947 8873816
2124.0554 726.6001 2886.6284 9597795
2153.6453 730.83618 2903.4575 9598309
2157.5063 726.34332 2885.6084 9664102
2180.3503 728.26166 2893.2295 9268317
2204.7336 730.66022 2902.7583 9663076
2237.1296 735.65643 2922.6074 9268060
2242.9299 731.8974 2907.6736 9136729
2270.5566 735.26367 2921.0471 9070681
2295.6184 737.7547 2930.9434 9531232
2303.1436 734.61469 2918.4688 9465953
2333.6919 738.81036 2935.1372 9268574
2348.9175 738.12885 2932.4297 9465696
2346.7065 732.01837 2908.1541 9268317
2391.5122 740.55609 2942.0728 9334367
2407.1733 740.01062 2939.9058 9926504
2430.5679 741.83337 2947.147 9335137
2439.5945 739.27612 2936.9875 9006172
2466.6816 742.18927 2948.561 8808793
2475.3572 739.56067 2938.1182 9006431
2493.5525 739.79309 2939.0415 9269856
2517.0562 741.58624 2946.1653 9335394
2514.3911 735.69781 2922.772 10519926
2544.7527 739.48737 2937.8269 10125424
2557.3135 738.08771 2932.2664 9138530
2603.458 746.33453 2965.0291 8546392
2616.2097 744.96204 2959.5767 9203812
2624.1123 742.23633 2948.748 9270118
2600.0386 730.56201 2902.3682 8677724
2648.4124 739.26361 2936.938 8940896
2680.1802 743.24664 2952.7617 9466982
2717.7881 748.78705 2974.7725 9664361
2708.6311 741.45471 2945.6426 8216915
2724.54 741.03369 2943.9702 9203553
2739.5669 740.37976 2941.3723 9533288
2757.5503 740.52808 2941.9614 9467496
2777.4873 741.19586 2944.6143 9336681
2816.7239 746.97333 2967.5671 9402217
2821.0249 743.47205 2953.6572 9797232
0 0 0 0
0 0 0 0
0 0 0 0
0 0 0 0
0 0 0 0
0 0 0 0
0 0 0 0
0 0 0 0
0 0 0 0
0 0 0 0
0 0 0 0
0 0 0 0
0 0 0 0
0 0 0 0
0 0 0 0
0 0 0 0
0 0 0 0
0 0 0 0
-961.98004 299.07663 1160.8379 11
-955.10077 299.07663 1160.8379 11
-949.86407 299.59479 1162.849 11
-946.99554 300.87283 1167.8097 11
-940.96729 301.15848 1168.9183 11
-930.78857 300.11011 1164.8492 11
-912.18671 296.30997 1150.0994 11
-902.62054 295.40982 1146.6055 11
-886.28937 292.26511 1134.3997 11
-879.8421 292.35666 1134.755 12
-876.78271 293.58398 1139.5187 12
-879.67682 296.83936 1152.1541 11
-826.13928 280.95425 1090.4977 12
-821.06006 281.42841 1092.338 12
0 0 0 0
0 0 0 0
0 0 0 0
0 0 0 0
-831.50012 296.70331 1151.626 12
0 0 0 0
0 0 0 0
0 0 0 0
0 0 0 0
0 0 0 0
0 0 0 0
0 0 0 0
0 0 0 0
-715.62659 275.72403 1070.1969 12
0 0 0 0
-661.38458 259.42334 1006.9274 12
0 0 0 0
0 0 0 0
0 0 0 0
-621.08301 252.73651 980.97302 13
-609.00616 250.16368 970.98682 14
-657.30768 272.58014 1057.9943 14
-620.38165 259.74487 1008.1754 14
-637.27625 269.41299 1045.7013 14
-631.10797 269.42529 1045.749 14
0 0 0 0
0 0 0 0
0 0 0 0
-591.0271 262.63031 1019.3749 13
-586.51965 263.31882 1022.0472 14
-580.74347 263.44614 1022.5415 14
-571.14069 261.82199 1016.2375 14
0 0 0 0
0 0 0 0
0 0 0 0
0 0 0 0
0 0 0 0
0 0 0 0
0 0 0 0
-504.08292 252.37053 979.55249 18
-496.37045 251.40445 975.8028 18
-484.82678 248.45226 964.34412 18
-474.50894 246.06531 955.07941 18
-463.63492 243.32887 944.45819 18
-458.7814 243.72385 945.99127 18
-458.39871 246.53311 956.89514 18
-449.86246 244.9727 950.83856 18
-364.02792 200.74599 779.1767 18
-358.91489 200.46925 778.1026 18
-353.30338 199.90326 775.90576 18
-347.53848 199.23441 773.30969 18
-341.73138 198.52316 770.54907 18
-336.52371 198.14563 769.08362 18
-401.05713 239.38512 929.15088 18
-397.24722 240.41179 933.1358 18
-392.54004 240.91678 935.09589 18
-386.35492 240.51614 933.54089 18
-380.05768 240.03307 931.66589 18
-374.5416 240.03638 931.67871 18
-374.30441 243.47356 945.01978 18
-368.83377 243.55923 945.35236 18
-361.85681 242.63753 941.77478 18
-287.40005 195.73058 759.7099 18
-282.91092 195.73961 759.74493 18
-278.297 195.66122 759.44067 18
-273.70721 195.59749 759.1933 18
-268.9552 195.41376 758.48016 18
-264.10397 195.15045 757.45819 18
-259.45374 195.02917 756.98743 18
-254.17049 194.41937 754.62061 18
0 0 0 0
0 0 0 0
0 0 0 0
0 0 0 0
0 0 0 0
0 0 0 0
0 0 0 0
-217.903 193.98215 752.92352 28
-213.41414 193.95775 752.8288 2346
-209.80894 194.75252 755.91364 2086
-204.79053 194.24158 753.93042 20
-200.85782 194.76056 755.94482 14
-196.79648 195.17566 757.55603 10
-192.83736 195.71388 759.64508 9
-188.36514 195.74464 759.76447 9
-184.14754 196.04797 760.94183 8
-180.0285 196.47411 762.59583 10
-175.99117 197.01367 764.69006 14
-171.81371 197.4207 766.26996 24
-167.68359 197.90575 768.15259 199728
-163.44135 198.28183 769.6123 134971
-159.17667 198.65149 771.04706 398662
-154.79146 198.88814 771.96564 333127
-150.62181 199.42459 774.04791 399434
-146.37195 199.88522 775.83575 465229
-142.01634 200.22665 777.16095 464972
-137.60194 200.50528 778.24243 531022
-133.19751 200.81828 779.45734 530764
-128.7635 201.10757 780.5802 530507
-124.21588 201.23436 781.07227 464968
-119.85487 201.68498 782.82135 661829
-115.3613 201.93983 783.81055 463414
-110.76215 202.02351 784.13538 24
-106.32095 202.41525 785.65582 15
-101.73379 202.55223 786.18744 11
-97.287148 202.99556 787.90826 11
-93.289474 204.46765 793.62195 13
-88.118759 203.38849 789.43335 19
-83.696365 204.01239 791.85498 924734
-79.152306 204.39622 793.34479 727878
-74.595268 204.79291 794.88452 727873
-69.754509 204.41167 793.40472 594224
-65.553864 205.98668 799.51794 17
-60.865757 206.15605 800.17542 10
-55.681664 204.53218 793.8725 11
-51.46442 206.48781 801.46307 9
-46.819252 206.9496 803.25543 10
-42.361759 208.43936 809.03784 11
-37.58522 208.5392 809.42535 12
-32.770164 208.42325 808.97528 18
-27.930714 208.08583 807.66565 1448754
-23.14006 208.04759 807.51721 536
0 0 0 0
-26.503113 406.36002 1577.2483 19
-17.245152 408.47162 1585.4442 19
-8.2300005 428.27368 1662.3041 19
1.3574777 358.61307 1391.923 19
9.7767611 364.97617 1416.6207 19
18.626173 374.09888 1452.0297 19
27.548803 378.46194 1468.9645 19
36.407658 380.06387 1475.1823 19
45.256275 380.95935 1478.658 19
53.592915 377.95361 1466.9916 19
62.256161 377.7688 1466.2742 19
71.077133 378.46909 1468.9923 19
79.954712 379.2851 1472.1595 19
88.913956 380.28983 1476.0593 19
97.855209 381.04453 1478.9885 19
108.5301 387.87094 1505.4846 19
119.76599 395.51282 1535.146 19
139.66718 428.6716 1663.8486 19
153.12814 438.99405 1703.9143 19
163.19766 438.91812 1703.6195 19
173.25874 438.82965 1703.2761 19
183.46129 439.08948 1704.2847 18
193.70129 439.4072 1705.5178 18
203.80956 439.40936 1705.5262 18
214.00993 439.60052 1706.2682 18
225.14661 441.61093 1714.0714 19
235.4212 441.82983 1714.9211 19
245.24313 441.21625 1712.5394 19
254.90953 440.38269 1709.3042 19
264.85529 440.07709 1708.1179 19
275.30911 440.60706 1710.1749 19
285.59235 440.83606 1711.0638 19
295.43185 440.38797 1709.3246 19
304.85065 439.36316 1705.3469 19
313.96051 437.97324 1699.952 19
324.35397 438.40463 1701.6265 19
333.67728 437.40717 1697.755 19
342.62808 435.9942 1692.2705 19
350.66409 433.53052 1682.708 18
365.49652 439.37323 1705.3861 18
375.88632 439.70468 1706.6725 18
386.60138 440.38925 1709.3296 18
401.08459 445.22162 1728.0861 18
411.50967 445.4209 1728.8595 18
422.09033 445.77481 1730.233 18
432.51782 445.95395 1730.9283 18
444.44983 447.64014 1737.4731 18
452.54068 445.46881 1729.0454 18
461.33932 444.07495 1723.6353 18
468.03284 440.759 1710.7648 18
477.34244 439.99512 1707.7998 18
484.4375 437.26401 1697.1992 18
492.84283 435.80264 1691.5271 18
500.155 433.45218 1682.4039 18
507.66132 431.35855 1674.2777 18
516.80597 430.7106 1671.7628 18
528.91217 432.50876 1678.7422 18
543.85406 436.51657 1694.2981 18
557.83643 439.62289 1706.355 18
567.95483 439.62772 1706.3737 18
577.03613 438.84354 1703.3301 18
588.15918 439.61246 1706.3146 18
0 0 0 0
640.05536 462.49857 1795.1448 18
0 0 0 0
671.24628 469.43192 1822.056 18
685.08643 471.52582 1830.1832 16
761.90497 516.22522 2003.6797 16
776.97949 518.36029 2011.9667 16
789.76062 518.92389 2014.1543 16
809.86835 524.21307 2034.6837 16
826.42847 527.08453 2045.8291 16
0 0 0 0
867.31586 537.39435 2085.8457 16
884.599 540.40112 2097.5164 16
907.76154 546.86658 2122.6113 16
932.88977 554.3233 2151.554 16
958.71887 561.98987 2181.3108 15
986.34058 570.48914 2214.3 16
1013.0735 578.25787 2244.4539 15
1096.5612 617.8009 2397.9363 17
1090.0691 606.28632 2353.2434 17
1147.134 629.96576 2445.1531 17
1218.2632 660.68176 2564.3743 16
1226.8469 657.13953 2550.6252 16
1341.1516 709.62177 2754.3303 16
1292.1365 675.46625 2621.759 16
1375.4232 710.46173 2757.5906 16
1415.262 722.45618 2804.146 65550
1472.4131 742.90723 2883.5247 65547
1484.5464 740.43585 2873.9324 196616
1475.675 727.66302 2824.3557 1050895
1519.0194 740.63574 2874.708 4602682
1537.2942 741.23303 2877.0264 6641743
1534.9778 731.99762 2841.1802 7890778
1535.838 724.46112 2811.9277 10521979
1543.6594 720.33472 2795.9116 11705738
1561.5172 720.92963 2798.2207 11179395
1589.165 725.9845 2817.8408 11442565
1603.2633 724.80865 2813.2769 10982013
1626.8837 727.9176 2825.344 11376770
1617.8538 716.50323 2781.04 10850427
1670.501 732.35876 2842.5818 10784635
1671.5646 725.50873 2815.9941 11837836
1697.4969 729.48138 2831.4136 10982013
1712.4358 728.69812 2828.3733 10257778
1722.8334 726.01624 2817.9641 9929067
1740.0665 726.23889 2818.8281 9402469
1741.0327 719.7326 2793.5745 9402469
1787.6777 732.05426 2841.3999 11047808
1800.3151 730.34985 2834.7844 11508102
1804.8114 725.40485 2815.5908 11179138
1845.1505 734.82471 2852.1531 9927787
1857.4351 733.00232 2845.0796 9335650
1869.0726 730.95972 2837.1516 9006172
1894.5803 734.32953 2850.2312 9268574
1909.2581 733.47919 2846.9307 8939352
1935.7737 737.15173 2861.1853 9597282
1951.2426 736.59033 2859.0063 9531489
1965.1846 735.46716 2854.647 9202524
2003.6014 743.4447 2885.6108 9729125
2014.191 741.04919 2876.3127 9400673
2033.8866 742.01593 2880.0652 9664102
2047.4718 740.75598 2875.1748 9466979
2062.6475 740.0874 2872.5798 9598052
2077.1167 739.17841 2869.0518 9663075
2091.3997 738.21844 2865.3257 9071195
2106.2822 737.48383 2862.4744 9926504
2127.9692 739.12445 2868.8423 9597282
2146.2302 739.55847 2870.5269 9202524
2158.9197 738.08099 2864.792 9531489
2179.4963 739.30188 2869.531 9531230
2198.4133 739.94525 2872.0281 9531486
2229.9761 744.80243 2890.8806 9597281
2241.6445 742.99146 2883.8518 9136474
2255.2063 741.83087 2879.3469 9268317
2279.3875 744.15448 2888.3657 9202781
2328.2927 754.45508 2928.3464 9202781
2318.7817 745.81427 2894.8081 9400160
2334.6628 745.40735 2893.2288 9136987
2358.6267 747.56836 2901.6165 9531745
2380.8726 749.15747 2907.7844 9597796
2414.2661 754.20618 2927.3806 9532259
2429.2373 753.46893 2924.519 9861481
2446.5476 753.4624 2924.4937 9203294
2451.6238 749.71478 2909.9475 8809049
2471.8008 750.60516 2913.4036 8875099
2482.8313 748.72498 2906.1057 8875355
2508.3921 751.22223 2915.7986 10256751
2499.0984 743.31842 2885.1206 9730663
2554.9136 754.7561 2929.5149 9006428
2555.2876 749.77179 2910.1687 9138014
2586.46 753.83057 2925.9226 8940382
2593.425 750.82697 2914.2644 9204066
2600.8369 747.99164 2903.2593 9533031
2633.2544 752.33783 2920.1287 9270116
2674.4387 759.11572 2946.4365 9861996
2644.5244 745.75586 2894.5813 8941151
2654.0552 743.61993 2886.291 10520183
2668.4634 742.86932 2883.3774 10257781
2703.3027 747.77966 2902.4368 9336679
2722.7981 748.41052 2904.8853 9336679
2755.0273 752.51154 2920.803 9797230
2753.4751 747.39185 2900.9314 9468267
2788.7917 752.28113 2919.9084 8283993
0 0 0 0
0 0 0 0
0 0 0 0
0 0 0 0
0 0 0 0
0 0 0 0
0 0 0 0
0 0 0 0
0 0 0 0
0 0 0 0
0 0 0 0
0 0 0 0
0 0 0 0
0 0 0 0
0 0 0 0
0 0 0 0
0 0 0 0
0 0 0 0
0 0 0 0
-930.50537 298.07715 1130.9445 11
-918.55121 296.38254 1124.5149 11
-918.58344 298.55902 1132.7727 11
-914.7027 299.48636 1136.2911 11
-901.96643 297.50647 1128.7793 11
-892.43408 296.5618 1125.1949 11
-888.20563 297.3786 1128.2941 11
-885.14844 298.60294 1132.9395 11
-886.66364 301.40027 1143.5529 12
-882.97955 302.45972 1147.5725 12
-880.04034 303.79272 1152.6301 12
-865.40417 301.07718 1142.327 12
-858.34058 300.97415 1141.936 11
-850.28967 300.52051 1140.2148 11
-838.63861 298.77695 1133.5996 11
0 0 0 0
0 0 0 0
0 0 0 0
0 0 0 0
-778.23987 288.82739 1095.8496 12
0 0 0 0
0 0 0 0
0 0 0 0
-584.31256 224.34372 851.19 12
0 0 0 0
-727.09705 284.06979 1077.7987 12
-720.28674 283.90305 1077.166 12
-712.8963 283.50262 1075.6467 12
-706.86554 283.64053 1076.17 12
0 0 0 0
0 0 0 0
0 0 0 0
0 0 0 0
-660.82672 277.69409 1053.6084 14
-632.12927 268.16864 1017.4675 14
-621.6449 266.26062 1010.2283 14
0 0 0 0
0 0 0 0
0 0 0 0
0 0 0 0
-587.14185 264.20465 1002.4277 14
-585.27386 266.05603 1009.452 14
-572.2804 262.83588 997.23444 14
-562.90479 261.22754 991.13214 14
-553.38593 259.51804 984.64612 14
-547.55066 259.51804 984.64612 14
-539.68665 258.54611 980.9585 14
-539.47479 261.25882 991.25085 14
-530.80933 259.89227 986.06592 14
-522.5957 258.71896 981.61432 14
0 0 0 0
0 0 0 0
-499.57236 255.86542 970.78748 18
-489.40207 253.57669 962.10376 18
0 0 0 0
-472.76315 250.79919 951.56561 18
-385.4245 206.93469 785.13782 18
-378.19434 205.53404 779.82355 18
-373.43399 205.4576 779.53351 18
-368.4173 205.23643 778.6944 18
-363.43948 205.0316 777.91724 18
-358.26205 204.70743 776.68732 18
-352.70386 204.1544 774.58911 18
-346.58585 203.25853 771.19 18
-341.27591 202.81892 769.52209 18
-336.09494 202.4451 768.1037 18
-331.36478 202.33627 767.6908 18
-326.1188 201.90509 766.05487 18
-390.99976 245.49126 931.42657 18
-382.34933 243.49757 923.86224 18
-376.09555 242.9944 921.95319 18
-371.84708 243.79112 924.97607 18
-370.59354 246.60461 935.65082 18
-364.55768 246.27293 934.39233 18
-354.38248 243.0916 922.32196 18
-287.29593 200.16022 759.43457 18
-282.83203 200.18619 759.53308 18
-278.31799 200.17693 759.49792 18
-328.57101 240.2054 911.37134 18
-268.85162 199.83168 758.18805 18
-264.07761 199.61937 757.38257 18
-259.42511 199.49321 756.90387 18
-254.12589 198.85654 754.48822 18
0 0 0 0
-244.98535 198.69592 753.87885 18
-239.9176 198.20018 751.99792 18
0 0 0 0
0 0 0 0
0 0 0 0
0 0 0 0
-217.84279 198.38931 752.71552 28
-213.52501 198.52225 753.21985 2346
-209.9809 199.39549 756.53314 2087
-204.81596 198.73419 754.02405 22
-201.03792 199.41908 756.62262 17
-194.34259 197.17545 748.10992 11
-192.59364 199.96266 758.685 9
-185.52907 197.23221 748.32526 9
-184.22928 200.64651 761.2796 7
-179.89569 200.84515 762.03326 11
-175.44437 200.91919 762.31421 17
-171.67299 201.79639 765.6424 25
-167.26141 201.94824 766.21857 529467
-163.0898 202.4064 767.95691 596296
-158.92789 202.90326 769.84204 596555
-154.49582 203.07439 770.49127 531020
-150.3335 203.62126 772.56622 400205
-146.04436 204.02536 774.09943 531278
-141.63303 204.27942 775.06335 596558
-137.27116 204.62422 776.37164 662351
-132.93776 205.03688 777.93726 728145
-128.50919 205.32713 779.03851 662350
-124.13181 205.72382 780.54358 662091
-119.72259 206.09642 781.95734 662086
-115.26433 206.41121 783.15167 661564
-110.55245 206.27922 782.65082 284
-106.20723 206.84973 784.81543 20
-101.68919 207.12048 785.84277 14
-97.245689 207.57639 787.57251 8
-92.655128 207.7485 788.22552 17
-88.186501 208.22679 790.04022 1054
-83.678864 208.66145 791.68939 793151
-79.204239 209.23495 793.86536 662603
-74.584343 209.47289 794.76807 792900
-70.010521 209.88103 796.31659 528430
-65.605316 210.89018 800.14551 18
-60.875423 210.93156 800.30249 10
-55.61834 208.99889 792.9696 11
-51.102703 209.75276 795.82996 10
-47.12381 213.08702 808.48059 11
-42.340145 213.12511 808.62506 11
-37.560738 213.19705 808.89801 15
-32.800156 213.41255 809.71564 19
-27.997776 213.38333 809.6048 1383218
-23.165363 213.06581 808.40015 23
0 0 0 0
-27.696936 434.4325 1648.2949 19
-18.020863 436.66357 1656.7599 19
0 0 0 0
1.5640336 422.6842 1603.7202 19
10.153014 387.74036 1471.1387 19
18.763506 385.52563 1462.7357 19
27.535378 386.97867 1468.2487 19
36.385601 388.57059 1474.2887 19
45.204311 389.27472 1476.9601 19
53.744423 387.74036 1471.1387 19
62.200897 386.1152 1464.9725 19
70.774406 385.52563 1462.7357 19
79.448593 385.55331 1462.8407 19
88.336166 386.50922 1466.4675 19
97.269615 387.47659 1470.1378 19
108.24648 395.75577 1501.5502 19
118.40717 400.01987 1517.7288 19
131.23898 412.06879 1563.4438 19
153.27634 449.52646 1705.5634 19
163.35754 449.45407 1705.2886 19
173.42816 449.36261 1704.9417 19
183.60448 449.54004 1705.6149 19
193.82161 449.79367 1706.5771 19
203.85675 449.62079 1705.9211 19
214.08813 449.87653 1706.8916 19
224.33902 450.14841 1707.9231 19
235.40791 451.96732 1714.8243 19
245.45383 451.75287 1714.0106 19
254.97891 450.63504 1709.7694 19
264.85757 450.20364 1708.1326 19
275.39774 450.88699 1710.7253 19
285.63629 451.04562 1711.3271 19
295.50516 450.62958 1709.7487 19
305.05405 449.76935 1706.4849 19
314.18607 448.36942 1701.1733 19
323.86942 447.81885 1699.0844 19
333.93317 447.81168 1699.0571 19
343.40228 447.03073 1696.0944 19
352.0589 445.26669 1689.4011 18
365.68716 449.7142 1706.2756 18
375.98859 449.94116 1707.1368 18
386.57004 450.48257 1709.1909 18
397.46194 451.34888 1712.4778 18
408.71255 452.56921 1717.108 18
421.70581 455.61307 1728.6567 18
432.09601 455.76688 1729.2402 18
442.52646 455.95502 1729.9541 18
452.19757 455.37 1727.7345 18
460.98578 453.94141 1722.3143 18
467.87811 450.74832 1710.1992 18
477.06363 449.85297 1706.8022 18
483.82007 446.75183 1695.0361 18
491.38516 444.50836 1686.524 18
498.68625 442.12033 1677.4635 18
506.93887 440.65271 1671.8951 18
516.10095 440.01675 1669.4822 18
527.55286 441.32025 1674.4279 18
541.12903 444.31979 1685.8086 18
555.21143 447.61877 1698.3253 18
566.65051 448.70718 1702.4548 18
575.56622 447.79425 1698.9912 18
572.99512 438.12958 1662.322 18
583.40167 438.54697 1663.9056 18
594.00598 439.09665 1665.9913 18
0 0 0 0
0 0 0 0
0 0 0 0
0 0 0 0
0 0 0 0
788.01947 529.68982 2009.7139 16
811.79065 537.54395 2039.5134 16
825.1853 538.3974 2042.7515 16
0 0 0 0
0 0 0 0
0 0 0 0
900.90411 555.21948 2106.5769 16
930.27716 565.48572 2145.5283 16
957.19556 574.0033 2177.845 16
986.67609 583.81006 2215.0532 16
1011.3397 590.54663 2240.6128 15
1048.0139 604.03107 2291.7744 16
1088.8724 619.55121 2350.6599 16
1137.1909 638.8703 2423.959 16
1216.8242 675.08038 2561.3452 16
1219.682 668.32898 2535.7292 17
1243.1185 672.88074 2552.9993 15
1273.311 680.9361 2583.5623 16
1362.001 719.71124 2730.6804 16
1371.5492 716.24664 2717.5352 14
1427.7872 736.96167 2796.1309 14
1457.2312 743.53021 2821.0527 65547
1476.8601 744.99854 2826.6238 196614
1479.0585 737.73975 2799.083 1182220
1524.6295 752.03589 2853.3245 5392196
1539.7534 751.16486 2850.0195 7431002
1532.6505 739.58704 2806.0918 9667188
1521.6316 726.38837 2756.0144 11180164
1546.52 730.42932 2771.3462 11244931
1563.9497 730.89948 2773.1301 11310980
1593.1636 736.80988 2795.5549 10521719
1607.9205 735.98132 2792.4114 10258290
1610.86 729.81561 2769.0178 10258291
1619.6854 726.41412 2756.1121 10850171
1637.5095 727.07605 2758.6235 10455413
1676.2156 736.90515 2795.9163 9336675
1676.7271 729.91486 2769.3943 9796711
1695.6346 730.99066 2773.4761 9532770
1726.8345 737.29419 2797.3926 9532770
1756.1691 742.68909 2817.8613 10125420
1759.1597 736.94623 2796.0723 9797481
1786.6089 741.46118 2813.2026 11047806
1801.2201 740.61401 2809.9883 11244928
1821.7042 742.17499 2815.9109 11179392
1825.8822 737.12469 2796.7495 9270112
1850.8656 740.48907 2809.5144 9730149
1878.1064 744.68854 2825.4475 8545104
1882.0281 739.64917 2806.3276 8742230
1906.1652 742.57324 2817.4221 9663075
1926.8773 744.12396 2823.3057 9597539
1962.4249 751.32788 2850.6382 9926247
1967.9878 747.02692 2834.3198 9531746
1999.1753 752.44318 2854.8699 8479314
2006.8123 748.97925 2841.7271 9071452
2018.7264 747.15582 2834.8088 9664358
2042.8689 749.85101 2845.0349 9795688
2059.5349 749.78033 2844.7666 9860454
2075.95 749.62012 2844.1587 9531489
2107.2737 754.80261 2863.8218 10189676
2130.323 756.96222 2872.0156 9860710
2140.9395 754.7049 2863.4509 8939609
2159.3618 755.21301 2865.3789 9136731
2171.5183 753.53882 2859.0269 9400160
2188.3523 753.50128 2858.8843 10255212
2212.2783 755.88745 2867.9377 9531746
2218.8708 752.35986 2854.5537 9334367
2245.7642 755.71704 2867.2913 9005145
2260.301 754.89703 2864.1802 9400160
2276.3479 754.58984 2863.0144 9531746
2295.9954 755.47186 2866.3611 9465953
2316.074 756.48175 2870.1926 9597539
2343.5 759.85925 2883.0073 9268574
2355.5701 758.24493 2876.8823 9202781
2367.7822 756.6991 2871.0173 9137244
2380.5896 755.3642 2865.9526 8939866
2408.5579 758.82477 2879.0825 9006171
2437.3601 762.49762 2893.0176 9335136
2449.8728 761.05865 2887.5581 8874329
2465.8174 760.69843 2886.1912 8743000
2507.6521 768.27515 2914.9385 8875099
2490.8003 757.8913 2875.5408 9664361
2503.2715 756.51031 2870.301 9993069
2524.9868 757.92267 2875.6597 8874844
2566.8721 765.3299 2903.7637 9203810
2550.8936 755.50092 2866.4712 8940637
2576.249 757.96295 2875.8125 8809053
2617.9438 765.16815 2903.1501 9665131
2642.1094 767.18945 2910.8191 10585975
2651.5762 764.94409 2902.2998 10849404
2657.1775 761.61963 2889.6865 10454647
2679.8872 763.21014 2895.7212 10257782
2679.1587 758.14795 2876.5144 9862768
2695.0625 757.82648 2875.2947 9533289
2716.4983 759.05487 2879.9556 9072738
2709.9685 752.50244 2855.0947 8809054
2717.8965 750.02112 2845.6802 9072482
0 0 0 0
0 0 0 0
0 0 0 0
0 0 0 0
0 0 0 0
0 0 0 0
0 0 0 0
0 0 0 0
0 0 0 0
0 0 0 0
0 0 0 0
0 0 0 0
0 0 0 0
0 0 0 0
0 0 0 0
0 0 0 0
0 0 0 0
0 0 0 0
0 0 0 0
-920.90594 301.63516 1119.2772 11
-916.15051 302.25464 1121.5759 11
-914.25342 303.83307 1127.433 11
-906.85645 303.59351 1126.5441 11
-899.56696 303.38666 1125.7765 11
-895.23621 304.18201 1128.7279 11
-893.29449 305.80722 1134.7585 11
-887.73468 306.20905 1136.2496 11
-885.29755 307.70242 1141.791 12
-892.19745 312.48901 1159.5526 12
-890.30908 314.24796 1166.0796 12
-878.83484 312.62451 1160.0554 12
-858.87183 307.93198 1142.6428 12
-844.89728 305.32895 1132.9838 12
0 0 0 0
0 0 0 0
0 0 0 0
-796.44489 297.26865 1103.0745 12
-783.53418 294.87003 1094.174 12
-774.97876 294.08411 1091.2576 12
-761.84882 291.53442 1081.7965 12
0 0 0 0
0 0 0 0
0 0 0 0
0 0 0 0
0 0 0 0
0 0 0 0
0 0 0 0
-693.51587 284.54095 1055.8458 13
-684.67444 283.47101 1051.8756 14
-676.98511 282.86279 1049.6187 14
-661.60754 279.00113 1035.2892 13
-656.26221 279.3374 1036.537 13
-638.46832 274.33124 1017.9606 13
-627.44641 272.16702 1009.9299 14
-620.14252 271.58948 1007.7868 14
0 0 0 0
0 0 0 0
0 0 0 0
-589.38507 268.46115 996.17847 14
-584.95264 269.138 998.69006 14
-582.58942 270.7905 1004.822 14
-577.34375 271.1235 1006.0577 14
-569.40833 270.18716 1002.5831 14
-566.06445 271.43277 1007.2053 14
-542.70569 263.00531 975.93359 14
-548.57324 268.71249 997.11115 14
-537.31134 266.06192 987.2757 14
-528.32092 264.49017 981.44336 14
-522.07312 264.2717 980.63275 13
-513.62164 262.92026 975.61798 16
-505.26941 261.58948 970.67975 16
-495.71487 259.59839 963.29144 16
0 0 0 0
-476.28595 255.30392 947.35602 18
0 0 0 0
0 0 0 0
-450.4303 250.29561 928.77161 18
-441.72882 248.4969 922.09717 18
-368.4173 209.85115 778.6944 18
-363.3367 209.58238 777.69714 18
-357.98712 209.14961 776.09125 18
-352.27872 208.49318 773.65546 18
-346.42676 207.73335 770.83594 18
-341.00439 207.21428 768.90985 18
-335.90207 206.87827 767.66296 18
-331.31866 206.85698 767.58398 18
-389.71729 246.70499 915.44794 18
-385.99991 247.80135 919.51617 18
-377.79446 246.00661 912.85645 18
-371.72662 245.57185 911.24323 18
-368.94354 247.32629 917.75342 18
-366.81506 249.57864 926.11121 18
-361.33252 249.58263 926.12598 18
-354.01266 248.2981 921.3595 18
-343.46442 244.67351 907.90967 18
-282.97617 204.79167 759.92017 18
-278.45541 204.77893 759.87299 18
-327.08667 244.49683 907.25415 18
-319.19055 242.58202 900.1488 18
-264.01001 204.05556 757.18878 18
-259.31387 203.89134 756.57935 18
-254.71574 203.79974 756.2395 18
-249.51955 203.21777 754.07996 18
0 0 0 0
-239.84482 202.5952 751.76978 18
0 0 0 0
0 0 0 0
-226.7444 202.83226 752.64948 21
0 0 0 0
-217.84912 202.85597 752.73743 29
-214.00894 203.44601 754.92694 2347
-209.9767 203.87482 756.51807 2344
-205.11424 203.49864 755.12219 23
-201.0804 203.94609 756.78253 16
-194.15794 201.41733 747.39911 10
-192.67506 204.54521 759.00574 9
-185.68843 201.84015 748.96802 9
-181.13358 201.71063 748.48743 9
-179.68341 205.11879 761.13403 11
-175.28636 205.2518 761.62762 17
-171.51329 206.1418 764.93018 27
-166.58496 205.65393 763.11981 529467
-163.02933 206.88075 767.67218 398662
-158.72906 207.20595 768.87891 530764
-154.38287 207.48865 769.92792 399180
-150.02823 207.77689 770.99744 530509
-145.73082 208.16498 772.43756 399179
-141.40559 208.53719 773.81873 399436
-137.1026 208.96826 775.41827 464972
-132.7485 209.34866 776.82983 596559
-128.37134 209.71866 778.20282 727887
-124.03256 210.18132 779.91962 727886
-120.10978 211.412 784.48627 727626
-115.16314 210.86708 782.46423 727101
-110.60252 211.01289 783.00531 282
-106.19946 211.48526 784.75806 18
-101.67004 211.73772 785.69489 13
-97.11628 211.96127 786.52448 9
-92.61776 212.33401 787.90759 17
-88.050476 212.58035 788.82166 133153
-83.872688 213.84735 793.52319 661823
-79.215714 213.97057 793.98035 596809
-74.594872 214.21309 794.88031 793410
-69.995659 214.5546 796.14752 330279
-65.632889 215.72264 800.48175 19
-60.858681 215.61502 800.0824 11
-55.875656 214.68686 796.63831 11
-51.56559 216.41167 803.03857 11
-46.834335 216.53986 803.51416 11
-42.391941 218.18375 809.6142 11
-37.613655 218.29788 810.03766 12
-32.840519 218.47961 810.7121 17
-27.99971 218.19632 809.66083 1646390
-23.157564 217.78322 808.12799 20
0 0 0 0
-26.358318 422.73203 1568.6312 19
-18.071894 447.74625 1661.4514 19
-7.8790603 428.87363 1591.4208 19
1.6098969 444.86151 1650.7472 19
10.102945 394.50351 1463.8838 19
18.765923 394.2449 1462.9242 19
27.533184 395.64825 1468.1316 19
36.385429 397.30569 1474.2817 19
45.207275 398.05356 1477.0569 19
53.639751 395.68655 1468.2736 19
62.301983 395.43857 1467.3534 19
70.997833 395.43857 1467.3534 19
79.448593 394.22241 1462.8407 19
88.10186 394.15155 1462.5778 19
96.918312 394.75809 1464.8284 19
107.79739 402.97546 1495.3207 19
118.26015 408.50644 1515.8444 19
131.40361 421.86264 1565.4052 19
153.39493 459.98962 1706.8829 19
163.47255 459.88348 1706.4891 19
173.56181 459.82053 1706.2556 19
183.70116 459.88989 1706.5129 19
191.285 453.88824 1684.2427 19
201.50894 454.4357 1686.274 19
211.72658 454.91788 1688.0634 18
222.02614 455.52463 1690.3148 18
234.5336 460.41333 1708.4552 18
245.39354 461.79703 1713.5897 19
255.09044 460.96906 1710.5173 19
264.8952 460.39175 1708.3752 19
275.41357 461.05167 1710.8239 19
285.65805 461.22244 1711.4576 19
295.48932 460.73724 1709.6571 19
305.1073 459.96259 1706.7827 19
314.37057 458.72015 1702.1724 19
300.7901 425.25836 1578.0057 19
309.44205 424.29898 1574.4458 19
343.79636 457.60672 1698.0408 19
353.05743 456.56973 1694.1927 18
365.94638 460.15189 1707.4851 18
376.44101 460.6116 1709.1909 18
387.06754 461.20441 1711.3906 18
398.44714 462.64133 1716.7227 18
408.64606 462.66992 1716.8287 18
418.87289 462.72794 1717.0441 18
429.03299 462.71127 1716.9822 18
438.84879 462.33261 1715.577 18
451.5538 464.94601 1725.2747 18
458.5195 461.66507 1713.1 18
467.52762 460.53806 1708.9181 18
476.68787 459.60556 1705.4579 18
483.06805 456.08698 1692.4014 18
490.53372 453.71555 1683.6018 18
497.83859 451.29291 1674.6121 18
506.20721 449.91043 1669.4822 18
515.55096 449.431 1667.7031 18
526.41846 450.27295 1670.8274 18
539.43549 452.88849 1680.5328 18
551.79797 454.8696 1687.8842 18
563.31873 456.09869 1692.4448 18
573.11084 455.90955 1691.7432 18
572.93158 447.93115 1662.1377 18
583.2608 448.29938 1663.5039 18
594.39954 449.26715 1667.0951 18
623.19379 463.32977 1719.2773 18
654.37439 478.68561 1776.2582 18
623.54016 448.90857 1665.7645 16
0 0 0 0
0 0 0 0
0 0 0 0
0 0 0 0
0 0 0 0
0 0 0 0
859.6015 557.11688 2067.293 16
878.25885 561.21039 2082.4829 16
899.37787 566.74176 2103.0081 16
928.79889 577.28186 2142.1191 16
954.79871 585.43994 2172.3914 16
985.81909 596.41852 2213.1294 16
1009.9655 603.00458 2237.5684 15
1047.4886 617.30304 2290.6257 16
1082.5648 629.81207 2337.043 16
1116.1052 641.12292 2379.0142 16
1211.4338 687.20172 2549.9988 16
1215.921 681.24902 2527.9102 16
1219.942 675.18317 2505.4016 16
1242.826 679.57751 2521.7075 16
1288.8396 696.36444 2583.9988 16
1336.782 713.78699 2648.6487 13
1396.7303 737.14154 2735.3103 11
1459.9041 761.64282 2826.2271 65548
1469.1444 757.77002 2811.8564 196617
1474.6514 752.08008 2790.7427 327683
1602.3115 808.12408 2998.7053 1970962
1590.6187 793.42706 2944.1689 4338989
1532.2491 756.01843 2805.3569 8154460
1510.1132 737.09882 2735.1519 10390647
1531.3389 739.52148 2744.1416 10851199
1545.4271 738.4826 2740.2866 11048065
1568.3812 741.65784 2752.0688 11245700
1583.8074 741.24445 2750.5349 11245957
1605.2144 743.61011 2759.3132 11377543
1621.9296 743.77655 2759.9309 11772301
1639.7817 744.45581 2762.4514 11705737
1659.0281 745.74835 2767.2476 10916221
1665.5763 741.36359 2750.9771 9665641
1690.382 745.11157 2764.8848 10059883
1699.0292 741.7334 2752.3494 9401183
1719.2717 743.43341 2758.6575 9927269
1753.4569 751.07361 2787.0081 10190955
1774.5156 753.0011 2794.1604 9994091
1785.4261 750.62646 2785.3489 11376257
1802.7648 750.97308 2786.635 11244927
1820.4623 751.46155 2788.4475 10521204
1832.8632 749.77454 2782.1875 10718070
1837.5344 744.98383 2764.4106 9335391
1862.8066 748.55603 2777.666 9269085
1874.3372 746.5921 2770.3784 9400928
1916.2875 756.67401 2807.7893 9664100
1935.1144 757.53021 2810.9666 8414033
1951.6638 757.48798 2810.8098 9203551
1974.2322 759.7627 2819.2507 9597796
2000.9878 763.59723 2833.4792 9071195
2002.6302 757.86407 2812.2056 9926504
2029.9103 761.84784 2826.9878 10189933
2049.4873 762.89893 2830.8882 9926504
2069.7617 764.19037 2835.6804 10123883
2035.6946 745.5589 2766.5447 8807766
2092.5632 760.26355 2821.1091 9531746
2117.3013 763.15424 2831.8354 9465953
2146.7339 767.67804 2848.6221 10057832
2168.0383 769.24731 2854.4451 9268574
2183.3408 768.6792 2852.3372 9729125
2186.1118 763.74194 2834.0164 9268574
2201.3425 763.19952 2832.0037 9268574
2212.6194 761.30499 2824.9736 9794918
2227.9924 760.83771 2823.2397 9465953
2253.1038 763.67816 2833.7798 9268317
2268.3103 763.14429 2831.7986 9071195
2288.3921 764.24634 2835.8879 9268573
2315.0022 767.49664 2847.949 9400160
2323.0391 764.58691 2837.1519 9202781
2343.0649 765.63654 2841.0466 9465696
2369.7898 768.8446 2852.9509 8873559
2385.2605 768.3819 2851.2339 9071965
2402.0286 768.34064 2851.0808 9006171
2424.3008 770.04828 2857.4175 9137757
2447.5293 772.03394 2864.7854 8940379
2463.3706 771.6781 2863.4651 9138014
2475.239 770.09106 2857.5759 9335393
2507.8413 774.93237 2875.5408 9467492
2521.8806 774.01111 2872.1221 10059629
2532.6125 772.09387 2865.0078 10322548
2540.9214 769.46838 2855.2654 9796459
2581.7305 776.6546 2881.9314 9072737
2576.9653 770.12653 2857.7075 9401704
2609.5701 774.77869 2874.9705 9599082
2610.9692 770.16577 2857.8533 9927789
2639.3345 773.51526 2870.2822 9993839
2662.467 775.29816 2876.8979 10060402
2696.6665 780.2605 2895.3118 10520183
2690.407 773.52765 2870.3281 10125169
2688.8176 768.21356 2850.6091 8875360
2700.4443 766.71826 2845.0605 8743517
2703.9805 762.95868 2831.1099 8940642
0 0 0 0
0 0 0 0
0 0 0 0
0 0 0 0
0 0 0 0
0 0 0 0
0 0 0 0
0 0 0 0
0 0 0 0
0 0 0 0
0 0 0 0
0 0 0 0
0 0 0 0
0 0 0 0
0 0 0 0
0 0 0 0
0 0 0 0
0 0 0 0
0 0 0 0
-911.48077 305.11319 1107.8218 11
-916.0824 308.87839 1121.4926 11
-908.95154 308.71378 1120.8949 11
-903.48029 309.11453 1122.3501 11
-900.78638 310.47852 1127.3025 11
-894.10565 310.47852 1127.3025 11
-889.79462 311.30756 1130.3126 11
-901.1189 317.66089 1153.3806 11
-902.3819 320.53748 1163.8251 11
-896.35846 320.85022 1164.9606 12
-890.11017 321.08664 1165.8191 12
-889.38867 323.33609 1173.9865 12
0 0 0 0
-814.49451 300.81467 1092.2145 12
0 0 0 0
0 0 0 0
-794.87653 300.73901 1091.9398 12
-783.66931 298.9324 1085.3802 12
-770.05945 296.17184 1075.3571 12
-753.15265 292.08655 1060.5239 12
-746.63092 291.99393 1060.1876 12
-734.03851 289.50546 1051.1523 12
-725.81244 288.71121 1048.2686 12
0 0 0 0
0 0 0 0
-704.81152 287.74606 1044.7642 13
-694.08795 285.87939 1037.9866 13
-692.02399 287.57794 1044.1538 14
-687.22919 288.16208 1046.2747 14
-680.15515 287.79239 1044.9325 14
-671.58551 286.77734 1041.2469 14
-661.08673 284.91202 1034.4742 14
-649.69281 282.62238 1026.1609 14
-638.15521 280.22638 1017.4614 14
-626.05548 277.53549 1007.6912 14
-618.75354 276.94016 1005.5295 14
0 0 0 0
0 0 0 0
-594.89038 274.18115 995.51196 14
-591.96497 275.56564 1000.5389 14
-584.2771 274.73883 997.5368 14
-580.67773 275.83719 1001.5248 14
-572.04437 274.5423 996.82324 14
-565.42847 274.1987 995.57574 14
-559.45544 274.16293 995.4458 14
-554.33893 274.55057 996.85333 14
-545.672 273.16922 991.83777 14
-537.19824 271.8555 987.06787 14
-526.77655 269.51627 978.57446 17
-519.46808 268.73547 975.7395 16
-511.76782 267.73218 972.09674 16
-503.17746 266.23505 966.66089 16
-493.89636 264.3338 959.75763 16
-471.27734 255.16658 926.47284 16
0 0 0 0
-465.69333 258.15839 937.33557 16
-458.02628 256.97333 933.03296 16
0 0 0 0
0 0 0 0
-368.62158 214.58475 779.12616 18
-363.3862 214.22038 777.80316 18
-358.04697 213.78462 776.22095 18
-352.42529 213.1667 773.97736 18
-346.69345 212.46494 771.42938 18
-341.41177 212.02399 769.82837 18
-336.38309 211.73038 768.76227 18
-331.84726 211.74313 768.80859 18
-389.03088 251.6861 913.83569 18
-322.06998 211.30679 767.22437 18
-315.27606 209.81136 761.79456 18
-310.16403 209.40797 760.32996 18
-366.08264 250.8051 910.63696 18
-363.5882 252.82314 917.96417 18
-358.01605 252.72989 917.62555 18
-350.64963 251.34763 912.60681 18
-340.37042 247.80145 899.73114 18
-283.00293 209.31491 759.99207 18
-278.46747 209.29114 759.90582 18
-324.19955 247.66785 899.24603 18
-317.50278 246.60559 895.3891 18
-310.52014 245.2814 890.58124 18
-304.66089 244.81416 888.8847 18
-254.60626 208.19183 755.91437 18
-250.04486 208.12384 755.66748 18
0 0 0 0
-240.15486 207.31796 752.74152 18
0 0 0 0
0 0 0 0
-226.75345 207.3009 752.6795 20
-222.3436 207.34818 752.85114 24
-218.02393 207.48318 753.34137 28
-213.42764 207.35512 752.8764 2604
-209.86684 208.24908 756.12219 2346
-205.36694 208.22986 756.05243 19
-201.04428 208.39348 756.64655 15
-197.20099 209.07285 759.11316 11
-191.12198 207.35825 752.8877 9
-185.86945 206.4798 749.69818 9
-183.83992 209.22639 759.67072 9
-176.6022 206.03471 748.08215 12
-172.16635 206.03166 748.07104 18
-171.64101 210.83182 765.49976 27
-167.00977 210.7123 765.0658 331829
-163.1792 211.6245 768.37787 266555
-158.88708 211.97333 769.64441 134201
-154.51186 212.22859 770.57123 67636
-149.99779 212.30289 770.841 2618
-145.44337 212.323 770.914 2362
-141.5555 213.34895 774.6391 69954
-137.11557 213.58379 775.4917 69696
-132.80086 214.0367 777.13617 3390
-128.26805 214.15802 777.57672 399431
-124.01326 214.76984 779.79816 793932
-120.09895 216.04153 784.41547 793675
-115.12421 215.43126 782.19965 793156
-110.79242 216.02341 784.34967 1830
-106.144 216.02299 784.34821 26
-101.66971 216.39317 785.69226 21
-97.150169 216.69795 786.79889 19
-92.697205 217.18947 788.58344 22
-88.137268 217.46922 789.59918 26
-83.782349 218.31454 792.66846 24
-79.289146 218.87857 794.71637 25
-74.722977 219.29968 796.24536 23
-70.047195 219.43422 796.73383 18
-65.502533 220.02861 798.89197 15
-60.923168 220.58998 800.93018 10
-56.280014 220.99571 802.40338 10
-51.580841 221.23607 803.27606 8
-46.842979 221.34251 803.66254 9
-42.225101 222.10414 806.42792 11
-37.620697 223.14011 810.18933 12
-32.844719 223.31261 810.81573 16
-27.980589 222.84225 809.10791 1843767
-23.299192 223.93359 813.07037 20
0 0 0 0
-26.3016 431.09845 1565.2559 19
0 0 0 0
-7.8811345 438.4201 1591.8397 19
1.5524472 438.4201 1591.8397 19
10.142914 404.77383 1469.675 19
18.78034 403.22409 1464.0481 19
27.566658 404.84033 1469.9165 19
36.433426 406.57822 1476.2266 19
45.235493 407.06085 1477.9789 19
53.694954 404.80399 1469.7845 19
62.405209 404.80399 1469.7845 19
71.115471 404.80399 1469.7845 19
79.825722 404.80399 1469.7845 19
88.529381 404.77383 1469.675 19
96.861221 403.20126 1463.9653 19
108.00006 412.61139 1498.1321 19
117.59484 415.1409 1507.3165 19
127.13811 417.14426 1514.5903 19
153.47383 470.34674 1707.7609 19
163.58717 470.32605 1707.6857 19
173.69057 470.28082 1707.5214 19
181.31743 463.90424 1684.369 19
191.41087 464.17468 1685.351 19
201.64626 464.74539 1687.4232 19
211.88039 465.25946 1689.2896 19
222.07928 465.65323 1690.7194 19
232.23517 465.92676 1691.7124 19
244.45984 470.1564 1707.0697 19
255.05466 471.03983 1710.2773 19
264.8952 470.51596 1708.3752 19
275.46741 471.28244 1711.1582 19
285.67194 471.38782 1711.5408 19
295.46689 470.83325 1709.5272 19
305.06601 470.01376 1706.5518 19
314.55188 469.07797 1703.1541 19
325.04416 469.65454 1705.2474 19
334.6442 468.94592 1702.6747 19
344.1102 468.09659 1699.5908 19
353.68619 467.4408 1697.2098 18
366.00632 470.34784 1707.7648 18
376.71255 471.0802 1710.4238 18
387.48975 471.8606 1713.2574 18
398.47153 472.84393 1716.8278 18
408.64481 472.84274 1716.8235 18
418.76462 472.78125 1716.6001 18
428.75638 472.58157 1715.8751 18
438.66891 472.30582 1714.8739 18
448.67084 472.13663 1714.2596 18
458.13498 471.42157 1711.6633 18
467.02084 470.1553 1707.0657 18
475.96497 469.00015 1702.8715 18
483.0347 466.08435 1692.2847 18
489.46765 462.68521 1679.9429 18
496.86127 460.31158 1671.3246 18
505.66782 459.31418 1667.7031 18
514.98444 458.80948 1665.8706 18
525.59192 459.45209 1668.2039 18
537.9599 461.58154 1675.9357 18
549.49139 462.92917 1680.8286 18
560.57294 463.85638 1684.1952 18
563.18481 457.86539 1662.4429 18
572.67188 457.57385 1661.3843 18
583.88263 458.64609 1665.2775 18
594.32825 459.09164 1666.8953 18
604.90881 459.62521 1668.8325 18
661.58521 494.60297 1795.8317 18
678.79797 499.43713 1813.3838 16
696.65033 504.58389 1832.0709 15
767.02069 547.02783 1986.1786 16
781.99152 549.27576 1994.3406 16
0 0 0 0
821.19415 559.88782 2032.8713 16
838.00934 563.09161 2044.5039 16
858.43506 568.59546 2064.4878 16
878.69501 573.83649 2083.5171 16
900.57654 579.97656 2105.8108 16
0 0 0 0
953.61676 597.57343 2169.7024 16
982.47614 607.46698 2205.6245 16
1013.2377 618.26147 2244.8179 15
1044.8921 629.31396 2284.9478 16
1077.0347 640.37384 2325.1045 16
1102.3645 647.15485 2349.7253 16
1140.9348 661.44263 2401.6023 16
1206.491 690.83038 2508.3049 16
1216.0287 687.81726 2497.3647 16
1237.5095 691.55072 2510.9204 16
1267.4839 699.88556 2541.1829 16
1305.115 712.20276 2585.905 15
1364.0876 735.74512 2671.3838 14
1404.4761 748.8385 2718.9241 11
1555.0074 819.69495 2976.1934 11
1517.609 791.00897 2872.0391 65544
1461.0873 753.10242 2734.4058 327682
1500.2579 764.81024 2776.915 2233106
1513.8433 763.36243 2771.6582 4996403
1508.7516 752.62878 2732.6858 6705730
1505.1726 742.86963 2697.252 8942431
1517.5098 741.08844 2690.7847 10522232
1553.557 750.80286 2726.0564 11048063
1574.3585 753.02533 2734.1257 10719355
1592.1025 753.75482 2736.7744 11114371
1610.916 754.97089 2741.1899 11574922
1624.7926 753.87207 2737.2002 11706509
1641.3328 754.01855 2737.7319 11706765
1667.9979 758.76801 2754.9766 11904657
1663.3365 749.31323 2720.6477 11837836
1679.0536 749.13202 2719.9897 12297874
1711.2555 756.23932 2745.7954 8677462
1731.5787 758.0127 2752.2341 9533027
1737.3782 753.45441 2735.6836 10059371
1762.6938 757.36572 2749.8853 9993321
1770.7003 753.83649 2737.071 9862248
1795.335 757.38623 2749.9595 10586228
1830.5157 765.28101 2778.6243 10323056
1837.285 761.26288 2764.0352 11506817
1843.6316 757.14227 2749.0737 10848887
1872.3904 762.21753 2767.5012 9071706
1881.3135 759.19983 2756.5444 9532515
1927.6782 771.21356 2800.1648 9466719
1933.4316 766.91345 2784.5515 9137501
1939.9127 762.97229 2770.2417 9071195
1969.4762 768.09937 2788.8574 9136475
1978.0055 765.0061 2777.6262 9334108
1990.7782 763.59149 2772.49 9400158
2011.0708 765.06073 2777.8247 8084553
2021.564 762.80847 2769.647 9597537
2044.8029 765.36322 2778.9229 10057833
2061.853 765.57922 2779.7073 9334367
2093.6804 771.23511 2800.2429 9334367
2129.0652 778.10217 2825.1763 9663075
2150.4629 779.79022 2831.3052 9860711
2162.7937 778.18988 2825.4944 9136988
2166.0557 773.37592 2808.0159 9794661
2181.6333 772.99921 2806.6482 9663332
2189.9456 770.07343 2796.0249 9597539
2210.0476 771.30615 2800.5007 9202781
2228.6035 771.98486 2802.9651 9202524
2244.9319 771.88782 2802.6125 8873816
2261.1653 771.75958 2802.1472 7886664
2283.4326 773.6778 2809.1118 8873815
2291.6384 770.8382 2798.8018 9268317
2315.6138 773.30585 2807.7612 9268830
2328.8943 772.19214 2803.7175 8940379
2351.7688 774.25275 2811.1995 8808793
2359.6084 771.36945 2800.7305 8611415
2389.0801 775.54852 2815.9043 9071966
2434.5552 784.8288 2849.5996 9598309
2454.6243 785.84735 2853.2979 9138271
2459.9104 782.15173 2839.8794 9730408
2473.9009 781.25513 2836.624 9401443
2497.3215 783.32843 2844.1521 9270114
2510.4646 782.17188 2839.9529 10848892
2533.5703 784.1142 2847.0051 9797230
2561.3806 787.47717 2859.2153 10257524
2577.7173 787.2915 2858.5413 11507848
2586.4673 784.8064 2849.5181 9205092
2591.8958 781.35211 2836.9763 10059888
2616.9897 783.83252 2845.9822 9993840
2628.7197 782.30414 2840.4329 9796461
2651.3682 784.02374 2846.6765 9861998
2666.5784 783.53601 2844.9058 9796463
2690.1245 785.48846 2851.9946 9730669
2666.0491 773.59827 2808.8232 9993071
2690.3591 775.80847 2816.8481 9730157
0 0 0 0
0 0 0 0
0 0 0 0
0 0 0 0
0 0 0 0
0 0 0 0
0 0 0 0
0 0 0 0
0 0 0 0
0 0 0 0
0 0 0 0
0 0 0 0
0 0 0 0
0 0 0 0
0 0 0 0
0 0 0 0
0 0 0 0
0 0 0 0
0 0 0 0
-964.13666 329.68393 1171.8202 11
-968.14288 333.45566 1185.2263 11
-900.47748 312.41638 1110.4448 11
-894.8092 312.73529 1111.5784 11
-939.56702 330.81351 1175.8352 11
-929.54626 329.73074 1171.9866 11
-919.43439 328.59909 1167.9642 11
-910.82739 327.99216 1165.807 12
-901.71362 327.19208 1162.9633 12
-904.01819 330.55478 1174.9155 12
0 0 0 0
0 0 0 0
-827.66449 309.79416 1101.1245 12
-807.25208 304.55502 1082.5027 12
-799.45959 304.03122 1080.6409 12
-791.08472 303.2757 1077.9554 11
-776.74512 300.20255 1067.0323 11
-774.776 301.89926 1073.0631 11
-769.448 302.30441 1074.5032 12
-761.20508 301.56152 1071.8627 11
-750.33832 299.75793 1065.452 11
-740.41663 298.30447 1060.2859 11
-730.70178 296.91019 1055.3301 12
-704.88068 288.89081 1026.8262 12
-711.23566 294.03369 1045.106 13
-704.28613 293.71841 1043.9854 14
-699.40338 294.26712 1045.9355 14
-689.53864 292.71075 1040.4037 14
-682.26959 292.23816 1038.7239 14
-673.56793 291.1377 1034.8125 14
-665.89984 290.46786 1032.4316 14
-658.4129 289.86539 1030.2902 14
-647.5022 287.73022 1022.701 14
-638.42084 286.37521 1017.8849 14
-628.93579 284.81161 1012.3272 14
-618.13379 282.61575 1004.5223 14
-606.79102 280.12759 995.67847 14
-598.88269 279.19159 992.35156 14
-594.30328 279.80435 994.52954 14
-587.26202 279.2587 992.59009 14
-580.76166 278.96182 991.53485 14
-574.09692 278.57913 990.17462 14
-567.50476 278.22406 988.9126 14
-560.94934 277.87985 987.68909 14
-553.84161 277.25186 985.45703 14
-547.12244 276.80707 983.8761 14
-540.2395 276.26892 981.96332 14
-532.84235 275.45328 979.06421 14
-499.59033 261.10681 928.07153 15
-491.84302 259.91919 923.85022 15
-483.77591 258.53394 918.92645 14
-473.44443 255.89322 909.54041 14
-490.90286 268.38492 953.94055 16
-481.9473 266.55844 947.44861 16
0 0 0 0
0 0 0 0
-454.30609 260.37057 925.45465 17
0 0 0 0
0 0 0 0
0 0 0 0
-363.41254 218.84566 777.8595 18
-357.87585 218.2803 775.84998 18
-352.62155 217.87471 774.40833 18
-347.08444 217.28137 772.29938 18
-341.90146 216.8968 770.93256 18
-336.93878 216.64351 770.03223 18
-332.42874 216.67825 770.15576 18
-383.46603 253.42398 900.76373 18
-379.01614 254.01926 902.87964 18
-315.03702 214.16342 761.21704 18
-309.94446 213.76241 759.79169 18
-363.03836 254.07118 903.06421 18
-360.1593 255.82759 909.30713 18
-354.63116 255.72707 908.94983 18
-348.17368 254.94296 906.16284 18
-341.58759 254.03864 902.94849 18
-283.07004 213.86946 760.17224 18
-278.47421 213.7997 759.92426 18
-320.76358 250.31563 889.71552 18
-314.81989 249.7832 887.82312 18
-308.59015 249.00186 885.04596 18
-302.38437 248.21321 882.24274 18
0 0 0 0
-249.95923 212.52928 755.40875 18
-245.39079 212.44989 755.12646 18
0 0 0 0
0 0 0 0
-231.42181 211.95178 753.35608 18
-226.47804 211.50424 751.76532 23
-222.04169 211.52211 751.82886 26
-218.17416 212.0937 753.86053 31
-213.43463 211.82376 752.901 2602
-209.64877 212.50899 755.33655 2087
-204.92035 212.24783 754.40833 19
-200.47279 212.27242 754.49573 13
-196.06575 212.34203 754.7431 11
-191.56653 212.3127 754.63885 8
-186.39503 211.5191 751.81812 9
-182.52545 212.20016 754.23895 7
-177.54147 211.58739 752.06085 11
-173.50165 212.09723 753.87299 14
-171.33708 214.98697 764.14429 15
-167.16629 215.44797 765.78284 17
-163.05333 216.01132 767.78522 18
-158.31938 215.76071 766.89441 18
-154.10966 216.23085 768.56549 17
-149.6515 216.37039 769.06146 17
-145.52861 217.01869 771.36578 16
-141.36458 217.64569 773.59436 18
-137.097 218.14993 775.3866 22
-132.7529 218.56319 776.85547 31
-128.21028 218.66757 777.22644 463935
-123.97477 219.32301 779.55615 924489
-119.5376 219.65863 780.74908 793677
-115.1465 220.10934 782.35114 728139
-110.74014 220.56747 783.97949 596553
-106.53543 221.485 787.24066 530244
-101.79385 221.31927 786.65161 595778
-97.418671 221.9725 788.97345 726588
-92.920158 222.39641 790.48016 543
-88.495682 223.05193 792.81012 25
-84.006004 223.60739 794.78448 17
-78.519836 221.41885 787.00555 13
-73.952736 221.70924 788.03772 14
-69.304825 221.78017 788.28986 12
-64.820801 222.42372 790.57727 11
-60.951672 225.44185 801.30487 10
-56.349857 226.03107 803.39911 9
-51.52652 225.75847 802.43018 9
-46.741451 225.6151 801.92065 9
-42.004337 225.69699 802.21167 10
-37.303955 226.02232 803.36804 11
-32.721191 227.25977 807.76636 15
-27.888205 226.88559 806.4364 1975097
-23.180357 227.5853 808.9234 20
0 0 0 0
0 0 0 0
0 0 0 0
0 0 0 0
0 0 0 0
8.6696558 353.42499 1256.2048 19
16.114195 353.42499 1256.2048 19
23.647005 354.74924 1260.9117 19
31.249163 356.22809 1266.1681 19
38.752743 356.22809 1266.1681 19
53.687729 413.45862 1469.5868 19
62.42297 413.63196 1470.2029 19
71.135704 413.63196 1470.2029 19
79.848442 413.63196 1470.2029 19
88.535973 413.51422 1469.7845 19
97.233154 413.45862 1469.5868 19
108.29099 422.62503 1502.1677 19
114.97603 414.62955 1473.7488 19
127.01296 425.70065 1513.0996 19
153.57323 480.77853 1708.8671 19
163.71725 480.82822 1709.0436 19
173.81493 480.74387 1708.7438 19
183.98923 480.86911 1709.189 19
191.76474 475.039 1688.4667 19
201.95157 475.46426 1689.9781 19
212.09465 475.75116 1690.9979 19
222.24138 476.01999 1691.9534 19
232.33554 476.1579 1692.4436 19
242.49503 476.41272 1693.3494 19
254.82376 480.73969 1708.729 19
264.84674 480.55228 1708.0629 19
275.51993 481.51492 1711.4845 19
285.75552 481.67163 1712.0415 19
295.41879 480.88596 1709.2489 19
