# .PCD v0.7 - Point Cloud Data file format
VERSION 0.7
FIELDS x y z rgb
SIZE 4 4 4 4
TYPE F F F U
COUNT 1 1 1 1
WIDTH 1608
HEIGHT 1
VIEWPOINT 0 0 0 1 0 0 0
POINTS 1608
DATA ascii
0 0 0 0
-548.0058 270.79938 1219.3705 18
-539.79932 270.30853 1217.1603 18
0 0 0 0
0 0 0 0
-465.54962 242.86334 1093.5785 18
-455.76709 241.11662 1085.7133 18
-481.19815 258.21582 1162.7085 18
-475.11868 258.65732 1164.6965 18
-463.78937 256.21167 1153.6841 18
-453.32016 254.17509 1144.5137 18
-442.82199 252.06013 1134.9904 18
0 0 0 0
0 0 0 0
0 0 0 0
0 0 0 0
0 0 0 0
-363.3837 227.584 1024.7778 19
0 0 0 0
0 0 0 0
0 0 0 0
0 0 0 0
0 0 0 0
0 0 0 0
0 0 0 0
0 0 0 0
0 0 0 0
0 0 0 0
-217.99316 167.27943 753.23511 24
-214.2464 167.84119 755.76459 18
-212.16422 169.7588 764.39935 13
-206.05817 168.47025 758.59711 11
-201.85826 168.71741 759.71008 12
-197.29005 168.66098 759.45599 11
-193.07274 168.90889 760.57233 11
-190.1048 170.2878 766.78131 11
-186.13907 170.81857 769.17133 11
-182.32462 171.51831 772.32214 11
-177.81601 171.58426 772.61908 11
-173.40744 171.75275 773.37781 11
-168.94313 171.87372 773.92249 11
-164.00615 171.50713 772.27179 11
-159.50829 171.59189 772.65344 11
-155.05391 171.72981 773.27448 11
-150.5251 171.7912 773.5509 11
-145.92067 171.76743 773.44385 12
-141.25415 171.66663 772.98999 12
-136.49585 171.4438 771.98669 12
-131.91644 171.43802 771.96063 12
-129.45282 174.28027 784.75891 12
-124.89038 174.40347 785.3136 12
-120.18514 174.32906 784.97852 12
-115.39384 174.11879 784.03174 12
-111.16921 174.7818 787.01715 12
-106.52084 174.8075 787.13287 12
-102.31835 175.60077 790.7049 12
-97.335747 175.06711 788.30188 12
-92.811447 175.34547 789.5553 12
-88.06781 175.21703 788.97693 12
-83.373802 175.17845 788.80322 12
-78.654259 175.07843 788.35284 12
-74.054398 175.24902 789.12097 12
-69.419746 175.35474 789.59705 12
-64.842476 175.63115 790.84167 12
-60.777008 177.44489 799.00867 15
-56.290459 178.23186 802.55231 14
-51.550591 178.28798 802.80493 19
-46.782482 178.24791 802.62457 25
-42.136681 178.71753 804.7392 923967
-37.492142 179.31305 807.42078 462380
0 0 0 0
-29.240017 187.7756 845.52643 21
-39.905369 309.26489 1392.5751 19
-31.653021 309.26828 1392.5903 19
-23.283201 307.72153 1385.6256 19
-15.021379 306.69434 1381.0002 19
-6.7751641 303.9082 1368.4547 19
0 0 0 0
9.4885874 305.33188 1374.8654 19
0 0 0 0
25.989382 307.76306 1385.8126 19
0 0 0 0
0 0 0 0
50.804054 308.83792 1390.6525 19
36.571407 191.28748 861.33978 19
41.675888 191.28748 861.33978 19
46.780373 191.28748 861.33978 19
54.059258 199.30397 897.43695 19
60.17326 201.97444 909.46173 19
0 0 0 0
0 0 0 0
77.922585 206.15544 928.28815 19
0 0 0 0
122.65534 284.35257 1280.3984 19
132.32408 288.89551 1300.8547 19
141.98898 292.93033 1319.0229 19
151.01808 295.30084 1329.697 19
160.35118 298.00122 1341.8563 19
168.27023 297.94263 1341.5925 19
177.01511 299.28558 1347.6398 19
186.52525 301.75064 1358.7395 19
195.85493 303.73178 1367.6603 19
199.48558 297.0686 1337.657 19
207.88501 297.74493 1340.7024 19
217.08504 299.47589 1348.4966 18
225.57407 300.13791 1351.4775 18
233.52721 300.06592 1351.1534 18
240.19614 298.40332 1343.667 18
239.79924 288.35098 1298.4028 18
246.6814 287.40442 1294.1405 18
256.35556 289.66974 1304.3409 18
266.79987 292.64725 1317.7482 18
283.50482 302.12723 1360.4353 18
292.03012 302.60712 1362.5961 18
301.02609 303.53574 1366.7775 18
314.35193 308.66724 1389.8839 18
318.96167 305.19675 1374.2568 18
330.91318 308.74911 1390.2526 18
340.41727 309.90085 1395.4387 18
348.32172 309.57623 1393.9771 18
356.10986 309.16574 1392.1285 18
362.51685 307.60187 1385.0867 18
370.76282 307.63309 1385.2273 18
378.51743 307.26413 1383.5659 18
387.22839 307.67065 1385.3965 18
397.14661 308.99963 1391.3806 18
408.90085 311.67398 1403.4229 18
418.27151 312.46109 1406.9672 18
427.61392 313.19678 1410.2798 18
443.31204 318.47009 1434.0248 18
454.19476 320.15079 1441.5927 18
465.47375 322.04361 1450.1157 18
470.20288 319.4183 1438.2944 18
478.70361 319.40305 1438.2257 18
488.66595 320.34647 1442.4738 18
501.06537 322.82758 1453.6459 18
513.15094 325.02606 1463.5453 18
526.61981 328.01306 1476.9954 18
538.66132 330.02786 1486.0677 18
551.58435 332.50925 1497.2411 18
0 0 0 0
585.02765 341.67706 1538.5225 16
597.13379 343.39566 1546.2611 16
607.64734 344.16037 1549.7043 16
611.64392 341.26611 1536.672 16
622.35223 342.14667 1540.637 16
635.02008 344.06345 1549.2679 16
650.99402 347.69135 1565.6039 16
661.3197 348.24298 1568.0878 16
672.6192 349.28503 1572.78 16
683.3147 349.98923 1575.9509 16
693.86737 350.60229 1578.7114 16
705.97467 351.97406 1584.8883 16
721.82434 355.15118 1599.1945 16
736.98376 357.91077 1611.6204 14
757.72931 363.27783 1635.7875 14
839.38171 397.34103 1789.1691 11
802.84705 375.30563 1689.947 196616
0 0 0 0
0 0 0 0
1402.9493 632.17657 2846.5996 5785921
1430.7675 637.05139 2868.5503 8350557
1482.8512 652.4892 2938.0647 9928815
1499.9078 652.33484 2937.3696 9401955
1509.9965 649.18829 2923.2009 9928301
1541.8677 655.37183 2951.0444 11573639
1548.1212 650.64996 2929.7827 11836811
1568.3716 651.85022 2935.1873 11573895
1597.9552 656.86066 2957.7485 10653309
1617.3345 657.61334 2961.1377 10390135
1632.7974 656.77441 2957.3604 9666157
1654.2385 658.33258 2964.3765 9600621
1669.4515 657.4054 2960.2014 10653824
1687.9307 657.77026 2961.8445 11114631
1709.2762 659.23315 2968.4316 11049095
1729.6082 660.2793 2973.1423 10654337
1740.2377 657.63782 2961.248 10851715
1762.0487 659.23242 2968.4282 10983044
1789.5914 662.91864 2985.0266 10456700
1780.9735 653.2688 2941.575 10982528
1809.4485 657.27991 2959.6365 10126962
1839.3124 661.71381 2979.6016 10060656
1856.8004 661.65332 2979.3293 10717560
1891.8176 667.78162 3006.9238 10717560
1912.2877 668.70837 3011.0972 10322545
1933.1604 669.75751 3015.8213 9203807
1960.9139 673.1496 3031.0952 9598567
1989.2472 676.67719 3046.9795 9598568
1971.9408 664.75592 2993.2998 9729897
1998.2502 667.61938 3006.1934 9006686
2025.8506 670.85968 3020.7842 8940892
2031.2559 666.75769 3002.3135 9467238
2054.5432 668.54578 3010.365 10191731
2068.9141 667.42651 3005.3252 11902349
2102.6304 672.51404 3028.2334 9993839
2107.0322 668.21875 3008.8923 9862507
2142.2361 673.68195 3033.4924 10124909
2171.8442 677.3092 3049.8254 9993579
2178.3525 673.73218 3033.7185 10388336
2208.8657 677.57715 3051.032 10519665
2230.5479 678.67285 3055.9658 10256237
2260.1667 682.1463 3071.6062 10650995
2265.4958 678.29187 3054.2502 10585202
2322.5964 689.87616 3106.4124 10716788
2330.4243 686.75781 3092.3711 10190189
2342.1172 684.81836 3083.6379 9993067
2365.344 686.25525 3090.1082 10256239
2354.1445 677.75867 3051.8491 9334880
2392.6465 683.59161 3078.1143 9203550
2405.4526 682.05048 3071.1746 9137758
2419.853 680.98108 3066.3594 9005915
2433.6626 679.76263 3060.8728 8612183
2460.3984 682.14594 3071.6045 9335650
2480.5278 682.67615 3073.9919 8677463
2503.2964 683.91962 3079.5911 9072736
2535.5708 687.72333 3096.7188 10126965
2547.594 686.01923 3089.0454 10389879
2568.8047 686.79572 3092.5417 10192757
2588.2573 687.09454 3093.8872 9797486
2635.7114 694.77032 3128.4502 9863535
2662.9675 697.05182 3138.7236 10586746
2682.7012 697.34631 3140.0496 11508360
2717.2427 701.45935 3158.5701 11377288
2727.1543 699.20142 3148.4031 11574667
2744.8066 698.94531 3147.2498 10916481
2782.7087 703.81433 3169.1743 11508361
2768.2148 695.45471 3131.532 10587003
2823.4114 704.59802 3172.7029 8415834
2847.3972 705.88312 3178.4895 8941921
2853.0183 702.62848 3163.8345 11639950
2864.8867 700.94489 3156.2534 11245962
2868.4902 697.27411 3139.7244 11443597
2861.8855 691.18518 3112.3069 12101527
2911.6326 698.6969 3146.1311 10982276
2904.7722 692.61542 3118.7471 9599853
2939.2891 696.41455 3135.854 9664875
2924.2515 688.4986 3100.2097 9203553
2915.4917 682.15033 3071.6243 9137504
2943.1079 684.33911 3081.48 9137499
0 0 0 0
0 0 0 0
0 0 0 0
0 0 0 0
0 0 0 0
0 0 0 0
0 0 0 0
0 0 0 0
0 0 0 0
0 0 0 0
0 0 0 0
0 0 0 0
0 0 0 0
0 0 0 0
0 0 0 0
0 0 0 0
0 0 0 0
0 0 0 0
0 0 0 0
0 0 0 0
0 0 0 0
0 0 0 0
0 0 0 0
0 0 0 0
0 0 0 0
-631.22461 182.82764 801.84918 12
-625.33209 182.49477 800.38928 12
-618.48584 181.87636 797.67706 12
-613.95734 181.93524 797.9353 11
-606.88763 181.23616 794.8692 11
-601.16003 180.93005 793.52673 11
-593.24329 179.95509 789.25067 12
-587.76306 179.70956 788.17389 12
-582.78394 179.61458 787.75726 12
-577.61761 179.4599 787.07886 12
-573.27014 179.55917 787.51422 12
-570.05597 180.01793 789.52631 12
-565.46448 180.04578 789.64844 12
-560.40686 179.92441 789.11609 12
-555.09814 179.71973 788.21838 12
-548.68671 179.1515 785.72626 12
-548.5163 180.62872 792.20514 11
-543.64471 180.57002 791.94763 11
-537.42755 180.05943 789.70831 11
-532.05029 179.82378 788.67474 267
-852.81079 290.78973 1275.3516 11
-868.2467 298.70026 1310.0457 11
-870.7724 302.272 1325.7107 267
-873.29004 305.90598 1341.6486 11
-862.82153 305.01593 1337.7451 11
-848.52283 302.74286 1327.7759 11
-500.64783 180.29718 790.75104 11
-494.85486 179.89481 788.98633 11
-489.96585 179.81651 788.64294 12
-488.00339 180.82112 793.04895 12
-481.93567 180.30933 790.80426 12
-476.40475 179.9903 789.40509 12
0 0 0 0
0 0 0 0
0 0 0 0
-456.49939 179.52129 787.34808 14
-451.6329 179.44162 786.99866 14
0 0 0 0
-442.12894 179.37016 786.6853 14
0 0 0 0
-433.91882 179.83185 788.71014 16
0 0 0 0
0 0 0 0
0 0 0 0
-411.51471 178.22598 781.66718 18
0 0 0 0
-673.97998 298.62207 1309.7028 18
0 0 0 0
0 0 0 0
0 0 0 0
0 0 0 0
0 0 0 0
0 0 0 0
0 0 0 0
-424.08606 206.9686 907.72705 18
0 0 0 0
0 0 0 0
0 0 0 0
0 0 0 0
0 0 0 0
0 0 0 0
-333.26248 178.49234 782.83533 18
-326.61719 177.40276 778.05658 18
-320.2218 176.41965 773.74487 18
-457.18173 255.53403 1120.7263 18
0 0 0 0
0 0 0 0
-328.7316 192.11163 842.56708 18
0 0 0 0
0 0 0 0
0 0 0 0
0 0 0 0
-274.17322 173.39651 760.4859 18
-371.91693 239.14395 1048.8424 19
-265.05289 173.32671 760.17975 19
0 0 0 0
0 0 0 0
0 0 0 0
0 0 0 0
0 0 0 0
0 0 0 0
0 0 0 0
0 0 0 0
0 0 0 0
-217.66724 171.4865 752.10895 25
-213.97014 172.09782 754.7901 17
-209.61067 172.19112 755.19928 11
-206.15842 173.05 758.96625 11
-202.71358 173.95358 762.92914 10
-197.23549 173.11377 759.24591 9
-194.30606 174.52397 765.43079 9
-189.70572 174.46487 765.17163 9
-185.39561 174.67639 766.09924 9
-181.18642 174.99594 767.50073 9
-177.20819 175.56079 769.97809 10
-172.71674 175.63361 770.29742 10
-168.42725 175.9213 771.5592 10
-163.42197 175.45657 769.521 8
-158.41565 174.96402 767.36072 8
-154.2417 175.38884 769.22394 8
-150.02571 175.79025 770.9845 9
-145.20633 175.4877 769.65753 11
-140.61551 175.45068 769.49518 11
-136.02171 175.40733 769.30505 11
-131.82553 175.89154 771.42865 11
-129.43561 178.90714 784.65454 11
-124.62115 178.6714 783.62067 11
-118.19582 176.01848 771.98541 11
-115.00974 178.17007 781.42194 11
-111.10574 179.34337 786.56781 11
-106.29865 179.09785 785.49097 11
-101.52197 178.88342 784.5506 11
-97.042122 179.19655 785.92383 11
-92.411179 179.24815 786.15021 11
-87.790535 179.32628 786.49286 11
-83.087349 179.23511 786.09302 11
-78.475731 179.34239 786.56348 11
-73.800774 179.30931 786.4184 11
-69.363899 179.88922 788.96179 11
-64.57254 179.56718 787.54944 11
-60.795094 182.23421 799.24646 11
-56.240417 182.82527 801.83881 13
-51.514187 182.91631 802.23804 17
-46.771271 182.96059 802.43225 23
-42.228779 183.88763 806.49817 923708
-37.585911 184.55846 809.44019 330281
0 0 0 0
-29.236837 192.76543 845.43451 19
0 0 0 0
-19.643946 197.0544 864.24512 19
-23.103384 313.4931 1374.9243 19
-14.955437 313.49619 1374.9379 19
-6.7693372 311.7496 1367.2777 19
0 0 0 0
0 0 0 0
17.607376 312.9649 1372.6079 19
25.797842 313.647 1375.5994 19
33.823647 312.48026 1370.4822 19
37.219051 277.27032 1216.0577 19
0 0 0 0
36.32164 195.05069 855.45721 19
41.391262 195.05069 855.45721 19
46.460884 195.05069 855.45721 19
51.530506 195.05069 855.45721 19
58.694736 202.26895 887.1153 19
63.134068 199.68207 875.76965 19
69.641579 203.53259 892.65741 19
76.855843 208.75916 915.58008 19
0 0 0 0
122.91458 292.5575 1283.1046 19
130.5163 292.55249 1283.0826 19
138.83643 294.06973 1289.7369 19
146.83104 294.77509 1292.8306 19
154.96545 295.67722 1296.7872 19
167.97093 305.34912 1339.2063 19
176.67381 306.67957 1345.0415 19
185.68097 308.40054 1352.5894 19
191.79799 305.37744 1339.3306 19
199.08905 304.38962 1334.9982 19
207.34227 304.89212 1337.202 19
215.86903 305.74506 1340.9429 18
225.27097 307.733 1349.6616 18
231.99048 306.04587 1342.2622 18
239.98013 306.0907 1342.4587 18
239.58247 295.77798 1297.2291 18
247.25 295.75391 1297.1235 18
257.6384 298.88779 1310.868 18
267.17532 300.87933 1319.6027 18
276.79138 302.84418 1328.2201 19
291.71634 310.3483 1361.132 19
300.55215 311.1449 1364.6256 19
309.36215 311.87372 1367.822 18
318.38425 312.77365 1371.769 18
329.94568 316.06125 1386.1879 18
349.0162 326.20749 1430.6875 18
354.43753 323.41785 1418.4525 18
355.06888 316.48792 1388.0591 18
362.32089 315.63947 1384.338 18
370.56693 315.67538 1384.4955 18
378.36191 315.3338 1382.9974 18
387.04739 315.73315 1384.7489 18
397.14661 317.24524 1391.3806 18
408.79514 319.9082 1403.0599 18
418.00568 320.59518 1406.0729 18
427.07681 321.15051 1408.5084 18
437.40723 322.61328 1414.9238 18
448.87143 324.84155 1424.6967 18
465.12 330.38602 1449.0137 18
476.64594 332.43564 1458.0029 18
487.23428 333.76999 1463.8552 18
498.32736 335.39743 1470.9928 18
505.71652 334.5188 1467.1394 18
513.15094 333.69934 1463.5453 18
525.66205 336.15359 1474.3092 18
537.87769 338.34171 1483.9059 18
549.93988 340.36444 1492.7772 18
0 0 0 0
587.29401 352.15366 1544.4827 16
597.23865 352.62106 1546.5327 16
608.19238 353.66116 1551.0944 16
611.10516 350.06415 1535.3185 16
623.73248 352.05588 1544.0537 16
634.88556 353.16989 1548.9397 16
650.63019 356.76996 1564.7289 16
661.29309 357.52139 1568.0247 16
672.50781 358.5463 1572.5197 16
683.11469 359.22348 1575.4896 16
692.92963 359.47156 1576.5778 16
705.26074 361.00107 1583.2858 16
720.75244 364.08688 1596.8197 16
735.19812 366.57123 1607.7155 14
756.15491 372.1969 1632.3887 14
771.86725 375.13162 1645.2599 14
794.25543 381.19714 1671.8622 11
854.37085 404.99704 1776.2443 196614
0 0 0 0
0 0 0 0
1418.4435 648.41736 2843.842 6180163
1455.5728 657.57733 2884.0161 7627345
1487.7153 664.29816 2913.4922 9337190
1488.9363 657.21582 2882.4307 9994605
1522.3086 664.32489 2913.6096 10258032
1538.9138 664.03949 2912.3579 11310721
1561.1953 666.18256 2921.7568 11573894
1589.1509 670.67322 2941.4521 10784636
1598.7307 667.39539 2927.0762 10718842
1622.9226 670.22235 2939.4749 10258292
1635.4337 668.21674 2930.6785 9666670
1660.1587 671.1911 2943.7236 10653309
1676.7955 670.86774 2942.3054 10654078
1691.4235 669.75555 2937.4275 10588286
1698.3984 665.66656 2919.4939 10522492
1723.4355 668.66785 2932.657 10719615
1745.0781 670.3053 2939.8386 10983557
1765.1045 671.29572 2944.1824 10588029
1780.4832 670.51648 2940.7649 10719359
1800.5369 671.49591 2945.0603 10390135
1826.7485 674.73102 2959.249 9600105
1852.6892 677.80548 2972.7329 9665897
1870.984 678.05109 2973.8101 10784120
1894.1072 680.02557 2982.47 10848886
1909.0157 679.04156 2978.1543 10717813
1931.1935 680.6377 2985.1545 10388594
1948.8228 680.61621 2985.0605 9730665
1957.1584 677.37866 2970.8611 9599079
1964.5496 673.87476 2955.4937 9796202
1995.9473 678.59473 2976.1946 9861994
2029.1257 683.83215 2999.165 9927530
2044.4556 683.01569 2995.5842 9927530
2054.7961 680.56079 2984.8174 8809306
2095.2275 688.02905 3017.5718 10190702
2089.7534 680.42407 2984.2178 9795944
2117.0273 683.52008 2997.7961 9532259
2130.5999 682.17749 2991.9077 9663845
2149.6729 682.60376 2993.7773 10058859
2205.6448 694.64392 3046.5833 9269342
2218.8682 693.13464 3039.9639 9203292
2216.0312 686.67316 3011.625 11308925
2249.6069 691.50787 3032.8293 10519408
2255.8774 687.93915 3017.1775 10585458
2304.2122 697.15326 3057.5889 10519922
2302.0977 691.07898 3030.9482 9862248
2342.7722 697.84436 3060.6201 10388337
2368.4575 700.0752 3070.4041 10848375
2374.7627 696.58734 3055.1069 9729638
2388.2783 695.25128 3049.2473 8479571
2407.2534 695.51263 3050.3933 8808793
2435.9924 698.57013 3063.803 9466723
2452.979 698.23706 3062.3423 9335393
2471.1272 698.23706 3062.3423 9533028
2491.3784 698.8269 3064.9294 9269858
2516.405 700.73816 3073.3115 9928046
2543.625 703.22821 3084.2327 9927789
2560.6624 702.88776 3082.7393 10257011
2555.7822 696.57843 3055.0679 9269860
2561.9465 693.34686 3040.8948 9730667
2604.0159 699.80975 3069.2397 9796460
2630.8628 702.12036 3079.3738 9336163
2712.7061 718.9754 3153.2969 9796458
2712.6233 714.03467 3131.6277 10586743
2750.1453 718.99237 3153.3713 10849914
2746.9529 713.31073 3128.4526 10389876
2735.2029 705.49792 3094.1873 10915708
2750.5593 704.73438 3090.8381 11179138
2758.4033 702.06879 3079.1475 8416089
2813.5715 711.40405 3120.0903 10323832
2836.9609 712.63464 3125.4875 11311240
2834.1528 707.31128 3102.1401 11969172
2853.2942 707.49908 3102.9639 11640719
2866.7361 706.28033 3097.6187 11376521
2922.6504 715.47443 3137.9424 11244935
2910.5249 708.00128 3105.1663 9532776
2919.2773 705.66876 3094.9363 7887950
2926.5901 703.01947 3083.3169 7887692
2944.114 702.84076 3082.5334 8413518
0 0 0 0
0 0 0 0
0 0 0 0
0 0 0 0
0 0 0 0
0 0 0 0
0 0 0 0
0 0 0 0
0 0 0 0
0 0 0 0
0 0 0 0
0 0 0 0
0 0 0 0
0 0 0 0
0 0 0 0
0 0 0 0
0 0 0 0
0 0 0 0
0 0 0 0
0 0 0 0
0 0 0 0
0 0 0 0
0 0 0 0
0 0 0 0
0 0 0 0
-935.48499 277.99594 1188.3534 11
-905.65686 271.1734 1159.189 12
-893.74164 269.65109 1152.6815 12
-887.11328 269.71271 1152.9449 12
-884.79059 271.09454 1158.8518 12
-882.02783 272.36206 1164.2701 12
-880.14209 273.92255 1170.9408 12
-878.23962 275.50256 1177.6949 12
-874.9104 276.65674 1182.6287 12
-872.41412 278.09509 1188.7772 12
-868.97974 279.2554 1193.7372 12
-861.9054 279.2554 1193.7372 12
-859.54712 280.79605 1200.323 12
-860.87256 283.57584 1212.2058 12
-862.21918 286.40942 1224.3186 11
-855.9939 286.75455 1225.7939 11
-857.62592 289.76028 1238.6427 11
-855.87457 291.66495 1246.7845 11
-857.8103 294.87021 1260.4861 11
-857.75964 297.44296 1271.4839 11
-859.80823 300.79575 1285.816 11
-858.9538 303.18378 1296.0242 11
-865.95807 308.41382 1318.3811 11
-866.78387 311.51855 1331.653 12
-858.06744 311.21942 1330.3743 12
-848.52283 310.61157 1327.7759 12
-830.40814 306.82581 1311.5928 12
-827.46777 308.62817 1319.2975 12
-824.02911 310.27731 1326.347 13
-817.33752 310.72156 1328.2461 14
-800.85242 307.41516 1314.1122 14
-793.34839 307.52512 1314.5822 14
-766.1524 299.92841 1282.1084 14
-758.96356 300.09018 1282.7999 14
-720.23419 287.65811 1229.6564 14
-744.99182 300.58749 1284.9258 14
0 0 0 0
0 0 0 0
0 0 0 0
0 0 0 0
0 0 0 0
0 0 0 0
0 0 0 0
0 0 0 0
-502.3476 223.22029 954.20312 18
0 0 0 0
0 0 0 0
0 0 0 0
0 0 0 0
0 0 0 0
0 0 0 0
0 0 0 0
-432.94873 211.42206 903.76898 18
-425.15237 210.21538 898.61084 18
-418.72607 209.66414 896.25439 18
-411.84317 208.86711 892.84741 18
-405.17502 208.15971 889.82343 18
-400.84915 208.65289 891.93158 18
0 0 0 0
0 0 0 0
0 0 0 0
-478.65024 263.02383 1124.3519 18
-469.0419 261.3826 1117.3361 18
-459.60321 259.79022 1110.5291 18
-449.78824 257.93579 1102.6019 18
-436.98175 254.28587 1086.9996 18
0 0 0 0
-326.18491 195.57788 836.03967 18
0 0 0 0
0 0 0 0
0 0 0 0
0 0 0 0
0 0 0 0
0 0 0 0
0 0 0 0
-261.01611 178.15128 761.5459 18
0 0 0 0
0 0 0 0
0 0 0 0
0 0 0 0
0 0 0 0
-230.17435 175.28542 749.29517 27
-226.67458 176.01588 752.41772 2089
-222.27129 176.06 752.60626 67625
-217.33032 175.67131 750.94476 21
-213.62502 176.28606 753.57263 17
-210.04512 177.03275 756.76453 11
-207.12115 178.37692 762.5105 11
-202.70953 178.4713 762.91388 10
-198.45589 178.71223 763.94385 9
-194.14854 178.91492 764.81024 9
-189.44525 178.75369 764.12103 9
-185.32916 179.15221 765.82458 9
-181.19389 179.55173 767.53241 9
-176.66747 179.57423 767.6286 9
-172.24348 179.7048 768.18677 9
-167.40033 179.39325 766.85498 9
-162.98352 179.53395 767.45642 8
-158.50246 179.60994 767.78125 10
-153.67026 179.28075 766.37402 10
-149.00583 179.13319 765.74329 10
-144.95502 179.73721 768.32538 11
-140.48964 179.84973 768.80634 11
-136.14267 180.12646 769.98926 11
-131.44228 179.93852 769.18585 11
-127.00517 180.11047 769.92096 11
-122.28909 179.88489 768.9566 11
-118.25098 180.67772 772.3457 11
-115.57237 183.69522 785.24469 11
-110.82107 183.53329 784.55249 11
-106.04572 183.31561 783.62195 11
-101.41196 183.33395 783.70038 11
-96.987755 183.7511 785.48352 11
-92.436958 183.95834 786.36951 11
-87.668854 183.73221 785.40277 11
-82.999039 183.69823 785.25757 11
-78.262726 183.50429 784.42853 11
-73.797211 183.96091 786.38043 11
-69.079834 183.80893 785.73077 11
-65.368752 186.50607 797.26031 11
-60.818306 187.04208 799.55157 11
-56.23159 187.5477 801.71295 14
-51.450474 187.43845 801.24591 16
-46.720245 187.51117 801.55682 22
-42.252434 188.7728 806.94989 857395
-37.623646 189.54546 810.25275 197921
0 0 0 0
-29.197746 197.51122 844.30414 20
0 0 0 0
-19.631424 202.04723 863.69427 19
-14.210848 197.84087 845.71332 19
-9.1774158 197.37732 843.73175 19
-4.1772819 197.37732 843.73175 19
0 0 0 0
0 0 0 0
15.298869 278.99994 1192.6451 19
0 0 0 0
29.912012 283.52505 1211.9888 19
25.884172 197.84087 845.71332 19
30.896049 197.84087 845.71332 19
35.907928 197.84087 845.71332 19
41.214653 199.26642 851.80713 19
46.262646 199.26642 851.80713 19
51.310635 199.26642 851.80713 19
57.686085 203.95992 871.87042 19
62.50251 202.82263 867.00891 19
68.767265 206.20102 881.45056 19
0 0 0 0
114.48019 297.99976 1273.864 19
123.9125 302.59842 1293.522 19
131.64325 302.74805 1294.1615 19
139.41542 302.97119 1295.1155 19
147.01215 302.80969 1294.4252 19
155.022 303.47299 1297.2605 19
166.3295 310.22406 1326.1194 19
176.12453 313.6723 1340.8596 19
184.05382 313.64343 1340.7363 19
191.03227 312.06375 1333.9835 19
197.77147 310.23425 1326.163 19
206.1945 311.08505 1329.7999 19
215.02762 312.46906 1335.7162 18
223.81914 313.69653 1340.9633 18
230.97826 312.63037 1336.4056 18
238.95813 312.70895 1336.7416 18
246.99458 312.85416 1337.3623 18
248.54039 305.02457 1303.8931 18
257.74216 306.77979 1311.3961 18
266.9202 308.40475 1318.3424 19
276.49573 310.38358 1326.8013 19
291.5163 318.19632 1360.1985 18
300.21982 318.87897 1363.1166 18
309.022 319.6279 1366.3181 18
317.651 320.164 1368.6097 18
326.74738 321.13278 1372.751 18
339.09457 325.17181 1390.0167 18
347.33212 325.17181 1390.0167 18
354.66299 324.34265 1386.4723 18
362.04126 323.59338 1383.2695 18
370.32449 323.6683 1383.5897 18
390.38272 333.80853 1426.9363 18
386.97852 323.88187 1384.5026 18
398.46649 326.5726 1396.0048 18
408.52026 328.00235 1402.1166 18
417.86905 328.82037 1405.6134 18
426.79614 329.28107 1407.5828 18
436.49445 330.30768 1411.9712 18
455.7551 338.39572 1446.5452 18
466.71198 340.13339 1453.9733 18
477.12503 341.41891 1459.4685 18
477.63284 335.6969 1435.0085 18
493.15646 340.54413 1455.729 18
504.24078 342.21185 1462.8582 18
512.57898 341.991 1461.9141 18
524.71777 344.27109 1471.6608 18
537.1474 346.66437 1481.8912 18
548.29132 348.16412 1488.3024 18
560.75031 350.43832 1498.0239 15
587.80249 361.61942 1545.8198 16
597.77197 362.10922 1547.9137 15
608.74176 363.18109 1552.4956 15
609.73822 358.35938 1531.8842 15
622.88885 360.71768 1541.9653 16
634.66876 362.22556 1548.4109 16
650.27655 365.8439 1563.8784 16
661.25385 366.79214 1567.9318 16
672.50781 367.86539 1572.5197 16
683.05164 368.52615 1575.3442 16
693.85181 369.30557 1578.676 16
704.96747 370.22992 1582.6273 16
720.23578 373.2822 1595.6749 16
734.6048 375.79535 1606.418 15
755.05945 381.31757 1630.0238 15
770.97632 384.43753 1643.3608 15
792.89777 390.43646 1669.0045 14
872.68298 424.4295 1814.3152 65546
888.11749 426.67917 1823.9318 196613
0 0 0 0
0 0 0 0
1422.2546 659.22546 2818.001 6903111
1454.329 666.26886 2848.1094 8087123
1486.4126 673.15485 2877.5452 11047808
1510.744 676.4137 2891.4756 11179138
1529.4073 677.09003 2894.3669 10191986
1563.9507 684.70374 2926.9133 10784123
1579.3042 683.84125 2923.2263 10719356
1586.2208 679.38385 2904.1724 10456440
1606.864 680.8382 2910.3892 10983043
1617.9657 678.26184 2899.376 9008738
1647.6808 683.46045 2921.5986 9337703
1662.9841 682.63507 2918.0703 10324856
1670.4375 678.63751 2900.9819 10062199
1692.2789 680.50732 2908.9746 10193784
1713.4146 682.05835 2915.605 11312521
1731.9495 682.55353 2917.7217 11312522
1753.1586 684.08221 2924.2566 10983556
1775.2385 685.91772 2932.1025 11180936
1787.8274 684.08588 2924.272 11048578
1808.5503 685.3717 2929.7686 9863789
1824.7734 684.94403 2927.9404 8480594
1833.4349 681.71289 2914.1282 8152143
1826.8639 672.93103 2876.5884 10454639
1885.137 687.97632 2940.9026 10388589
1905.1348 688.90546 2944.8743 10651506
1929.6361 691.43134 2955.6719 10717300
1954.1222 693.90649 2966.2522 9269854
1958.5793 689.28857 2946.512 9993579
1982.2574 691.45697 2955.7815 9927787
2024.085 699.86292 2991.7144 9598565
2018.191 691.76562 2957.1008 9598822
2037.4858 692.36719 2959.6724 9927786
2070.7129 697.65259 2982.2659 9796200
2085.3813 696.64874 2977.9746 10519924
2097.6794 694.87634 2970.3984 10124653
2119.751 696.3443 2976.6733 10058859
2148.25 699.88184 2991.7954 9137758
2157.5945 697.1723 2980.2129 9400159
2179.4167 698.50592 2985.9136 9400160
2213.0637 703.57733 3007.5925 10453104
2206.5112 695.88959 2974.7295 9795688
2255.3298 705.64825 3016.4451 10058603
2293.9983 712.1026 3044.0354 10585204
2287.5232 704.55219 3011.7595 9269344
2328.0537 711.48401 3041.3914 8874586
2328.5684 706.17413 3018.6931 10650997
2355.1824 708.7998 3029.917 9993067
2357.5925 704.15668 3010.0691 8940379
2377.2942 704.70898 3012.4299 9269344
2402.907 706.99231 3022.1904 9269344
2426.6038 708.68231 3029.4148 9203551
2452.5315 710.99426 3039.2976 8874586
2476.5283 712.71667 3046.6606 8743513
2481.9197 709.09857 3031.1943 8941407
2506.6096 711.00653 3039.3503 11112320
2535.4666 714.06079 3052.4065 11112576
2548.124 712.54199 3045.9138 10257524
2544.6201 706.55688 3020.3293 9599080
2556.1089 704.78943 3012.7739 9072993
2612.0591 715.22064 3057.3643 8743259
2613.2358 710.61371 3037.6709 9532775
2633.0366 711.09955 3039.7478 8545879
2700.3591 724.32556 3096.2854 9467493
2705.1133 720.70361 3080.8025 9533284
2702.9102 715.28894 3057.6562 10060398
2710.3135 712.47174 3045.6135 10718584
2725.562 711.74042 3042.4873 9008224
2778.8813 720.89502 3081.6208 9073763
2855.0339 735.81482 3145.3987 9600878
2829.4819 724.49927 3097.0278 10259067
2858.1602 727.12585 3108.2556 10851460
2878.1436 727.521 3109.9448 11640976
2884.3123 724.44135 3096.78 11640718
2917.4021 728.11957 3112.5034 12166292
2891.9695 717.2373 3065.9851 9863281
2894.1799 713.30396 3049.1711 9269861
2886.4197 706.97736 3022.1265 7887693
0 0 0 0
0 0 0 0
0 0 0 0
0 0 0 0
0 0 0 0
0 0 0 0
0 0 0 0
0 0 0 0
0 0 0 0
0 0 0 0
0 0 0 0
0 0 0 0
0 0 0 0
0 0 0 0
0 0 0 0
0 0 0 0
0 0 0 0
0 0 0 0
0 0 0 0
0 0 0 0
0 0 0 0
0 0 0 0
0 0 0 0
0 0 0 0
0 0 0 0
-627.46613 191.18631 797.07477 11
-623.02393 191.27271 797.435 11
-617.3537 190.98056 796.21698 11
-611.18793 190.52939 794.336 11
-604.97736 190.05716 792.36725 12
-596.77466 188.94682 787.7381 12
-589.84674 188.22575 784.73193 12
-584.13641 187.88487 783.31073 12
-580.5036 188.21208 784.67493 12
-575.76605 188.18352 784.55585 12
-572.09985 188.50751 785.90656 12
-567.21686 188.43256 785.59412 12
-562.9682 188.56888 786.16241 12
-556.91565 188.09821 784.20013 12
-551.46497 187.82458 783.05939 11
-545.02155 187.20535 780.47772 11
-541.42755 187.56259 781.9671 11
-538.22552 188.06299 784.05328 11
-532.17517 187.56818 781.99042 11
-525.7937 186.94693 779.40039 11
-520.73883 186.79056 778.74847 11
-515.70215 186.63795 778.11224 12
-511.43655 186.76418 778.63849 12
-504.97614 186.08392 775.80243 11
-500.42548 186.10136 775.87512 11
-498.54492 187.12131 780.12738 11
-494.18619 187.22151 780.5451 12
-490.72595 187.66721 782.40332 12
-486.65854 187.88699 783.31958 14
-479.16602 186.77591 778.68738 15
-473.27744 186.27452 776.59705 14
-469.79037 186.71777 778.44501 14
0 0 0 0
0 0 0 0
-454.36917 186.07011 775.74487 16
-449.55023 185.97839 775.36243 16
-443.28311 185.27948 772.44861 16
0 0 0 0
0 0 0 0
-433.84937 187.13394 780.18005 16
-428.52655 186.82907 778.909 17
0 0 0 0
0 0 0 0
-413.32104 186.21744 776.35901 18
0 0 0 0
0 0 0 0
-398.13232 185.57135 773.66541 18
-392.88275 185.25793 772.35876 18
-387.20364 184.73221 770.16699 18
-382.15491 184.49826 769.19165 18
-376.51996 183.97224 766.9986 18
-373.59021 184.77132 770.33002 18
-370.02405 185.2715 772.41534 18
-365.05121 185.07108 771.57977 18
-358.67319 184.14415 767.71527 18
-354.02048 184.09055 767.49182 18
-349.67172 184.19568 767.93011 18
-345.34256 184.31403 768.42352 18
0 0 0 0
0 0 0 0
0 0 0 0
0 0 0 0
-323.42783 184.80228 770.45905 18
-318.06909 184.34276 768.54333 18
-312.57996 183.79323 766.25226 18
-307.41702 183.42213 764.70514 18
0 0 0 0
0 0 0 0
-293.15704 183.00729 762.97559 18
-288.18994 182.72479 761.79785 18
0 0 0 0
-279.70584 183.08154 763.28522 18
-274.95523 182.93037 762.65497 18
0 0 0 0
0 0 0 0
0 0 0 0
0 0 0 0
0 0 0 0
0 0 0 0
0 0 0 0
0 0 0 0
-229.83943 179.46437 748.20483 28
-225.32378 179.39937 747.93384 2346
-222.22881 180.4856 752.46246 68136
-217.29666 180.09369 750.82849 23
-213.49664 180.64326 753.11981 16
-208.8058 180.4465 752.29944 11
-205.1965 181.19618 755.42493 11
-201.12668 181.56358 756.95667 9
-196.28372 181.23392 755.58221 9
-193.77452 183.09393 763.33685 9
-189.6675 183.49704 765.01746 9
-185.86055 184.21735 768.02045 9
-180.70752 183.60611 765.47217 9
-176.35751 183.80032 766.28186 9
-172.37349 184.39632 768.7666 9
-167.02859 183.52934 765.1521 9
-162.71559 183.77946 766.19489 9
-158.42476 184.06969 767.40485 9
-153.61047 183.75092 766.07587 9
-149.28241 184.01208 767.16467 8
-144.96179 184.2991 768.36133 8
-140.47185 184.38249 768.70898 8
-136.30766 184.91339 770.92236 8
-133.63632 187.57654 782.02527 8
-129.06691 187.67108 782.41943 9
-124.58547 187.9054 783.3963 11
-120.06828 188.10182 784.21527 11
-115.41062 188.08514 784.14569 11
-110.9162 188.34425 785.22595 11
-106.16022 188.16249 784.46814 11
-101.88318 188.85179 787.34192 9
-97.26474 188.94411 787.72681 9
-92.193695 188.12216 784.30005 9
-87.77684 188.6187 786.37018 9
-83.487213 189.45964 789.87616 9
-78.422523 188.53716 786.03015 9
-73.712746 188.40529 785.48041 10
-69.047638 188.3775 785.36456 11
-65.404495 191.33537 797.69623 11
-60.920071 192.1013 800.88947 11
-56.228954 192.28981 801.67535 12
-51.328594 191.73152 799.34784 16
-46.612946 191.81982 799.71594 21
-42.314194 193.83788 808.12946 1054772
-37.625202 194.35526 810.28638 197660
0 0 0 0
-29.064306 201.58919 840.44543 20
-24.227331 202.79189 845.45959 19
-19.312988 203.80527 849.68445 19
-14.223251 203.0298 846.45148 19
-9.2019339 202.91812 845.98584 19
-4.1884418 202.91812 845.98584 19
0.82550472 203.0298 846.45148 19
0 0 0 0
15.21701 284.53714 1186.2637 19
22.622593 289.34015 1206.2878 19
30.146446 292.98596 1221.4877 19
0 0 0 0
30.923016 203.0298 846.45148 19
35.93927 203.0298 846.45148 19
41.092793 203.7103 849.28851 19
46.125854 203.7103 849.28851 19
51.15892 203.7103 849.28851 19
57.108719 207.03369 863.1441 19
62.154293 206.80211 862.17859 19
68.477013 210.53229 877.7301 19
74.759933 213.62204 890.61163 19
0 0 0 0
122.72361 307.28723 1281.1111 19
132.35291 312.09088 1301.1379 19
141.65266 315.63138 1315.8987 19
148.26208 313.12054 1305.4308 19
155.20863 311.53543 1298.8223 19
166.68436 318.76154 1328.9486 19
176.13281 321.63364 1340.9227 19
184.07074 321.6185 1340.8596 19
191.10451 320.09018 1334.4879 19
197.73755 318.03882 1325.9355 19
206.06396 318.76379 1328.958 19
214.64803 319.81924 1333.3583 18
223.02466 320.50162 1336.2032 18
230.86392 320.39151 1335.7441 18
238.81293 320.43591 1335.9293 18
247.06615 320.87259 1337.7498 18
251.38997 316.33752 1318.8427 18
258.52026 315.50101 1315.3551 18
266.97705 316.28494 1318.6234 18
276.151 317.8497 1325.1471 18
284.75446 318.68948 1328.6482 18
299.86533 326.57101 1361.5071 18
308.50992 327.18188 1364.0538 18
317.23071 327.8403 1366.799 18
325.99188 328.50665 1369.5769 18
337.44281 331.78528 1383.2458 18
346.61267 332.71875 1387.1376 18
354.4321 332.34265 1385.5697 18
361.66663 331.44763 1381.8383 18
381.38721 341.78162 1424.9216 18
378.09656 331.49304 1382.0275 18
386.86533 331.98956 1384.0975 18
395.63162 332.46338 1386.073 18
407.9213 335.81851 1400.0608 18
417.51529 336.8649 1404.4233 18
426.50952 337.396 1406.6375 18
434.98285 337.5025 1407.0815 18
450.92725 343.29276 1431.2217 18
464.47784 347.08047 1447.0131 18
482.31815 353.87823 1475.3536 18
480.57352 346.32025 1443.8436 18
493.78421 349.61554 1457.582 18
510.33539 355.12204 1480.5392 18
516.42871 353.28821 1472.8938 18
524.22052 352.65796 1470.2661 18
536.44147 354.97919 1479.9436 18
547.2146 356.28311 1485.3798 18
562.2077 360.24979 1501.9172 18
578.38574 364.8403 1521.0555 18
598.68927 371.85223 1550.2891 18
613.40753 375.23566 1564.3949 18
609.17365 367.09744 1530.4658 18
622.27979 369.49408 1540.4576 17
636.33624 372.37753 1552.479 16
649.98737 374.94495 1563.1829 16
661.21875 376.06403 1567.8484 16
672.38641 377.11636 1572.2357 19
685.95294 379.46695 1582.0355 18
699.51819 381.75351 1591.5684 18
704.75903 379.49664 1582.1593 16
719.73181 382.4707 1594.5585 16
734.05078 385.02475 1605.2065 16
756.18042 391.55786 1632.4437 16
768.87683 393.103 1638.8856 16
792.1286 399.93896 1667.3854 14
839.70416 418.73596 1745.752 65548
862.34235 424.79129 1770.9972 196617
916.42358 446.00366 1859.4336 393219
0 0 0 0
1407.4827 668.90521 2788.7324 4995890
1431.0784 672.22577 2802.5762 7692885
1464.889 680.21338 2835.8774 9271656
1488.8954 683.51898 2849.6587 9534569
1514.7186 687.57507 2866.5688 10389365
1540.9485 691.72375 2883.8652 10915708
1549.5103 687.93726 2868.0789 10258035
1565.8989 687.67017 2866.9656 10850171
1586.3363 689.16779 2873.209 10192497
1595.4321 685.75867 2858.9961 9532772
1624.9185 691.09338 2881.2371 9795944
1655.3649 696.72131 2904.7007 9006685
1656.7616 690.13263 2877.2317 9600105
1664.5166 686.29974 2861.252 10455930
1692.8727 690.95258 2880.6501 10851201
1711.6154 691.62787 2883.4656 10917252
1723.6311 689.59857 2875.0051 8614496
1750.3397 693.42975 2890.9778 10457213
1765.2363 692.55255 2887.3206 11377801
1793.4779 696.87756 2905.3518 9994607
1801.7979 693.45312 2891.0752 9335648
1802.0844 687.03046 2864.2983 9466721
1850.6534 698.96326 2914.0474 9861479
1864.6041 697.72144 2908.8704 10124394
1889.5115 700.56482 2920.7244 10059114
1907.9526 700.98077 2922.4587 9598821
1928.6638 702.21582 2927.6079 10059116
1931.9102 697.12671 2906.3906 8546134
1964.1426 702.49463 2928.77 10388338
1983.7692 703.29944 2932.1252 10519667
2004.1105 704.34143 2936.4697 9730407
2022.3293 704.62604 2937.656 9927787
2048.1709 707.539 2949.8005 9730151
2049.2358 701.91595 2926.3577 10124652
2063.0486 700.71716 2921.3596 9598309
2094.6689 705.53644 2941.4517 9466722
2115.5273 706.68109 2946.2239 8414291
2132.8462 706.63428 2946.0288 9136988
2166.9067 712.09003 2968.7742 10058090
2137.678 696.82715 2905.1418 9071195
2191.9534 708.81091 2955.1033 9400159
2226.2158 714.18427 2977.5054 9597282
2231.2458 710.16907 2960.7656 9729125
2259.1074 713.42676 2974.3472 9795174
2292.8491 718.47644 2995.3999 9598565
2319.4951 721.24225 3006.9307 9993067
2335.5183 720.68787 3004.6194 10453618
2333.001 714.46405 2978.6716 9006172
2352.9175 715.1521 2981.5405 9335136
2375.9688 716.77582 2988.3098 9663845
2398.2837 718.15497 2994.0596 9598309
2435.5281 723.95154 3018.2261 9466723
2445.3745 721.57898 3008.3347 9269344
2448.1028 717.15564 2989.8933 8808795
2460.0012 715.46289 2982.8359 9006174
2449.3894 707.29413 2948.7798 10322291
2496.9575 715.9223 2984.7515 10190705
2515.2891 716.10547 2985.5149 10059118
2520.0071 712.43738 2970.2224 8809052
2578.4663 723.90802 3018.0447 9467236
2588.3496 721.67682 3008.7427 9072222
2619.5276 725.37292 3024.1519 8414035
2673.2297 735.21356 3065.1785 8743256
2685.335 733.55817 3058.2771 9335650
2700.5125 732.75867 3054.9438 9204064
2697.7126 727.12439 3031.4539 10717303
2707.0642 724.81805 3021.8386 9599336
2747.2288 730.73804 3046.5198 8810591
2774.1167 733.07245 3056.252 9402985
2793.4333 733.38873 3057.5706 9600110
2809.4741 732.84637 3055.3096 9995637
2823.1111 731.68799 3050.4802 9929071
2826.9167 728.01245 3035.1565 10850687
2867.8521 733.88495 3059.6396 10981760
2886.2795 733.96014 3059.9529 10981761
2881.0911 728.06641 3035.3813 10717306
2858.0903 717.77252 2992.4651 8480341
0 0 0 0
0 0 0 0
0 0 0 0
0 0 0 0
0 0 0 0
0 0 0 0
0 0 0 0
0 0 0 0
0 0 0 0
0 0 0 0
0 0 0 0
0 0 0 0
0 0 0 0
0 0 0 0
0 0 0 0
0 0 0 0
0 0 0 0
0 0 0 0
0 0 0 0
0 0 0 0
0 0 0 0
0 0 0 0
0 0 0 0
0 0 0 0
0 0 0 0
-626.54749 195.62312 795.90784 11
-621.99677 195.67534 796.1203 11
-616.48895 195.42499 795.10162 11
-610.10223 194.89 792.92505 12
-603.11847 194.15451 789.93262 12
-594.00525 192.71661 784.08246 12
-588.53412 192.44702 782.9856 12
-585.64667 193.0247 785.33594 12
-580.81213 192.96474 785.09198 12
-576.75201 193.16318 785.89935 12
-572.10156 193.16553 785.90887 12
-567.23767 193.09525 785.62299 12
-562.50922 193.07031 785.52148 12
-556.427 192.57642 783.51208 12
-550.66455 192.18581 781.92285 11
-544.59082 191.67902 779.8609 11
-540.51007 191.87102 780.64209 11
-536.41376 192.06076 781.41406 11
-531.2005 191.85042 780.55823 12
-524.78772 191.19933 777.90924 12
-519.88812 191.0929 777.47626 12
-836.85687 310.35013 1262.6835 12
-834.02472 312.09042 1269.764 12
-835.7005 315.56464 1283.8992 14
-771.77277 294.10287 1196.5803 14
-496.78625 191.06812 777.37543 14
-492.18344 191.06972 777.3819 14
-488.60507 191.47278 779.02179 14
-484.42548 191.64568 779.72528 14
-773.08344 308.78836 1256.3293 16
-767.06512 309.36389 1258.6709 16
-467.60944 190.44278 774.83118 16
-751.21289 308.97974 1257.108 15
-734.55975 305.15649 1241.5527 15
-452.58124 189.91708 772.69232 14
-447.76401 189.81615 772.28168 14
-714.55945 306.04422 1245.1647 14
0 0 0 0
0 0 0 0
0 0 0 0
-426.65494 190.60889 775.50702 16
0 0 0 0
0 0 0 0
0 0 0 0
-406.90802 189.97226 772.91681 18
-401.80688 189.72641 771.91656 18
0 0 0 0
-391.83743 189.33 770.30377 18
-386.88272 189.13948 769.52863 18
-382.15475 189.05658 769.19135 18
-436.20749 218.40225 888.58649 18
-373.17828 189.12769 769.48065 18
-369.12888 189.38971 770.54669 18
-364.57578 189.39665 770.57489 18
-409.35934 215.35916 876.20544 18
-403.63419 215.07541 875.0509 18
-397.78601 214.71782 873.59607 18
-390.06342 213.32568 867.93207 18
-378.73318 209.897 853.98218 18
0 0 0 0
0 0 0 0
0 0 0 0
-424.49796 248.54507 1011.2249 18
-417.65182 248.03827 1009.1629 18
-417.03259 251.26852 1022.3054 18
-419.04123 256.20068 1042.3723 18
-410.39917 254.67122 1036.1495 18
-404.08212 254.55995 1035.6969 18
-397.9444 254.55995 1035.6969 18
-387.401 251.6976 1024.0511 18
0 0 0 0
0 0 0 0
-360.43243 245.72391 999.7467 18
-352.14499 244.08618 993.08356 18
0 0 0 0
0 0 0 0
0 0 0 0
0 0 0 0
0 0 0 0
-255.80354 197.06906 801.79077 22
0 0 0 0
-229.63681 183.73627 747.54523 29
-224.02435 182.77165 743.62061 67626
-220.18651 183.24519 745.54724 133416
-217.05904 184.34143 750.00739 23
-213.1945 184.84445 752.05396 16
-209.09308 185.15918 753.33447 11
-205.04422 185.53522 754.86438 11
-200.30737 185.29158 753.87317 8
-196.09447 185.53258 754.85364 6
-191.83733 185.742 755.70569 6
-188.10959 186.48624 758.7337 6
-185.23422 188.13266 765.43231 9
-181.00497 188.45215 766.73212 9
-176.56151 188.55933 767.16821 9
-171.95372 188.49203 766.89441 9
-167.85036 188.98904 768.91656 9
-163.22849 188.9137 768.60999 9
-158.55815 188.77632 768.05103 9
-154.53773 189.42746 770.70026 9
-150.17003 189.6796 771.72614 9
-145.8614 190.02458 773.1297 10
-142.85693 192.14603 781.76099 10
-138.33685 192.30283 782.39893 10
-133.81334 192.46558 783.0611 10
-129.24399 192.57172 783.49292 11
-124.8063 192.88927 784.78491 11
-120.12791 192.84496 784.60461 10
-115.41737 192.74341 784.19147 9
-110.90179 192.97261 785.12396 10
-106.50774 193.44257 787.03607 10
-101.81481 193.38789 786.8136 10
-97.202736 193.48892 787.22461 11
-92.880226 194.20557 790.14044 11
-88.076424 193.93857 789.05408 11
-83.5662 194.32431 790.62347 10
-79.016258 194.65802 791.9812 11
-74.603706 195.39374 794.97449 11
-70.041595 195.81049 796.6701 10
-65.443771 196.18042 798.17523 10
-60.793324 196.43799 799.22314 11
-56.170994 196.8376 800.849 12
-51.312958 196.40875 799.10425 16
-46.630714 196.63405 800.02081 20
-42.327877 198.69125 808.39075 1186360
-37.386959 197.8961 805.15558 131867
0 0 0 0
-28.405443 201.8871 821.39325 20
-23.618002 202.57591 824.1958 19
-19.201427 207.63432 844.77631 19
-14.214238 207.91423 845.9151 19
-9.2068901 208.04361 846.44147 19
-4.1906977 208.04361 846.44147 19
0.82549495 208.04361 846.44147 19
0 0 0 0
15.007945 287.56137 1169.9657 19
22.405962 293.64972 1194.7366 19
29.771313 296.48886 1206.2878 19
25.906765 208.04605 846.45148 19
30.922651 208.04361 846.44147 19
57.861965 334.95267 1362.7809 19
41.013786 208.34204 847.6557 19
46.037174 208.34204 847.6557 19
51.107807 208.53481 848.44 19
56.806034 211.02446 858.56934 19
61.959854 211.24864 859.48145 19
68.242706 214.99574 874.72681 19
75.186874 220.15012 895.69775 19
0 0 0 0
121.83483 312.59897 1271.8331 19
132.03537 319.03448 1298.0165 19
141.67786 323.48718 1316.1327 19
149.69946 323.96747 1318.0867 19
156.95116 322.81659 1313.4042 19
166.99808 327.25192 1331.4498 19
175.79486 328.94788 1338.3499 19
183.65059 328.8125 1337.7991 19
191.25494 328.25687 1335.5385 19
198.32181 326.85956 1329.8534 19
206.44522 327.2438 1331.4167 19
214.73201 327.84924 1333.88 18
222.96109 328.32669 1335.8225 18
230.86392 328.30743 1335.7441 18
238.81293 328.35294 1335.9293 18
247.06615 328.80035 1337.7498 18
255.40607 329.33179 1339.9119 18
262.22235 327.92578 1334.1914 18
268.88879 326.42014 1328.0656 18
276.62918 326.26678 1327.4417 18
284.55676 326.33661 1327.7257 18
298.58514 333.21097 1355.6946 18
308.15079 334.87527 1362.4659 18
316.84076 335.52731 1365.1188 18
325.55725 336.17426 1367.751 18
336.55511 339.08829 1379.6069 18
345.94711 340.28455 1384.474 18
353.85535 339.99969 1383.3151 18
371.52402 348.89365 1419.5009 18
369.43805 339.25317 1380.2778 18
377.91202 339.51746 1381.353 18
386.67978 340.02887 1383.4337 18
381.58185 328.57932 1336.8503 18
407.46106 343.72733 1398.4812 18
416.69482 344.50949 1401.6636 18
424.84 344.37866 1401.1312 18
434.28986 345.29019 1404.8398 18
445.18988 347.29868 1413.0116 18
455.12997 348.49802 1417.8912 18
477.31287 358.8584 1460.0431 18
494.03201 364.81512 1484.2786 18
493.11572 357.76849 1455.6088 18
511.93927 365.0397 1485.1923 18
523.80627 367.1886 1493.9352 18
531.19043 366.17575 1489.8145 18
541.10486 366.91177 1492.809 18
547.2146 365.08578 1485.3798 18
564.72498 370.80331 1508.642 18
577.70386 373.41367 1519.2623 18
597.64148 380.37271 1547.5758 18
620.198 388.76309 1581.7128 18
608.59564 375.81036 1529.0135 17
622.02924 378.47067 1539.8373 16
636.2597 381.53195 1552.2922 16
649.78009 384.08621 1562.6844 16
661.20258 385.34601 1567.8101 16
672.28339 386.37454 1571.9948 15
685.94788 388.8396 1582.0239 17
699.51819 391.18549 1591.5684 18
711.57831 392.63562 1597.4684 17
719.16565 391.61212 1593.3042 16
733.46045 394.22028 1603.9156 16
755.86401 401.06421 1631.7607 16
769.36981 403.0737 1639.9365 16
791.2467 409.36395 1665.5289 14
839.70416 429.0817 1745.752 13
862.63007 435.43185 1771.5881 65547
920.3277 458.97003 1867.355 196616
0 0 0 0
0 0 0 0
1400.1385 673.94189 2741.9846 9601917
1447.5056 688.74817 2802.2251 9206377
1479.165 695.82935 2831.0354 9074530
1502.9423 699.08527 2844.2825 10981499
1517.501 698.02863 2839.9834 10652279
1540.4463 700.81055 2851.302 10652279
1559.3693 701.72205 2855.0105 10849915
1578.7274 702.8078 2859.4277 11047548
1593.3258 701.77393 2855.2214 9599846
1598.8503 696.80725 2835.0142 9139554
1616.5358 697.18878 2836.5664 10717559
1646.2188 702.68347 2858.9221 8941404
1650.325 697.26025 2836.8572 9731692
1686.0927 705.18823 2869.113 10324088
1694.9196 701.8028 2855.3391 10982531
1713.4347 702.45624 2857.9976 11049095
1734.6243 704.18256 2865.0212 10522493
1751.7288 704.23315 2865.2271 11114114
1774.3008 706.45966 2874.2859 10587257
1793.9727 707.50018 2878.5193 9796711
1813.6783 708.53424 2882.7263 9072218
1839.7771 712.02319 2896.9216 8940377
1884.02 722.40485 2939.1599 9269342
1890.082 718.09039 2921.6062 10058858
1895.7614 713.71014 2903.7849 9861735
1900.8676 709.19495 2885.4146 9533027
1924.8912 711.75525 2895.8313 8546134
1961.876 719.02045 2925.3904 9138271
1956.9164 710.92059 2892.4353 9927787
1987.2041 715.65509 2911.698 9861994
2016.8694 720.08582 2929.7249 9401443
2028.2433 717.966 2921.1003 9334880
2035.759 714.52802 2907.1125 9006173
2053.5359 714.71893 2907.8894 9532259
2073.7769 715.75726 2912.1138 8677207
2108.957 721.89209 2937.0737 10124139
2105.3325 714.75238 2908.0254 9334367
2137.4084 719.75043 2928.3601 9005145
2150.6716 718.38391 2922.8005 9794918
2167.7446 718.30164 2922.4658 10058089
2192.5417 720.75995 2932.4675 8413264
2202.7747 718.42938 2922.9856 9268574
2244.8923 726.45325 2955.6313 9597539
2259.4529 725.50439 2951.7708 9202781
2277.2954 725.61584 2952.2241 8808023
2284.7429 722.4386 2939.2974 9663076
2315.9514 726.76599 2956.9036 9399903
2346.0432 730.68042 2972.8298 8940636
2366.8428 731.66406 2976.8318 9927274
2372.8242 728.08636 2962.2756 9006172
2397.7754 730.33911 2971.4412 8940122
2430.2126 734.82251 2989.6824 9137501
2443.8459 733.59656 2984.6943 8940637
2453.2295 731.12164 2974.625 9138017
2457.9954 727.31573 2959.1404 9467238
2472.0198 726.28381 2954.9419 10125939
2479.7458 723.42908 2943.3271 10454905
2516.0469 728.89227 2965.5547 9402473
2514.8176 723.48267 2943.5452 8546393
2570.395 734.37756 2987.8718 9335396
2602.3728 738.427 3004.3474 9138018
2583.9163 728.20782 2962.77 8743258
2639.3792 738.81818 3005.939 9401442
2656.2437 738.55426 3004.8652 9664614
2684.1318 741.33844 3016.1929 9401444
2691.0942 738.34454 3004.012 8217172
2688.2993 732.73047 2981.1707 8941151
2726.7417 738.35602 3004.0586 9205351
2743.0742 737.96057 3002.4497 9731438
2763.8157 738.7486 3005.6558 9665389
2775.855 737.21539 2999.418 9600110
2766.1655 729.96777 2969.9304 9994355
2791.5769 732.01599 2978.2637 10191734
2844.5361 741.21674 3015.6975 10718334
2870.2883 743.25732 3024 10190963
2902.3953 746.90808 3038.8533 9927790
0 0 0 0
0 0 0 0
0 0 0 0
0 0 0 0
0 0 0 0
0 0 0 0
0 0 0 0
0 0 0 0
0 0 0 0
0 0 0 0
0 0 0 0
0 0 0 0
0 0 0 0
0 0 0 0
0 0 0 0
0 0 0 0
0 0 0 0
0 0 0 0
0 0 0 0
0 0 0 0
0 0 0 0
0 0 0 0
0 0 0 0
0 0 0 0
0 0 0 0
-625.87933 200.12621 795.05908 267
-621.26141 200.15642 795.17908 267
-615.66095 199.86812 794.03375 12
-609.17175 199.28464 791.7157 12
-601.09473 198.16864 787.28204 12
-593.36658 197.15106 783.2395 12
-588.22949 196.98515 782.58032 12
-585.62335 197.67088 785.30463 12
-580.78943 197.60962 785.06122 12
-575.35156 197.34024 783.99103 12
-570.34546 197.21576 783.49652 12
-567.13049 197.71365 785.47455 12
-561.84003 197.49025 784.58698 12
-554.99811 196.71321 781.5 12
-549.42078 196.37508 780.15668 11
-543.40979 195.87494 778.16968 11
-539.04919 195.96617 778.53217 11
-534.96735 196.16119 779.30695 11
-529.26965 195.76199 777.72095 12
-523.59241 195.36339 776.13739 12
-518.61041 195.21942 775.56543 12
-513.49811 195.02339 774.78668 12
-508.66577 194.93112 774.4201 12
-504.08633 194.93497 774.43536 14
-499.15985 194.80342 773.91284 14
-495.54745 195.18707 775.43695 13
-491.04019 195.22212 775.57617 14
-487.54407 195.6636 777.33014 13
-482.68024 195.55942 776.91614 15
-475.11404 194.34778 772.1026 16
-470.70337 194.41591 772.37329 16
-466.10449 194.40691 772.33746 15
-461.25034 194.29016 771.87372 13
-456.40302 194.174 771.41223 13
-451.83551 194.17574 771.41913 14
-447.09506 194.10245 771.12793 14
-442.41681 194.0549 770.93909 14
-437.96231 194.10553 771.1402 14
0 0 0 0
0 0 0 0
-424.492 194.21513 771.57562 16
-419.2045 193.88443 770.26178 15
0 0 0 0
0 0 0 0
-405.83273 194.03859 770.87427 18
-400.87051 193.84814 770.11768 18
0 0 0 0
0 0 0 0
0 0 0 0
-381.27014 193.16679 767.41083 18
-376.63602 193.12256 767.23505 18
-372.25864 193.21049 767.58441 18
-368.25467 193.4968 768.7218 18
-363.78629 193.5432 768.90619 18
-407.93024 219.78181 873.14661 18
-399.76273 218.1485 866.65778 18
-393.54044 217.548 864.27216 18
-385.48825 215.90677 857.75189 18
-339.34665 192.60323 765.17188 18
-376.88083 216.80362 861.31488 18
0 0 0 0
0 0 0 0
-423.35727 253.85385 1008.5076 18
-416.61899 253.39062 1006.6673 18
