# .PCD v0.7 - Point Cloud Data file format
VERSION 0.7
FIELDS x y z rgb
SIZE 4 4 4 4
TYPE F F F U
COUNT 1 1 1 1
WIDTH 1587
HEIGHT 1
VIEWPOINT 0 0 0 1 0 0 0
POINTS 1587
DATA ascii
-86.440933 689.48206 1650.8754 17
-77.645744 698.37073 1672.1581 15
-68.260132 703.77271 1685.0925 16
-58.807789 710.22034 1700.5304 17
-48.909603 712.83673 1706.7952 18
0 0 0 0
-28.814819 716.18927 1714.8223 18
-18.703485 718.15002 1719.5171 18
-8.5633583 722.3761 1729.6359 18
1.6942886 725.56873 1737.2803 18
12.02375 727.62433 1742.2021 18
22.404167 729.4397 1746.5487 18
32.845581 731.46613 1751.4008 18
43.298504 732.71411 1754.3889 18
53.848057 734.79736 1759.3771 18
64.50885 737.4765 1765.7919 19
75.334068 741.02515 1774.2886 19
86.255562 744.53546 1782.6936 19
97.079475 746.52942 1787.4679 19
107.89396 748.06555 1791.146 19
118.85043 750.2229 1796.3114 19
130.1516 754.02246 1805.4091 19
141.49496 757.47064 1813.6653 19
153.46609 763.55542 1828.2345 19
164.60129 764.95282 1831.5803 19
175.98398 767.25629 1837.0957 19
187.3644 769.2821 1841.9463 19
198.74031 771.06744 1846.2209 19
211.55429 777.95459 1862.7113 19
223.06683 779.61023 1866.6755 18
234.87228 782.08478 1872.6005 18
247.02371 785.43604 1880.6248 18
240.79976 732.59387 1754.101 18
251.22157 732.67157 1754.2871 18
272.73694 763.81104 1828.8464 18
273.73645 737.31067 1765.3948 18
286.03897 742.08533 1776.827 18
306.89056 767.91272 1838.6675 18
321.37195 776.57581 1859.41 18
335.09982 782.90405 1874.5623 18
353.52225 799.44226 1914.1608 18
367.19839 804.55261 1926.397 18
371.85168 790.18146 1891.9871 18
385.68689 795.59198 1904.9418 18
402.54367 806.75043 1931.6592 18
456.1962 888.99603 2128.5857 18
474.04922 898.92981 2152.3708 18
493.59314 911.46539 2182.3857 18
506.5264 911.46539 2182.3857 18
521.24774 914.60278 2189.8977 18
485.90656 831.87994 1991.8286 18
499.5452 834.94629 1999.1707 18
513.62024 838.58313 2007.8787 18
521.53839 832.23071 1992.6685 18
531.06744 828.67316 1984.1504 18
544.74329 831.60016 1991.1586 18
579.17169 865.41193 2072.1167 18
592.10785 866.37238 2074.4163 18
605.16608 867.46851 2077.041 18
616.32684 865.85547 2073.1787 18
638.36896 879.29346 2105.3542 18
649.95428 878.08923 2102.4707 18
674.53912 894.16217 2140.9553 18
693.40216 902.19696 2160.1936 18
713.49561 911.51227 2182.4978 18
734.06482 921.0929 2205.4375 18
754.19476 929.79663 2226.2776 18
769.6933 932.58966 2232.9651 18
790.62909 941.76483 2254.9338 18
769.08972 900.88147 2157.0437 19
0 0 0 0
736.89001 835.39368 2000.2418 19
754.26514 841.55383 2014.9916 19
768.81421 844.41815 2021.8497 19
782.41663 846.17072 2026.046 18
789.31366 840.72809 2013.0143 18
800.06769 839.49457 2010.0609 18
806.49445 833.82349 1996.4822 18
818.11414 833.60754 1995.9651 18
830.37885 834.04572 1997.0143 18
929.73621 920.71954 2204.5435 18
937.53052 915.57263 2192.22 18
950.40424 915.45917 2191.9482 18
958.92963 911.2168 2181.7903 18
967.33588 906.97552 2171.6353 18
974.9566 902.11871 2160.0063 18
947.59332 865.43707 2072.1768 18
964.69415 869.78345 2082.5837 18
979.38019 871.8703 2087.5803 18
990.77942 871.01562 2085.5339 18
1003.5988 871.41504 2086.4902 18
1065.9596 914.29767 2189.1672 19
1047.4453 887.61462 2125.2781 19
1055.6207 883.91406 2116.4175 18
1062.5253 879.24872 2105.2471 18
1067.4417 873.06549 2090.4421 18
1070.7865 865.75366 2072.9348 18
1081.3893 864.40924 2069.7158 18
1096.7819 866.88074 2075.6335 18
1118.0011 873.85162 2092.3245 18
1125.0946 869.74994 2082.5034 65554
1122.8292 858.58081 2055.7603 65551
1133.3303 857.30853 2052.7141 65552
1115.2959 834.70697 1998.5975 15
1112.8363 824.1142 1973.2346 196620
1122.1707 822.38513 1969.0945 393221
1124.5277 815.63092 1952.9225 1181193
1137.9707 816.97314 1956.1361 2824215
1138.0787 808.81134 1936.5938 5783610
1169.1156 822.57361 1969.5458 7098437
1192.9385 831.03833 1989.8135 10058862
1208.7687 833.82385 1996.483 8940124
1221.4232 834.38599 1997.8291 8677206
1242.9254 840.92346 2013.4822 7624519
1253.0952 839.74231 2010.6541 8677208
1261.0178 837.09167 2004.3075 8677209
1267.7762 833.72498 1996.2463 8217169
1280.8867 834.55914 1998.2437 9137501
1290.3042 832.9939 1994.4958 9400673
1308.2942 836.9411 2003.9469 9071964
1319.9218 836.78369 2003.5701 8874586
1329.125 835.10583 1999.5527 9335137
1336.15 832.10126 1992.3585 8940124
1346.7272 831.34204 1990.5406 8676952
1349.7366 825.96478 1977.6655 8611415
1381.2789 837.99054 2006.4597 9269088
1401.4757 842.98669 2018.4222 9269346
1408.8785 840.26776 2011.9121 8808793
1415.2853 837.00537 2004.101 8874074
1440.2261 844.66724 2022.4462 9136734
1445.2965 840.6452 2012.8159 9005146
1457.8846 841.02576 2013.7272 8610644
1473.6445 843.21515 2018.9692 7623749
1484.4318 842.54669 2017.3688 8544850
1483.8817 835.50543 2000.5094 9598309
1503.5593 839.87482 2010.9713 9335137
1517.2712 840.86926 2013.3525 7821900
1549.3677 851.95752 2039.9017 8150865
1551.2098 846.3667 2026.5153 8808795
1572.301 851.28369 2038.2885 8808795
1587.897 853.17322 2042.8126 9006174
1602.7194 854.62164 2046.2806 8743003
1608.678 851.35718 2038.4645 8216659
1623.1842 852.63153 2041.5156 8019538
1633.8217 851.86975 2039.6915 8743005
1657.8474 858.04846 2054.4858 9072737
1657.5641 851.64728 2039.1591 9204323
1661.9169 847.70361 2029.7163 8744028
1679.5764 850.55524 2036.5442 8940637
1693.3376 851.40607 2038.5814 9071967
1704.52 850.95734 2037.5071 8940637
1714.1487 849.74481 2034.6038 9006431
1710.8278 842.17462 2016.4779 7887693
1729.4482 845.43555 2024.2856 9006431
1741.8575 845.63599 2024.7656 8480087
1749.2836 843.43091 2019.4858 8480088
1773.298 849.19977 2033.2988 8808797
1793.2351 852.95135 2042.2815 8611675
1799.7128 850.29364 2035.9178 8611675
1810.5773 849.7301 2034.5685 8085331
1817.9281 847.53601 2029.3149 8611675
1832.5729 848.74872 2032.2189 8940641
1838.203 845.79785 2025.1532 9006434
1849.9794 845.69489 2024.9067 9006176
1852.484 841.38226 2014.5807 8677468
1866.8324 842.46967 2017.1842 8940641
1875.9666 841.20502 2014.1564 8414041
1883.2769 839.14374 2009.2209 8019539
1903.4136 842.78772 2017.9458 7953745
1928.8837 848.73291 2032.1808 8480089
1921.0667 840.04834 2011.3868 8348503
0 0 0 0
0 0 0 0
0 0 0 0
0 0 0 0
0 0 0 0
0 0 0 0
0 0 0 0
0 0 0 0
0 0 0 0
0 0 0 0
0 0 0 0
0 0 0 0
0 0 0 0
0 0 0 0
0 0 0 0
0 0 0 0
0 0 0 0
0 0 0 0
0 0 0 0
0 0 0 0
0 0 0 0
0 0 0 0
0 0 0 0
0 0 0 0
0 0 0 0
0 0 0 0
0 0 0 0
0 0 0 0
0 0 0 0
-539.4834 299.29074 706.58673 19
-536.2807 299.84128 707.88647 19
0 0 0 0
0 0 0 0
0 0 0 0
0 0 0 0
0 0 0 0
0 0 0 0
0 0 0 0
0 0 0 0
-498.82037 300.01901 708.30609 19
-494.84586 300.15427 708.62543 19
-490.87689 300.29529 708.95837 19
-486.52411 300.20193 708.73792 19
-482.45993 300.28656 708.93768 19
-477.66141 299.91159 708.05243 19
-473.24594 299.77258 707.7243 19
-468.79578 299.60898 707.33801 18
-464.43066 299.49719 707.07416 18
-460.19153 299.46539 706.99908 18
-456.01694 299.47543 707.02271 18
-451.84998 299.49066 707.05872 18
0 0 0 0
-443.30289 299.37808 706.79291 18
-439.19617 299.4339 706.92468 18
0 0 0 0
0 0 0 0
-426.48724 299.33511 706.69147 18
-422.26724 299.31244 706.63794 18
-417.95474 299.22308 706.427 18
0 0 0 0
-410.19739 299.67276 707.48859 16
0 0 0 0
-401.41489 299.37662 706.78949 16
-397.19962 299.35654 706.742 16
-392.77493 299.17645 706.31689 16
0 0 0 0
0 0 0 0
-380.14218 299.11713 706.17688 16
-375.82104 299.00879 705.92108 16
-371.16064 298.62503 705.01508 17
-367.19427 298.7973 705.42181 18
-362.90439 298.70724 705.20917 18
-358.77225 298.74646 705.30176 23
-354.54578 298.70712 705.20886 25
-350.65219 298.95062 705.78375 28
-346.57672 299.04309 706.00201 1322
-342.24664 298.91544 705.70068 2091
-339.29099 299.99988 708.26093 1833
-335.14319 300.04419 708.36554 21
-331.50534 300.55197 709.56433 14
-327.17059 300.43286 709.28314 8
-324.43167 301.79514 712.49927 9
-320.52554 302.09323 713.20306 7
-316.65985 302.43796 714.01685 7
-313.79108 303.75699 717.13098 7
-309.89124 304.10049 717.94196 7
-306.37338 304.83362 719.67273 7
-302.58508 305.31454 720.80817 9
-298.69363 305.70367 721.72681 9
-295.8219 307.16293 725.172 9
-292.08817 307.75699 726.5744 9
-287.05087 306.97473 724.72766 9
-283.03918 307.2822 725.45349 8
-279.83945 308.4942 728.31494 9
-275.34308 308.29245 727.83856 9
-270.66858 307.88165 726.86871 9
-265.98761 307.45001 725.84973 8
-261.97769 307.79263 726.65857 6
-257.77863 307.92078 726.96112 7
-253.76413 308.2775 727.80328 7
-250.42871 309.48575 730.65582 9
-249.46577 313.72009 740.65253 9
-244.96039 313.57144 740.30164 9
-240.80957 313.87955 741.02899 9
-237.50246 315.31921 744.42786 9
-233.00407 315.20184 744.15082 9
-228.87024 315.58267 745.0498 9
-224.3356 315.41489 744.65375 9
-220.18073 315.78506 745.52765 10
-215.84464 315.90521 745.81128 9
-215.47119 321.95117 760.08508 9
-207.39044 316.49344 747.20007 8
-207.71719 323.90796 764.70483 8
-204.03351 325.26001 767.89679 8
-199.86874 325.88931 769.38251 9
-195.30418 325.88092 769.36267 11
-191.83891 327.75018 773.77582 16
-187.15657 327.58081 773.37592 20
-182.7099 327.82574 773.95416 23
-178.48994 328.50058 775.54736 29
-174.31715 329.30014 777.43506 2088
-170.62788 331.08136 781.64026 70194
-167.12811 333.33997 786.97253 68909
-168.43367 345.58765 815.8877 26
-172.32542 364.02243 859.40985 19
-170.82736 371.84781 877.88452 18
-166.42262 373.63892 882.11316 18
-161.5813 374.53427 884.22693 18
-155.67668 372.94235 880.46869 18
-150.37898 372.74445 880.0014 18
-145.16389 372.74445 880.0014 18
-139.94882 372.74445 880.0014 18
-134.73375 372.74445 880.0014 18
-129.33075 372.20361 878.72455 18
0 0 0 0
0 0 0 0
-191.55746 627.02917 1480.3348 18
-184.28905 632.18988 1492.5184 16
-176.34247 635.42712 1500.1613 16
-170.14203 645.63409 1524.2587 16
-166.99762 669.23267 1579.9718 16
-153.004 649.57458 1533.5615 16
0 0 0 0
0 0 0 0
-101.70339 525.40375 1240.4103 16
-96.376389 536.67407 1267.0181 16
-67.584236 408.14249 963.57153 16
0 0 0 0
0 0 0 0
0 0 0 0
-77.172142 703.96008 1661.9586 16
-67.855103 709.5238 1675.0939 16
-58.409939 715.42505 1689.026 16
-48.558094 717.75586 1694.5287 17
0 0 0 0
-28.727875 724.15997 1709.6479 18
-18.644197 726.03149 1714.0664 18
-8.5038862 727.53821 1717.6237 18
1.6838155 731.31561 1726.5415 18
11.971068 734.7157 1734.5687 18
22.33029 737.35059 1740.7894 18
32.719173 738.99023 1744.6603 18
43.160473 740.742 1748.796 18
53.604729 741.85626 1751.4268 18
64.176552 744.08826 1756.696 18
74.938301 747.59174 1764.9674 19
85.912598 752.09778 1775.6055 19
96.835609 755.2204 1782.9777 19
107.72729 757.50842 1788.3794 19
118.52916 758.81152 1791.4558 19
129.65807 761.82196 1798.563 19
141.01985 765.63928 1807.5753 19
153.03915 772.23566 1823.1484 19
164.08858 773.39062 1825.8752 18
175.34659 775.32501 1830.4421 18
186.60109 777.01941 1834.4423 18
198.10136 779.49438 1840.2853 18
211.17903 787.59381 1859.4072 18
222.62521 789.10712 1862.98 18
234.15085 790.74585 1866.8485 18
246.09862 793.59784 1873.5818 18
240.67723 742.61096 1753.2084 18
251.0537 742.57129 1753.1147 18
271.73846 771.81323 1822.1511 19
283.46814 774.35706 1828.1569 19
295.40714 777.26434 1835.0205 18
307.45343 780.23755 1842.0398 18
320.37506 785.15198 1853.6422 18
334.08838 791.61646 1868.9041 18
347.92303 797.9444 1883.8435 18
358.22165 796.0213 1879.3032 18
370.37964 798.22137 1884.4973 18
384.52036 804.44055 1899.1801 18
400.75183 814.55566 1923.0607 18
452.37961 894.06744 2110.7776 18
468.69672 901.39136 2128.0684 18
484.8428 908.01117 2143.6968 18
497.20258 907.38287 2142.2136 18
510.43539 908.3396 2144.4722 19
484.90787 841.94983 1987.7346 19
496.84506 842.21674 1988.3649 19
507.89487 841.00189 1985.4967 18
516.24585 835.47437 1972.447 18
532.32996 842.42957 1988.8671 19
556.13068 861.03064 2032.782 18
568.73749 861.87946 2034.786 18
581.1377 862.38641 2035.9829 18
593.32819 862.56781 2036.4111 18
604.47235 861.2514 2033.3031 18
618.98016 864.68506 2041.4097 18
635.00708 870.06854 2054.1194 18
653.92664 879.13843 2075.5322 18
676.27271 892.39502 2106.8291 18
695.03607 900.52893 2126.0322 18
713.95581 908.5722 2145.0215 18
729.72552 912.39551 2154.0479 18
742.43188 912.323 2153.8767 18
752.51349 909.08215 2146.2253 18
758.10461 900.61438 2126.2341 19
744.90771 870.46857 2055.0637 19
735.89935 846.10852 1997.5527 19
747.80042 846.17993 1997.7213 19
761.29004 848.01868 2002.0625 19
771.69586 846.41864 1998.2849 18
774.87903 837.06458 1976.2012 18
783.17084 833.4256 1967.61 18
794.43164 833.00659 1966.6207 18
807.37054 834.33362 1969.7538 18
819.78827 835.09216 1971.5446 18
921.77087 925.78412 2185.6565 18
931.72461 922.81378 2178.644 18
941.30341 919.55853 2170.9587 18
951.10889 916.60944 2163.9963 18
959.73267 912.61505 2154.5662 18
969.3269 909.63641 2147.5339 18
938.76599 869.54077 2052.8733 18
950.94861 869.55621 2052.9097 18
970.4317 876.16248 2068.5063 18
982.55634 876.04327 2068.2249 18
995.82483 876.93427 2070.3284 18
1049.0165 912.53241 2154.3708 18
1035.3398 889.80554 2100.7158 19
1041.6952 884.63049 2088.498 19
1047.0305 878.72083 2074.5461 19
1051.1111 871.90753 2058.4609 18
1053.1995 863.61707 2038.8882 18
1062.9871 861.75629 2034.4951 18
1087.2911 871.57367 2057.6726 18
1096.608 869.29279 2052.2878 18
1102.6591 864.50146 2040.9761 65554
1118.7531 867.60242 2048.2971 65552
1124.9141 863.01654 2037.4705 65552
1131.0231 858.48859 2026.7804 65551
1116.7059 838.71448 1980.0963 196622
1118.7867 831.53931 1963.1567 262155
1125.7357 828.09283 1955.0201 393222
1135.4055 826.69775 1951.7266 524291
1137.281 819.71307 1935.2365 3152924
1150.0671 820.65314 1937.4558 5323059
1176.5948 831.28326 1962.5522 6966851
1205.2386 843.18585 1990.6527 8414809
1214.1426 841.18134 1985.9204 8611929
1238.3545 849.71936 2006.0774 8611673
1238.8518 841.97748 1987.7999 8414548
1251.0094 842.23169 1988.3999 8940892
1263.2102 842.50983 1989.0566 8480341
1270.0953 839.27032 1981.4086 8809306
1281.7567 839.21735 1981.2836 9269857
1296.2222 840.98468 1985.4559 9401699
1298.4548 834.85492 1970.9844 9269857
1315.7749 838.44861 1979.4688 9203810
1321.5709 834.70026 1970.6194 7887694
1324.649 829.31592 1957.9077 8150865
1342.6117 833.263 1967.2261 7032384
1351.7233 831.69604 1963.5267 7953486
1367.9481 834.49518 1970.1353 8743001
1393.748 843.03876 1990.3054 8874588
1402.4932 841.20947 1985.9868 9335138
1410.9254 839.22455 1981.3005 9795690
1419.4113 837.30402 1976.7664 8940381
1449.8022 848.23083 2002.5632 7492679
1442.3292 837.00714 1976.0657 8940380
1451.3892 835.48132 1972.4633 9334882
1473.4497 841.40375 1986.4454 8874331
1475.4246 835.85345 1973.3419 8940124
1503.8125 845.23627 1995.4934 8611416
1515.5579 845.19147 1995.3877 8940381
1537.7947 850.95294 2008.9897 8808795
1546.2269 849.04553 2004.4867 8742747
1580.2631 861.11945 2032.9916 7756108
1594.7488 862.43781 2036.1041 6637626
1596.3571 856.82452 2022.8518 6966591
1610.87 858.16968 2026.0276 7690314
1627.3735 860.54767 2031.6417 8414040
1626.286 853.65692 2015.3737 8611673
1639.2313 854.17889 2016.6058 8940638
1647.6869 852.37079 2012.3372 9401446
1660.3031 852.72552 2013.1746 8875102
1668.0942 850.61475 2008.1913 8611929
1680.2501 850.74371 2008.496 8545880
1693.8591 851.60156 2010.5211 8743259
1704.0656 850.74866 2008.5076 8809052
1710.745 848.159 2002.3937 8940637
1730.1548 851.87305 2011.162 9072223
1743.5435 852.59192 2012.8591 8809053
1756.823 853.24805 2014.4082 9006432
1764.6626 851.27106 2009.7408 8940640
1765.8552 846.13562 1997.6167 7427401
1798.0452 855.82239 2020.486 8940640
1801.8396 851.95502 2011.3556 8611675
1803.4004 847.08929 1999.8682 8348248
1813.552 846.29596 1997.9952 8282710
1827.2513 847.15765 2000.0297 8677467
1834.515 845.04395 1995.0393 8611675
1847.1777 845.42822 1995.9465 9269605
1860.8156 846.2511 1997.8894 9203812
1853.9333 837.79059 1977.9152 8743262
1883.8939 845.98102 1997.2517 8480090
1891.7954 844.2251 1993.1062 9138020
1889.8783 838.13654 1978.7321 8282710
0 0 0 0
0 0 0 0
0 0 0 0
0 0 0 0
0 0 0 0
0 0 0 0
0 0 0 0
0 0 0 0
0 0 0 0
0 0 0 0
0 0 0 0
0 0 0 0
0 0 0 0
0 0 0 0
0 0 0 0
0 0 0 0
0 0 0 0
0 0 0 0
0 0 0 0
0 0 0 0
0 0 0 0
0 0 0 0
0 0 0 0
0 0 0 0
0 0 0 0
0 0 0 0
0 0 0 0
0 0 0 0
0 0 0 0
0 0 0 0
0 0 0 0
0 0 0 0
0 0 0 0
0 0 0 0
0 0 0 0
0 0 0 0
-510.25311 303.52655 706.69946 19
0 0 0 0
-502.44769 303.8717 707.50305 19
-498.45737 303.99518 707.79059 19
-494.43777 304.10278 708.04108 19
-489.36743 303.56042 706.77832 19
0 0 0 0
-480.91516 303.51294 706.66779 19
-476.3634 303.28125 706.12836 19
-472.53809 303.51208 706.66577 18
-468.54434 303.63785 706.95862 18
-464.39676 303.66531 707.02258 18
-460.31705 303.73807 707.19196 18
-456.14313 303.74942 707.21838 18
-450.91171 303.05029 705.59058 18
-446.94455 303.19565 705.92902 18
-442.4957 303.01395 705.50598 18
-438.28851 302.99585 705.46381 18
-434.9823 303.60623 706.88495 18
-430.37833 303.31387 706.20428 18
-426.16345 303.29266 706.15491 18
-421.88986 303.22888 706.00641 18
-417.93567 303.39569 706.39478 18
-413.73254 303.3833 706.36591 16
-409.57834 303.40689 706.42084 16
-405.59332 303.55762 706.77179 15
0 0 0 0
-396.582 303.07281 705.64307 14
-392.31827 303.00955 705.49573 15
-387.97729 302.88458 705.20477 16
-384.24649 303.23846 706.02869 16
-379.97375 303.16772 705.86401 16
-375.70825 303.10126 705.70923 16
0 0 0 0
-367.03952 302.8501 705.12451 19
-362.71469 302.72815 704.84058 21
-358.98062 303.10217 705.71136 23
-354.50522 302.85168 705.12817 25
0 0 0 0
-347.07315 303.66135 707.01331 1578
-342.36398 303.20148 705.94263 1835
-338.82013 303.77502 707.27802 1573
-335.54547 304.6073 709.21582 20
-331.74197 304.97455 710.07086 14
-327.48865 304.93237 709.97266 8
-324.45724 306.04172 712.55548 8
-320.60535 306.39612 713.38062 7
-316.67303 306.6821 714.04657 4
-312.57327 306.81152 714.34784 4
-309.95645 308.42007 718.09302 7
-306.15872 308.88196 719.16846 7
-302.34137 309.33688 720.2276 9
-298.60898 309.89294 721.52228 9
-295.01596 310.61188 723.19623 9
-290.49298 310.35855 722.60638 8
-286.55219 310.72885 723.46857 8
-282.97311 311.50867 725.28418 8
-278.57278 311.3945 725.01837 7
-274.09964 311.19409 724.55176 7
-269.85498 311.25079 724.68378 7
-265.77161 311.49841 725.26031 7
-262.37997 312.57825 727.77448 7
-257.99332 312.48895 727.56659 7
-256.87805 316.42639 736.73407 7
-249.62376 312.8071 728.30731 7
-248.42239 316.77887 737.55481 7
-244.4709 317.32327 738.82233 6
-240.82445 318.29071 741.07477 6
-237.03391 319.10007 742.95923 6
-232.99388 319.59787 744.11829 6
-228.57845 319.59 744.09991 8
-224.34976 319.84808 744.70081 9
-220.00064 319.94131 744.91791 10
-216.01311 320.57504 746.39337 12
-215.37894 326.31583 759.75964 15
-211.06465 326.60709 760.43774 19
-207.18948 327.60538 762.76208 22
-203.78448 329.4082 766.95959 27
-199.88438 330.4747 769.44275 35
-195.11154 330.11438 768.60382 1327
-191.05373 330.97552 770.60883 3131
-187.17554 332.19766 773.45428 3647
-182.89195 332.74359 774.72534 3904
-178.94963 333.95447 777.54468 136004
-174.65956 334.56329 778.96216 3385
-171.02409 336.4931 783.45532 3378
-167.72867 339.21829 789.80042 801
-176.94838 368.13745 857.13275 25
-172.46625 369.41711 860.11212 19
-168.32858 371.53503 865.04327 18
-163.32373 371.8118 865.68768 18
-159.03598 373.79196 870.2981 18
-153.8784 373.79196 870.2981 18
-149.97395 376.94153 877.63123 18
-144.77292 376.94153 877.63123 18
-139.5719 376.94153 877.63123 18
-133.62956 374.862 872.78943 18
-128.45721 374.862 872.78943 18
-123.28487 374.862 872.78943 18
0 0 0 0
-191.21443 634.66345 1477.684 16
-183.50203 638.29724 1486.1445 16
-176.85834 646.20227 1504.5497 16
-172.50259 663.75012 1545.4064 16
-159.87712 649.66174 1512.6045 16
-157.74002 679.05072 1581.0306 16
0 0 0 0
0 0 0 0
-101.80999 533.31311 1241.7104 16
-97.748627 551.93097 1285.0583 16
-67.584236 413.85278 963.57153 16
0 0 0 0
0 0 0 0
0 0 0 0
-76.450775 707.13684 1646.4235 17
-67.596062 716.70416 1668.6991 17
-58.047092 720.9281 1678.5336 17
0 0 0 0
-38.505363 727.59784 1694.0626 18
-28.579437 730.49762 1700.8142 18
-18.584698 733.84003 1708.5963 18
-8.47754 735.4317 1712.3022 18
1.6733809 736.95203 1715.842 18
11.885669 739.68042 1722.1946 18
22.218403 743.92072 1732.0671 18
32.604351 746.69983 1738.5377 18
42.986034 748.07007 1741.728 18
53.407219 749.46399 1744.9735 18
63.901882 751.26959 1749.1775 18
74.524551 753.86597 1755.2227 19
85.389107 757.97345 1764.7861 19
96.429268 762.5733 1775.496 19
107.40135 765.78265 1782.9683 19
118.24233 767.5661 1787.1206 19
129.21951 769.8678 1792.4796 19
141.37131 778.28632 1812.0804 19
152.56139 780.59546 1817.4568 19
163.61671 781.95605 1820.6246 18
174.81042 783.76874 1824.8451 18
185.98848 785.30408 1828.4198 18
197.22292 786.89545 1832.125 18
208.7314 789.35699 1837.8562 18
222.10237 798.26843 1858.6046 18
233.53181 799.68939 1861.9131 18
245.23488 801.87677 1867.006 18
256.69614 803.11884 1869.8978 18
252.24823 756.54327 1761.4562 18
256.17111 737.7774 1717.7638 18
265.77454 736.18073 1714.0463 18
300.4567 801.61121 1866.3876 18
307.00186 789.99182 1839.3342 18
317.68509 789.45245 1838.0784 18
331.97342 797.61053 1857.0729 18
345.22696 802.83862 1869.2455 18
356.11621 802.41437 1868.2576 18
369.2402 806.89923 1878.6997 18
383.20416 812.90338 1892.6793 18
398.86319 822.05969 1913.9978 18
450.0535 901.91486 2099.9241 18
463.77304 904.40106 2105.7129 19
475.5242 903.01917 2102.4954 19
484.16638 895.95453 2086.0469 19
491.8981 887.59888 2066.5923 19
482.95544 850.29218 1979.7313 19
492.15051 845.93109 1969.5774 19
500.91946 841.05652 1958.228 19
513.92438 843.354 1963.5773 19
534.01196 856.91504 1995.1515 19
547.63245 859.73596 2001.7192 19
558.94495 858.8905 1999.7509 19
570.68829 858.72864 1999.374 19
582.05481 858.01788 1997.7191 18
592.82343 856.4715 1994.1188 18
606.6604 859.33215 2000.7789 18
621.64349 863.67523 2010.891 19
640.32477 872.89636 2032.3606 19
658.612 881.24976 2051.8098 19
678.51575 891.42407 2075.4985 19
695.71527 897.74658 2090.2192 19
710.71539 901.05951 2097.9326 18
723.02637 900.90778 2097.5793 18
732.84857 897.7124 2090.1396 18
732.64929 882.55139 2054.8403 19
727.82068 862.40082 2007.9237 19
731.43262 852.73895 1985.4281 19
737.54132 846.24768 1970.3146 19
748.28497 845.19403 1967.8613 19
751.16937 835.43182 1945.1321 18
760.19452 832.69104 1938.7507 18
772.49164 833.56256 1940.7799 18
785.99347 835.68939 1945.7318 18
800.87622 839.20178 1953.9097 18
814.49835 841.31189 1958.8226 18
916.23969 933.10376 2172.5413 18
925.80341 929.77832 2164.7986 18
934.52057 925.70526 2155.3152 18
950.77887 929.11127 2163.2454 18
939.98444 906.3421 2110.2322 18
917.00879 872.5799 2031.6237 18
930.71051 874.14069 2035.2577 18
957.85358 888.12451 2067.8162 18
966.12592 884.479 2059.3284 18
977.68573 883.89667 2057.9724 18
991.30176 885.16467 2060.9248 18
1034.7307 912.69867 2125.0322 18
1023.5842 892.01025 2076.8635 18
1032.8962 889.4306 2070.8572 18
1040.6199 885.55969 2061.8445 18
1032.5031 868.4549 2022.0195 19
1042.3333 866.6651 2017.8523 18
1055.9243 868.00726 2020.9773 18
1085.4059 882.23547 2054.1047 18
1096.2456 881.16376 2051.6094 18
1112.0254 884.04279 2058.3127 18
1118.5652 879.59351 2047.9534 18
1117.5581 869.36865 2024.147 18
1124.7612 865.68011 2015.5591 17
1110.2914 845.56378 1968.7222 65554
1119.6873 843.85205 1964.7368 131086
1125.2266 839.29901 1954.1361 262155
1132.7401 836.29626 1947.1448 393222
1141.8932 834.55243 1943.0845 917765
1147.2992 830.1322 1932.7928 2232080
1163.2183 833.33075 1940.2402 4139042
1172.7034 831.90271 1936.9153 6177593
1186.1895 833.31299 1940.1987 6177591
1209.3925 841.45691 1959.1603 9072995
1225.3545 844.45587 1966.1427 8677466
1236.5305 844.1311 1965.3865 8677467
1242.2395 840.11505 1956.036 9795946
1251.2374 838.37701 1951.9894 9072224
1268.8365 842.38123 1961.3123 8940637
1277.3436 840.33118 1956.5392 9204321
1285.6831 838.20868 1951.5975 9204321
1297.4861 838.36224 1951.9548 9006942
1313.3383 841.10614 1958.3435 8677976
1322.3094 839.43378 1954.4497 8743514
1329.3009 836.54456 1947.7228 8151121
1342.0547 837.30023 1949.4822 7493191
1353.222 837.06158 1948.9268 8480341
1370.4087 840.51892 1956.9763 9401696
1378.0229 838.09644 1951.3361 10059114
1390.9277 838.90503 1953.2186 9861993
1406.0669 841.0368 1958.1821 9598309
1424.2397 844.93347 1967.2546 10123884
1399.7521 823.66382 1917.7327 9597796
1438.9532 839.9118 1955.5627 9137247
1453.7468 841.76727 1959.8829 8347987
1467.9406 843.24878 1963.3323 9400932
1481.1045 844.12012 1965.3608 9203553
1488.3478 841.62976 1959.5627 8940124
1500.808 842.10529 1960.6698 10124654
1513.0016 842.42499 1961.4143 9203809
1535.052 848.18622 1974.8281 9006431
1559.6853 855.27655 1991.3365 8019536
1573.0311 856.11731 1993.2941 8085328
1587.8701 857.75214 1997.1003 8019279
1595.5112 855.50323 1991.8643 7887692
1612.5045 858.26514 1998.2947 8743000
1617.6406 854.7218 1990.0448 8809050
1627.3348 853.62054 1987.4808 8611673
1637.1606 852.60382 1985.1136 7493192
1650.9552 853.65369 1987.558 7953743
1660.3163 852.41241 1984.6678 8611673
1671.002 851.86401 1983.391 8808795
1682.0031 851.48285 1982.5035 8019536
1701.3513 855.30334 1991.3987 8282708
1720.5323 858.98749 1999.9767 9137760
1724.5869 855.12115 1990.9746 9006430
1740.1595 856.97961 1995.3016 8874846
1747.8225 854.94397 1990.562 8940640
1756.6179 853.48584 1987.1671 8874847
1769.6495 854.09149 1988.5774 8480089
1773.3899 850.23474 1979.5977 9137762
1766.0754 841.16339 1958.4768 9466984
1795.5867 849.63562 1978.2028 8940640
1799.0642 845.75922 1969.1774 8611418
1812.901 846.77142 1971.5339 8216917
1827.4902 848.11981 1974.6735 8480089
1834.6345 846.01794 1969.7797 8874590
1843.7626 844.85168 1967.0642 7953488
1851.5387 843.08441 1962.9495 8875360
1867.9437 845.24377 1967.9772 8217429
1864.8945 838.62799 1952.5737 7296584
0 0 0 0
0 0 0 0
0 0 0 0
0 0 0 0
0 0 0 0
0 0 0 0
0 0 0 0
0 0 0 0
0 0 0 0
0 0 0 0
0 0 0 0
0 0 0 0
0 0 0 0
0 0 0 0
0 0 0 0
0 0 0 0
0 0 0 0
0 0 0 0
0 0 0 0
0 0 0 0
0 0 0 0
0 0 0 0
0 0 0 0
0 0 0 0
0 0 0 0
0 0 0 0
0 0 0 0
0 0 0 0
0 0 0 0
-537.70782 306.65289 704.26117 19
-534.45416 307.18164 705.47546 19
-530.01764 307.03354 705.13531 19
-525.8457 307.03754 705.14447 19
-522.07593 307.27829 705.69739 19
-519.16895 308.03482 707.43488 19
-513.88971 307.38474 705.94189 19
-509.16803 307.06024 705.19666 19
-506.31668 307.86761 707.05084 19
-502.17056 307.89459 707.11285 19
-496.81747 307.17578 705.46198 19
-493.11252 307.47244 706.14331 19
-488.50992 307.20969 705.53986 19
-484.64438 307.40988 705.99963 19
-480.20801 307.24835 705.62866 19
-476.32281 307.43973 706.06818 19
-471.42337 306.97406 704.99872 18
-467.36441 307.05225 705.17828 18
0 0 0 0
-458.95859 307.02032 705.10498 18
-455.50635 307.51068 706.23114 18
0 0 0 0
0 0 0 0
-442.2601 307.03134 705.13031 18
-438.21304 307.12366 705.34229 18
-433.87759 307.01367 705.08972 18
-429.70605 307.01865 705.10114 18
-424.94324 306.59714 704.13306 16
-421.68613 307.26437 705.66547 16
-417.1973 307.03848 705.14673 16
0 0 0 0
0 0 0 0
0 0 0 0
0 0 0 0
0 0 0 0
0 0 0 0
0 0 0 0
0 0 0 0
0 0 0 0
0 0 0 0
0 0 0 0
0 0 0 0
0 0 0 0
-358.56412 306.92786 704.89258 23
0 0 0 0
-350.35709 307.05725 705.18976 27
-346.86829 307.66953 706.59595 1322
-342.25244 307.28491 705.71265 2092
-338.77603 307.92642 707.18597 1576
-336.02359 309.25034 710.22644 19
-332.30212 309.70465 711.26984 14
-327.78989 309.42419 710.62573 8
-323.61642 309.46039 710.70886 9
-320.71283 310.72787 713.61981 6
-316.87363 311.11063 714.49884 7
-313.2142 311.68271 715.81262 7
-309.77197 312.48953 717.66565 4
-305.82501 312.80258 718.38458 4
-302.19736 313.45572 719.88452 7
-298.69363 314.25787 721.72681 7
-294.70779 314.56879 722.44086 7
-290.88043 315.06052 723.57013 7
-285.74753 314.13174 721.43707 7
-281.48132 314.142 721.46063 7
-277.56036 314.54379 722.38342 7
-274.53082 315.98422 725.69153 7
-269.539 315.17593 723.83521 7
-268.6431 319.2084 733.09625 7
-264.62466 319.6022 734.00061 7
-260.3327 319.67331 734.16388 7
-256.18607 319.92825 734.74939 7
-252.0937 320.26099 735.51361 8
-248.07686 320.70309 736.52893 8
-245.27026 322.7536 741.2381 8
-241.13628 323.10028 742.0343 9
-238.38882 325.3522 747.20612 9
-231.09891 321.3725 738.06628 15
-227.77068 322.85471 741.47034 19
-226.78075 327.7749 752.77008 24
-223.00797 328.7897 755.10071 543
-219.08121 329.61438 756.99463 1318
-215.02899 330.28082 758.52521 1837
-210.92856 330.90009 759.94745 2101
-207.28537 332.27936 763.11505 2102
-203.57841 333.61566 766.18402 2358
-199.35695 334.15054 767.41241 2615
-195.26157 334.92661 769.19476 2357
-191.19951 335.79837 771.19684 199987
-187.24976 336.91486 773.76099 199469
-183.69411 338.81433 778.12329 33
-181.19087 342.80267 787.28302 29
-175.21843 340.26486 781.45465 27
-171.50441 342.09409 785.65564 25
-174.61855 358.02533 822.24347 22
-176.23924 371.72134 853.69775 21
0 0 0 0
-167.88023 375.6582 862.7392 18
-163.32373 376.94205 865.68768 18
-156.1246 372.01233 854.36609 18
-151.06145 372.01233 854.36609 18
-145.99829 372.01233 854.36609 18
-141.01511 372.22345 854.85089 18
-135.94908 372.22345 854.85089 18
-131.05557 372.71408 855.97772 18
-125.98286 372.71408 855.97772 16
-120.33781 370.9498 851.92584 16
0 0 0 0
-190.7632 641.90216 1474.1969 16
-181.25516 639.18109 1467.9476 16
-173.81561 643.84772 1478.665 16
-169.94792 662.94318 1522.5198 16
-158.2065 651.74347 1496.7986 16
-150.53671 656.98309 1508.8319 16
0 0 0 0
0 0 0 0
-102.05521 541.97406 1244.7013 16
-71.301476 408.15399 937.36926 16
-67.087395 416.4787 956.48785 16
0 0 0 0
0 0 0 0
0 0 0 0
-76.497513 717.33228 1647.4302 18
-66.734497 717.33228 1647.4302 18
-57.741421 727.02673 1669.6946 18
0 0 0 0
-38.184238 731.48541 1679.9344 18
-28.320791 733.87476 1685.4218 18
-18.463842 739.12756 1697.4854 18
-8.4474297 742.93109 1706.2206 18
1.6678571 744.65417 1710.178 18
11.827352 746.20721 1713.7446 18
22.051668 748.52563 1719.0691 18
32.420322 752.72998 1728.7249 18
42.813404 755.34625 1734.7334 18
53.18771 756.68225 1737.8016 18
63.641006 758.52625 1742.0366 18
74.231522 761.26263 1748.321 19
84.919548 764.20636 1755.0815 19
95.905312 768.89459 1765.8486 19
106.98679 773.35229 1776.0862 19
117.92064 776.03986 1782.2584 19
128.88808 778.48846 1787.882 19
140.83951 786.05688 1805.2637 19
152.0824 788.88141 1811.7505 19
163.17256 790.59344 1815.6824 19
174.40083 792.72137 1820.5695 19
185.48651 793.99097 1823.4852 19
196.63641 795.38062 1826.6765 18
207.91519 797.11926 1830.6696 18
219.27251 798.97168 1834.9238 18
232.74376 807.98767 1855.6301 18
231.06252 765.96045 1759.11 18
241.96214 767.46631 1762.5685 18
245.55769 746.63885 1714.736 18
255.75847 746.75238 1714.9967 18
265.56168 745.74091 1712.6736 18
300.21323 812.01324 1864.8752 18
294.84323 769.17322 1766.4885 18
319.44162 804.77051 1848.2415 18
330.18597 804.26215 1847.0739 18
343.75439 810.4444 1861.2722 18
355.38199 811.80878 1864.4058 18
378.87473 839.37762 1927.7205 18
382.06128 821.66199 1887.0345 18
397.6879 830.94666 1908.3579 18
439.48788 892.89355 2050.6255 18
451.63846 892.88995 2050.6172 19
462.52039 890.44403 2044.9999 19
472.37012 886.18658 2035.2222 19
471.77338 863.03101 1982.043 19
478.92252 854.82617 1963.1996 19
487.67847 849.81036 1951.6803 19
495.94705 844.19739 1938.7896 18
514.02197 855.15283 1963.95 18
530.02313 862.24969 1980.2485 18
541.42627 861.72095 1979.0342 18
551.78564 859.5885 1974.137 18
561.66913 856.81879 1967.7759 18
572.06335 854.92499 1963.4266 18
583.3443 854.4054 1962.2333 18
596.45691 856.53644 1967.1274 18
611.6076 861.45648 1978.4269 19
628.99268 869.27936 1996.3929 18
643.99158 873.5766 2006.2621 18
658.84412 877.52301 2015.3254 18
674.13782 881.90607 2025.3916 18
689.87482 886.70557 2036.4141 18
702.00885 886.78876 2036.6051 19
710.67596 882.56354 2026.9015 19
715.92126 874.30017 2007.9237 19
714.53619 858.34216 1971.2744 19
720.81946 851.96082 1956.6191 19
730.55829 849.80139 1951.6597 19
742.12427 849.80139 1951.6597 19
742.15808 836.79871 1921.7976 18
751.61127 834.64899 1916.8606 18
764.83081 836.68353 1921.5331 18
780.22968 841.00745 1931.4635 18
795.13922 844.68652 1939.9128 18
807.73071 845.83344 1942.5469 18
817.70856 844.24945 1938.9092 18
917.07739 933.72302 2144.3948 18
911.77356 915.63477 2102.853 18
921.20898 912.63635 2095.967 18
898.1803 877.9837 2016.3833 18
908.32587 876.24341 2012.3867 18
919.36218 875.39642 2010.4415 18
934.35077 878.28625 2017.0782 18
960.64325 891.59442 2047.642 18
972.47675 891.3183 2047.0078 18
985.81104 892.40759 2049.5095 18
1028.5739 919.78638 2112.3877 18
1014.9445 896.68524 2059.3335 18
1010.639 882.27271 2026.2335 18
1016.9578 877.3645 2014.9613 18
1022.4704 871.88281 2002.3721 19
1030.7972 868.89905 1995.5195 18
1068.8937 890.79236 2045.7999 18
1077.7943 888.13641 2039.7001 18
1089.8818 888.13623 2039.6997 18
1095.2527 882.72272 2027.2671 18
1102.3396 878.79492 2018.2463 18
1113.3219 878.02338 2016.4745 65554
1120.1829 874.05249 2007.355 65554
1125.5249 868.99225 1995.7334 65554
1121.4626 856.85199 1967.8523 65550
1126.7047 851.99744 1956.7031 196622
1134.5375 849.18079 1950.2345 196619
1134.7833 840.79962 1930.9862 262152
1145.8641 840.53363 1930.3752 458755
1152.5245 837.06244 1922.4033 2035215
1164.7463 837.65875 1923.7729 4929333
1176.87 838.17358 1924.9553 5915197
1197.509 844.68518 1939.9098 7361869
1194.6757 834.67352 1916.917 8611933
1219.3025 843.85516 1938.0037 8743517
1231.339 844.2334 1938.8722 8019794
1235.8427 839.48755 1927.9728 9598569
1252.4636 842.98431 1936.0035 8019537
1251.9172 834.9679 1917.593 7822414
1276.6376 843.79572 1937.8669 7296326
1290.9763 845.66565 1942.1614 9401188
1308.2877 849.4325 1950.8125 9861738
1307.5957 841.54675 1932.7019 9533029
1324.6615 845.12726 1940.925 9664358
1339.3029 847.11273 1945.4849 8019790
1344.6503 843.23596 1936.5815 8217168
1356.1268 843.23596 1936.5815 8282962
1374.2466 847.33203 1945.9885 8808536
1386.9038 848.01984 1947.5681 9598052
1391.8444 844.01685 1938.3749 9532516
1400.2211 842.146 1934.0784 9466723
1412.7083 842.75781 1935.4833 9269344
1422.4253 841.72046 1933.101 9137760
1438.8745 844.65161 1939.8326 9598311
1445.9608 842.08362 1933.9349 9927276
1466.5317 847.34729 1946.0236 8414037
1471.3677 843.50818 1937.2067 8874845
1491.5261 848.44476 1948.5439 8809051
1501.1404 847.35339 1946.0377 8480087
1522.609 852.91931 1958.8203 8414293
1532.1086 851.74695 1956.1279 8480087
1549.2755 854.82275 1963.1918 9203810
1562.9823 855.95758 1965.7982 8348501
1568.4937 852.62085 1958.135 9138017
1584.6366 855.06995 1963.7595 8874845
1591.9744 852.7666 1958.4697 8940381
1605.2628 853.66113 1960.524 8743259
1633.147 862.2489 1980.2468 8480087
1628.8705 853.85559 1960.9705 8085329
1636.3953 851.72345 1956.0739 8085329
1648.8533 852.17096 1957.1017 8085329
1659.8734 851.87427 1956.4203 8282708
1672.8177 852.56244 1958.0007 8282708
1686.8221 853.77759 1960.7914 7953743
1705.3956 857.27295 1968.819 7822157
1706.3688 851.93353 1956.5564 7953486
1709.5151 847.7439 1946.9344 9137760
1728.5156 851.4198 1955.3765 9137761
1740.1049 851.42047 1955.3779 9072226
1750.5648 850.87207 1954.1187 9006433
1768.0535 853.72491 1960.6704 9071969
1769.8218 848.99921 1949.8174 8545882
1784.6021 850.53632 1953.3477 8874847
1791.5964 848.36694 1948.3654 8743004
1811.9275 852.49994 1957.8573 9006433
1829.3916 855.24023 1964.1506 8085330
1826.1632 848.33319 1948.2877 8348246
1837.9774 848.45703 1948.5723 8611418
1843.8403 845.84924 1942.5831 8282453
1851.9318 844.28961 1939.0015 7954258
0 0 0 0
0 0 0 0
0 0 0 0
0 0 0 0
0 0 0 0
0 0 0 0
0 0 0 0
0 0 0 0
0 0 0 0
0 0 0 0
0 0 0 0
0 0 0 0
0 0 0 0
0 0 0 0
0 0 0 0
0 0 0 0
0 0 0 0
0 0 0 0
0 0 0 0
0 0 0 0
0 0 0 0
0 0 0 0
0 0 0 0
0 0 0 0
0 0 0 0
0 0 0 0
0 0 0 0
0 0 0 0
0 0 0 0
-537.86444 310.91705 704.46637 19
-532.70001 310.34055 703.16003 19
-528.53448 310.3414 703.16205 19
-523.40363 309.77103 701.86969 19
-519.77936 310.0903 702.59308 19
0 0 0 0
-514.09296 311.69156 706.22113 19
-507.37137 310.14111 702.70825 19
-505.3251 311.44659 705.66614 19
-500.99591 311.3551 705.4588 19
-496.68652 311.27444 705.27606 19
-492.08899 311.01031 704.67761 19
-487.31659 310.63019 703.81635 18
0 0 0 0
-481.84207 312.48981 708.02979 18
-477.3801 312.31573 707.63544 18
-472.91241 312.13483 707.22552 18
-468.4924 311.98245 706.88025 18
0 0 0 0
0 0 0 0
0 0 0 0
0 0 0 0
0 0 0 0
0 0 0 0
-436.6922 310.22327 702.89435 18
-432.77078 310.39835 703.29108 18
-428.44513 310.28406 703.0321 18
-424.70963 310.59912 703.74591 16
-420.61594 310.65588 703.87457 16
-416.46481 310.67093 703.90869 16
-413.53027 311.60303 706.02057 14
-407.85995 310.47162 703.45709 14
-404.7572 311.29153 705.31482 14
-399.50049 310.45468 703.4187 14
0 0 0 0
0 0 0 0
0 0 0 0
-383.56842 311.05673 704.78278 14
-379.75458 311.35422 705.45685 16
-374.66818 310.60339 703.75562 18
0 0 0 0
-366.87573 311.06863 704.80981 19
0 0 0 0
-358.69794 311.22131 705.1557 23
-354.44717 311.15817 705.0127 26
-350.16602 311.06662 704.80518 30
-346.87442 311.86252 706.60852 1321
-343.39395 312.50595 708.06635 2605
-339.21088 312.51801 708.09369 1317
-335.44406 312.91864 709.00146 18
-332.07458 313.70483 710.78278 15
-328.47513 314.29117 712.11127 11
-324.75198 314.77289 713.20276 8
-320.75699 315.00031 713.71802 6
-316.35822 314.83203 713.33673 5
-312.78375 315.49057 714.82886 5
-309.79956 316.77078 717.72949 5
-305.27487 316.48953 717.09229 5
-301.29486 316.77304 717.73462 7
-296.87668 316.59735 717.33661 7
-292.77142 316.75513 717.69403 7
-288.59973 316.84464 717.89685 7
-284.82172 317.37546 719.09955 7
-280.89874 317.75848 719.96741 7
-279.54391 321.10324 727.54584 7
-272.49445 317.90903 720.30853 6
-271.51294 321.80515 729.13623 6
-267.54034 322.22473 730.08691 5
-263.51392 322.59229 730.91968 9
-259.46933 322.94949 731.72906 11
-254.76689 322.48615 730.6792 14
-250.82112 322.98111 731.80072 18
-247.26085 323.99866 734.10626 23
-243.46407 324.73718 735.77954 27
-239.96585 325.90811 738.43262 32
-238.69032 330.19739 748.15112 2349
-234.66878 330.77832 749.46741 3382
-230.79732 331.59735 751.32312 3384
-226.81549 332.2869 752.88544 2617
-223.01442 333.27423 755.12256 2617
-219.03935 334.03662 756.84998 2613
-214.98615 334.70929 758.37402 1325
-210.83661 335.25751 759.61615 553
-207.05052 336.42017 762.25049 36
-203.41875 337.89102 765.58313 33
-199.4214 338.80786 767.66046 31
-197.14812 342.76501 776.62646 29
-191.3784 340.68707 771.91833 27
-186.95702 340.9664 772.55127 28
-193.717 362.16394 820.57996 27
-189.92337 364.21454 825.22614 26
-190.37675 374.73325 849.05908 25
0 0 0 0
-187.76131 390.21188 884.13007 20
-162.97122 348.41489 789.4278 21
-195.95097 431.30322 977.23364 18
-157.17184 356.48315 807.70862 18
-152.72499 357.27808 809.5097 18
-148.75145 359.2677 814.0177 18
-138.56633 345.88553 783.69678 18
-134.98122 348.62128 789.89539 18
-131.47025 351.75192 796.98877 18
-126.74712 351.75192 796.98877 18
-124.2347 358.1246 811.42773 18
-120.58408 361.59738 819.2962 16
-118.62814 370.65656 839.82227 16
0 0 0 0
0 0 0 0
-178.81725 639.16638 1448.2035 16
-174.39005 654.7674 1483.5519 16
-170.01575 672.23413 1523.1274 16
-163.26776 681.74792 1544.6835 16
-150.40541 665.34387 1507.5157 16
0 0 0 0
0 0 0 0
-74.896851 403.16034 913.46832 16
-71.028587 412.12567 933.78168 16
-66.223763 416.71265 944.17474 16
0 0 0 0
-94.42836 715.0163 1620.062 15
0 0 0 0
-75.598709 718.55231 1628.0737 18
-65.796364 716.87408 1624.2712 18
-56.918617 726.42065 1645.9017 18
0 0 0 0
-38.038612 738.6134 1673.5276 18
-28.180399 740.17535 1677.0667 18
-18.305685 742.76978 1682.9451 18
-8.3755264 746.63275 1691.6975 18
1.6600651 751.26288 1702.1885 18
11.784252 753.60699 1707.4996 18
21.955025 755.388 1711.535 18
32.196236 757.70117 1716.7761 18
42.578053 761.41791 1725.1974 18
52.95343 763.60242 1730.1469 18
63.284885 764.54755 1732.2885 18
73.867508 767.83978 1739.7478 19
84.518463 770.94879 1746.7921 19
95.286507 774.33081 1754.455 19
106.30972 778.91699 1764.8463 19
117.31947 782.59186 1773.1725 19
128.32925 785.6626 1780.1302 19
139.99803 791.995 1794.4779 19
151.35399 795.78851 1803.0731 19
162.48624 797.98297 1808.0453 18
173.7326 800.43188 1813.5939 18
184.89973 802.2514 1817.7167 18
196.04417 803.77777 1821.1749 18
207.16803 805.0647 1824.0908 18
218.38264 806.55927 1827.4773 19
229.72662 808.36774 1831.5748 19
241.19913 810.44495 1836.2814 19
252.47015 811.69507 1839.1138 18
251.19484 774.17432 1754.1003 18
266.67923 789.23578 1788.2262 18
265.47919 755.65576 1712.1416 18
292.68356 802.42157 1818.1022 18
305.1123 806.7959 1828.0134 19
306.31656 782.20758 1772.3019 19
319.21893 788.13135 1785.7239 18
331.9548 793.27704 1797.3828 18
338.04706 782.72015 1773.4633 18
374.10349 840.0874 1903.4442 18
378.73425 825.59241 1870.6019 18
396.11249 838.91956 1900.7982 18
429.42618 884.32581 2003.6783 18
441.17575 884.07599 2003.1123 18
452.19235 882.40887 1999.3351 18
456.74176 868.52924 1967.8868 19
463.77396 859.94427 1948.4354 18
472.56921 854.96619 1937.1561 18
480.10226 847.99475 1921.3604 18
490.35071 846.03137 1916.9119 18
510.01566 860.03589 1948.6429 18
521.79944 860.4245 1949.5234 18
532.98096 859.82477 1948.1646 18
543.95563 858.92389 1946.1234 19
554.11548 856.80042 1941.3121 19
564.01166 854.36389 1935.7916 19
574.95599 853.58063 1934.0168 20
587.92816 855.77972 1938.9995 19
602.65503 860.39966 1949.4672 19
617.34271 864.79089 1959.4166 19
632.14594 869.17871 1969.3585 19
648.2467 875.15936 1982.9093 19
664.56512 881.21558 1996.6313 19
678.039 883.354 2001.4764 19
689.90527 883.36053 2001.4912 19
699.64807 880.69391 1995.4492 19
701.98163 868.94434 1968.8275 19
707.11273 860.98547 1950.7944 19
711.93042 852.90698 1932.4906 19
724.27911 853.96381 1934.885 19
726.89966 843.69647 1911.6216 19
736.26202 841.44922 1906.5299 18
747.27472 841.12756 1905.8009 18
760.95117 843.76904 1911.7861 18
775.73224 847.53998 1920.3301 18
790.66583 851.36609 1928.9993 18
802.85028 852.1651 1930.8096 18
807.44727 845.00134 1914.5781 18
897.22205 925.94025 2097.967 18
904.18945 920.37683 2085.3616 18
872.33081 875.97516 1984.7577 18
886.39862 878.2597 1989.934 18
900.90314 880.91125 1995.9417 18
913.23206 881.39429 1997.0363 18
928.44214 884.61023 2004.3226 18
952.28082 895.86224 2029.8171 18
964.33936 895.88953 2029.8792 18
1002.9094 920.24249 2085.0571 18
988.37439 895.86786 2029.83 18
1003.7137 898.83209 2036.5461 18
1001.4819 886.1778 2007.8744 18
1008.3127 881.74561 1997.8323 18
1039.4675 898.44043 2035.6587 18
1057.017 903.12738 2046.2784 18
1067.3975 901.6524 2042.9364 18
1074.3704 897.36426 2033.2203 18
1083.8324 895.22711 2028.3782 18
1095.6733 895.08032 2028.0457 18
1100.6213 889.36688 2015.1003 18
1110.8282 887.97998 2011.9579 18
1116.3369 882.90668 2000.4629 18
1121.1544 877.39923 1987.9841 18
1124.2366 870.66211 1972.7195 65551
1126.007 863.05841 1955.4913 65552
1132.5891 859.26019 1946.8853 65552
1139.5667 855.83539 1939.1256 196622
1145.0514 851.36914 1929.0061 262154
1154.3328 849.78613 1925.4193 393220
1159.2556 845.05701 1914.7041 1706253
1168.2495 843.35822 1910.8552 3744286
1180.0221 843.67889 1911.5817 4204061
1194.6747 846.03284 1916.9154 5058339
1205.5516 845.69403 1916.1477 5913902
1215.9253 845.0116 1914.6014 8150864
1221.4803 841.02417 1905.5669 7098434
1227.6886 837.55542 1897.7074 6966849
1239.6946 838.06903 1898.8711 8875101
1256.578 841.84106 1907.4177 9269859
1275.1656 846.67743 1918.3757 9006689
1287.9954 847.63885 1920.5542 9269858
1296.5344 845.78461 1916.3528 10190959
1317.973 852.30426 1931.125 9072222
1321.5909 847.28674 1919.7563 7558982
1336.1316 849.29773 1924.3129 8216915
1346.4565 848.61774 1922.7721 8151123
1353.9135 846.15674 1917.196 7690571
1356.3917 840.65094 1904.7212 8347985
1370.5822 842.43518 1908.7638 8084813
1381.0466 841.91858 1907.5934 8677207
1396.8102 844.61462 1913.702 9532259
1408.2848 844.69482 1913.8837 9466979
1421.8959 846.04492 1916.9426 9269090
1436.7645 848.11591 1921.6351 9269346
1450.9384 849.74738 1925.3317 9071710
1467.7301 852.87476 1932.4175 9006174
1477.9028 852.13721 1930.7463 8677209
1495.3765 855.58826 1938.5656 9072224
1506.3114 855.27405 1937.8536 8940638
1522.1051 857.70239 1943.3558 8677466
1536.618 859.37805 1947.1525 8348501
1538.7953 854.18134 1935.3778 8809052
1551.3842 854.79803 1936.7751 8743514
1569.6583 858.51532 1945.1976 8611927
1582.3237 859.13312 1946.5974 8809050
1590.728 857.44507 1942.7727 8414547
1598.2147 855.29016 1937.8903 8808796
1612.3217 856.68365 1941.0476 8348501
1624.4178 856.99652 1941.7565 8545879
1630.5229 854.16656 1935.3445 8085329
1650.3522 858.51544 1945.198 7756364
1659.8633 857.47369 1942.8376 8151122
1670.6584 857.10504 1942.0024 9006431
1688.7146 860.44116 1949.5613 8085072
1700.1307 860.37164 1949.4037 7492936
1707.1433 858.08966 1944.2332 7822158
1709.0938 853.31079 1933.4055 8085331
1721.2955 853.67981 1934.2415 8545882
1728.7775 851.71863 1929.7979 9006433
1735.6586 849.48907 1924.7463 9401191
1747.1191 849.51538 1924.8059 8743261
1769.464 854.79938 1936.7782 8677467
1782.8138 855.69788 1938.8141 8743261
1791.1437 854.19086 1935.3995 8809053
1818.6232 861.7774 1952.5889 8019538
1813.9376 854.1225 1935.2446 8348503
1814.9208 849.21625 1924.1282 8875103
1831.0637 851.42035 1929.1222 8020307
1830.1375 845.70941 1916.1825 7822672
0 0 0 0
0 0 0 0
0 0 0 0
0 0 0 0
0 0 0 0
0 0 0 0
0 0 0 0
0 0 0 0
0 0 0 0
0 0 0 0
0 0 0 0
0 0 0 0
0 0 0 0
0 0 0 0
0 0 0 0
0 0 0 0
0 0 0 0
0 0 0 0
0 0 0 0
0 0 0 0
0 0 0 0
0 0 0 0
0 0 0 0
0 0 0 0
0 0 0 0
0 0 0 0
0 0 0 0
0 0 0 0
0 0 0 0
-537.88483 315.10382 704.49304 19
-533.19781 314.80151 703.81714 19
0 0 0 0
-524.74658 314.73596 703.67059 19
-521.16406 315.09119 704.46484 19
-517.61957 315.47534 705.32367 19
-513.46997 315.49399 705.36536 19
-509.32562 315.51614 705.41492 19
-503.34766 314.3934 702.90472 19
-499.23419 314.42621 702.97809 19
-496.45911 315.30963 704.95319 19
-492.27628 315.30634 704.9458 19
-487.01251 314.60471 703.37714 18
0 0 0 0
0 0 0 0
0 0 0 0
0 0 0 0
0 0 0 0
0 0 0 0
0 0 0 0
0 0 0 0
-449.90247 314.88834 704.01123 18
-446.98856 315.77722 705.9986 18
-441.20709 314.63791 703.45142 18
-437.85425 315.22534 704.76477 18
-433.77274 315.29446 704.91931 18
-429.6142 315.30841 704.95044 18
-425.70865 315.5101 705.40137 16
-421.43442 315.43982 705.24426 16
-417.35126 315.5126 705.40698 13
-413.68033 315.90167 706.27679 14
-409.90231 316.21603 706.97968 14
-405.07101 315.716 705.86169 14
-400.75192 315.60886 705.62219 14
-395.91656 315.08862 704.45905 14
0 0 0 0
0 0 0 0
0 0 0 0
0 0 0 0
0 0 0 0
-371.22168 315.38919 705.13104 18
-366.66309 315.06284 704.40137 19
0 0 0 0
0 0 0 0
0 0 0 0
-350.79599 315.81058 706.07318 28
-346.40356 315.621 705.64929 1320
-343.69608 316.98077 708.68939 2348
-339.79474 317.25946 709.3125 802
-336.39285 318.0173 711.0069 18
-332.10764 317.94873 710.85352 12
-326.63086 316.72296 708.11304 8
-322.55054 316.83704 708.36804 6
-318.72778 317.21042 709.20288 5
-315.25342 317.94513 710.84552 5
-311.8577 318.78018 712.71246 5
-307.20828 318.33902 711.72614 5
-303.34027 318.7066 712.54797 5
-299.65753 319.28192 713.83423 6
-295.32892 319.17572 713.59674 6
-294.23862 322.61703 721.29071 7
-290.68759 323.422 723.09039 7
-286.31723 323.32584 722.87543 8
-282.81161 324.21805 724.87018 10
-278.62198 324.34158 725.14636 12
-274.66266 324.74127 726.03998 16
-270.67697 325.12198 726.89117 22
-266.73273 325.56564 727.88306 27
-262.53088 325.70428 728.19299 30
-258.6283 326.22504 729.3573 806
-258.4252 331.50919 741.17133 1582
-254.59322 332.24045 742.80627 2612
-250.89011 333.16855 744.88129 2359
-246.55792 333.27963 745.12958 2872
-243.11627 334.62042 748.12726 2612
-238.42244 334.25552 747.31146 3635
-234.60315 335.1261 749.25787 1320
-230.87906 336.16888 751.58923 287
-226.70331 336.58209 752.51306 30
-222.5937 337.11209 753.698 30
-218.55252 337.76953 755.16785 28
-214.51189 338.45532 756.70111 28
-210.34158 338.9614 757.83264 27
-206.2803 339.66913 759.41492 27
-203.45326 342.48615 765.71301 27
-199.35156 343.23691 767.3916 26
-200.51183 353.29419 789.87714 26
-198.85855 358.75641 802.08929 25
-195.92116 362.11282 809.59332 25
-194.43045 368.37863 823.60211 22
-190.13428 369.51489 826.14252 22
-190.43642 379.88397 849.3252 19
0 0 0 0
-162.94521 343.18524 767.27606 19
0 0 0 0
-153.98552 343.48505 767.94629 18
-149.52693 343.69751 768.42133 18
-145.17851 344.18445 769.51001 18
-140.76984 344.55551 770.33966 18
-136.50551 345.31665 772.04132 18
-133.96011 350.6297 783.91998 18
-135.05045 366.18262 818.69238 18
-134.28651 377.67957 844.39667 18
-121.9967 356.39536 796.81055 18
-119.3726 362.77103 811.06494 17
0 0 0 0
-187.20131 618.72729 1383.319 16
