# .PCD v0.7 - Point Cloud Data file format
VERSION 0.7
FIELDS x y z rgb
SIZE 4 4 4 4
TYPE F F F U
COUNT 1 1 1 1
WIDTH 1532
HEIGHT 1
VIEWPOINT 0 0 0 1 0 0 0
POINTS 1532
DATA ascii
1305.4065 733.14075 3487.3455 8941928
1331.1281 735.93536 3500.6387 9007976
1361.6313 741.24731 3525.9062 8548197
1374.2704 736.82068 3504.8499 9337200
1394.2257 736.3902 3502.8022 9864057
1439.2281 749.00732 3562.8184 10390658
1414.0146 725.24597 3449.7925 9667191
1466.3613 741.37555 3526.5161 10193281
1482.1949 738.85065 3514.5059 9732474
1517.0455 745.74396 3547.2954 9864060
1531.5015 742.56024 3532.1516 9863804
1565.2687 748.69946 3561.3542 9732217
1579.6788 745.53961 3546.3235 9337203
1601.9045 746.10291 3549.0029 9205872
1614.5693 742.25629 3530.7056 8744550
1636.5565 742.73895 3533.0017 8086620
1693.7366 758.97961 3610.2539 8415583
1703.1963 753.698 3585.1306 9073255
1744.8628 762.62305 3627.5845 8809827
1753.3606 757.01025 3600.8862 8217945
1778.064 758.44507 3607.7112 8546654
1791.7787 755.21423 3592.343 8940897
1833.047 763.53644 3631.9292 8940642
1851.9635 762.46307 3626.8237 9072484
1850.6136 753.16632 3582.6016 8875105
1852.1744 745.25159 3544.9534 8019796
1871.6824 744.65479 3542.1145 8085075
1863.7611 733.27936 3488.0049 7032382
1830.4819 712.28607 3388.1458 4794387
1844.6124 709.99652 3377.2551 4728849
1846.7494 703.18939 3344.8752 4926493
1863.7275 702.11786 3339.7783 11440244
1878.194 700.13263 3330.335 11440759
1900.834 701.20374 3335.4302 11375738
1916.2991 699.63324 3327.96 11573374
1929.9551 697.4411 3317.5325 12099720
1948.3846 697.00085 3315.438 12888982
1963.932 695.54852 3308.53 12888729
1972.3821 691.63623 3289.9202 12888731
1994.7811 692.64392 3294.7136 12691612
2026.0073 696.66754 3313.8525 12559770
2043.1443 695.81555 3309.8 7689292
2076.4988 700.45032 3331.8464 8149584
2169.3369 724.87402 3448.0232 9860459
2248.6819 744.37524 3540.7849 7032130
2304.9426 755.94501 3595.8191 6178876
2368.396 769.64014 3660.9629 9797745
2433.9175 783.75262 3728.092 7758675
2421.989 772.89575 3676.449 7429452
2440.8569 771.97229 3672.0564 6310712
2429.6479 761.6369 3622.8938 5060646
2462.6716 765.22693 3639.9707 5784629
2467.4331 760.04907 3615.3408 6245946
2520.7395 769.78485 3661.6514 7496015
2559.804 775.04248 3686.6604 9009501
2605.209 782.11456 3720.3005 9008987
2619.0564 779.67352 3708.6892 9599330
2630.3552 776.52075 3693.6921 7163973
2607.7324 763.48853 3631.7014 7492678
2660.698 772.61914 3675.1331 9597285
2680.3125 771.99548 3672.1667 8939613
2669.2742 762.62427 3627.5903 8874078
2689.1433 762.16266 3625.3945 9466728
2745.865 772.07037 3672.5229 10190451
2763.5586 770.93481 3667.1213 8809056
2824.0696 781.66833 3718.1777 9269607
2860.5281 785.62976 3737.0212 9400936
2879.8921 784.87146 3733.4143 8940128
2916.4949 788.78711 3752.0398 8809055
2916.9724 782.94702 3724.2603 8809055
2965.7661 790.06598 3758.1228 8742749
3021.8086 798.9953 3800.5972 8150612
3028.5669 794.85779 3780.9163 9072226
3046.4312 793.67438 3775.2871 9137763
3067.4521 793.32465 3773.6238 8611676
3184.2 817.55835 3888.8965 8414297
3201.2864 816.03912 3881.6697 8611163
3235.2095 818.80267 3894.8154 8742751
3261.0178 819.48798 3898.075 5913658
3256.2778 812.54077 3865.0295 2361871
3147.4275 779.89343 3709.7351 851969
3199.5623 787.3125 3745.0254 983040
3151.0435 770.03217 3662.8279 2362894
3136.3083 761.18762 3620.7568 1901826
3146.2036 758.40063 3607.4998 1967360
3174.1965 759.98419 3615.0325 2230790
3155.2151 750.37506 3569.3245 5125680
3193.3967 754.39789 3588.46 1114112
3172.3 744.45654 3541.1716 3349008
3177.4529 740.76538 3523.614 1705473
3216.687 745.01605 3543.833 3218702
3192.5081 734.61969 3494.3804 917504
3190.927 729.52368 3470.1401 720896
3184.905 723.48431 3441.4126 11443073
3215.073 725.69025 3451.9058 9469024
3221.0354 722.43939 3436.4421 13483956
3236.0442 721.24561 3430.7637 13816256
3228.2842 715.02374 3401.168 13684417
3246.4895 714.5943 3399.1252 13816001
0 0 0 0
0 0 0 0
0 0 0 0
0 0 0 0
0 0 0 0
0 0 0 0
0 0 0 0
0 0 0 0
0 0 0 0
0 0 0 0
0 0 0 0
0 0 0 0
0 0 0 0
0 0 0 0
0 0 0 0
0 0 0 0
0 0 0 0
0 0 0 0
0 0 0 0
0 0 0 0
0 0 0 0
0 0 0 0
0 0 0 0
0 0 0 0
0 0 0 0
0 0 0 0
0 0 0 0
0 0 0 0
-571.13275 160.44716 742.27795 21
-566.11365 160.27158 741.46564 21
-561.67914 160.26003 741.41223 21
-559.81873 160.98857 744.78265 21
-557.33704 161.54858 747.37347 24
-549.63654 160.59274 742.95148 26
-537.50262 158.31564 732.41693 36
-533.49695 158.41507 732.87689 302
0 0 0 0
0 0 0 0
-512.50885 155.99272 721.67035 534388
-499.62659 153.35141 709.45087 467305
-503.4928 155.84955 721.008 6485
-501.96957 156.70795 724.97919 2879
-498.11456 156.84694 725.62219 810
-496.27859 157.62962 729.24316 290
-492.50592 157.80551 730.05688 288
-493.6676 159.57956 738.26422 543
-489.44373 159.62889 738.49243 543
-484.85016 159.55746 738.16193 286
-483.04324 160.41011 742.10657 540
-476.74738 159.77402 739.16382 538
-474.38721 160.45737 742.3252 25
-469.9346 160.43912 742.24078 279
-472.577 162.86571 753.46692 23
-465.63919 162.00545 749.48706 24
-466.31659 163.80362 757.80597 26
-458.64505 162.67549 752.58691 32
-457.29828 163.79056 757.74554 294
-452.13608 163.54761 756.62158 2099
-449.17612 164.10439 759.19739 3390
-445.45609 164.39189 760.52753 5453
-444.92593 165.87454 767.38672 137559
-437.92966 164.95224 763.11987 71773
-434.30618 165.29437 764.7027 6243
-430.79617 165.68736 766.52075 270702
-426.46411 165.76918 766.89929 534390
-422.05283 165.82164 767.14197 533622
-419.54108 166.62968 770.88025 401008
-413.53867 166.05388 768.21631 202344
-409.05121 166.08034 768.33875 69726
-404.46109 166.06523 768.26892 3930
-399.51843 165.9034 767.5202 3671
-395.00552 165.91833 767.58929 3671
-390.72537 166.03255 768.11768 2900
-386.85474 166.3255 769.47296 1616
-382.65604 166.48271 770.20026 1871
-379.66885 167.17719 773.41315 1613
-375.65167 167.42957 774.58069 1869
-370.46173 167.15901 773.32904 1867
-365.806 167.12575 773.17511 2381
-361.28177 167.15247 773.29877 3151
-356.741 167.17212 773.38971 3666
-352.26306 167.22214 773.62109 137044
-347.9559 167.35559 774.23846 333386
-343.24426 167.29549 773.96039 67118
-341.78271 168.83926 781.10242 26
-368.07367 184.32329 852.73627 20
-357.79498 181.67021 840.46234 21
-353.95551 182.25787 843.18103 21
-348.95862 182.25787 843.18103 21
-342.21466 181.33211 838.89819 21
-337.7038 181.5798 840.04407 21
-334.76489 182.69276 845.19293 21
-336.34402 186.34261 862.07831 21
0 0 0 0
-329.03107 188.00235 869.75677 23
-363.2627 210.86494 975.52612 24
-357.48151 210.86494 975.52612 27
-360.15933 215.9366 998.9892 28
-300.92587 183.43797 848.64056 28
0 0 0 0
0 0 0 0
-286.08163 183.59421 849.36334 28
-281.64047 183.98116 851.15344 28
-276.88504 184.17319 852.04187 26
-272.87595 184.87801 855.30255 25
-268.45886 185.32785 857.38367 23
-263.94415 185.72635 859.22729 23
-260.1369 186.64812 863.4917 22
-257.57761 188.52026 872.15277 21
-254.98581 190.44482 881.0564 22
-249.15326 189.97878 878.90027 23
-244.96754 190.77533 882.58539 23
-241.1244 191.87926 887.6925 23
-237.29414 193.04291 893.07587 23
0 0 0 0
-324.18439 276.04324 1277.061 23
0 0 0 0
0 0 0 0
0 0 0 0
0 0 0 0
-222.80257 214.78783 993.67456 23
-218.4776 216.33626 1000.8381 23
0 0 0 0
0 0 0 0
-208.58197 224.85016 1040.2261 22
-202.41736 224.85016 1040.2261 23
-209.20625 239.69121 1108.8853 23
-204.51924 241.92029 1119.1978 23
-205.79379 251.58694 1163.9187 23
-332.88254 421.06848 1947.9924 23
-322.53745 422.63974 1955.2616 23
-319.28625 433.97006 2007.6792 23
0 0 0 0
-249.20801 365.99777 1693.2184 23
-249.80653 382.26886 1768.4934 23
-187.24844 299.08673 1383.6672 23
-279.08371 466.18774 2156.728 23
0 0 0 0
0 0 0 0
-248.62939 481.46539 2227.407 23
0 0 0 0
0 0 0 0
-215.35544 496.03702 2294.8198 23
0 0 0 0
0 0 0 0
0 0 0 0
-107.06038 329.93835 1526.3964 23
0 0 0 0
0 0 0 0
0 0 0 0
0 0 0 0
0 0 0 0
0 0 0 0
-76.200127 574.789 2659.1509 23
-62.259438 592.07794 2739.1348 23
-45.193558 581.36011 2689.5508 23
-28.869455 573.70416 2654.1321 23
-13.272414 579.46344 2680.7761 21
2.883184 639.02869 2956.3433 21
20.58975 644.87439 2983.3875 21
38.485634 648.50897 3000.2021 21
56.446896 650.60004 3009.8762 21
74.319023 650.90619 3011.2925 21
91.648521 647.2616 2994.4314 21
109.77224 649.4986 3004.7805 21
128.24327 652.87927 3020.4207 21
145.5928 650.42169 3009.051 21
161.91075 644.39478 2981.1685 21
180.96935 649.38812 3004.2695 21
196.41858 641.69537 2968.6804 21
213.78261 641.00879 2965.5039 21
231.92883 642.59363 2972.8359 21
249.02034 641.23871 2966.5676 21
270.68082 651.05206 3011.9673 21
290.5083 655.51508 3032.6145 21
307.10986 652.60309 3019.1428 19
325.51071 653.62469 3023.8691 19
347.60223 661.5639 3060.5981 18
370.26724 669.75293 3098.4832 65553
397.08966 684.33295 3165.9348 196621
420.97089 692.75708 3204.9077 458761
441.49216 695.16364 3216.0408 2299679
450.01715 679.26349 3142.4819 7825768
472.34335 684.63098 3167.3137 9733504
497.51645 693.55688 3208.6077 10324868
517.13739 694.37067 3212.3723 10456453
541.69501 701.51984 3245.4468 10588807
556.32788 695.76648 3218.8301 10720394
575.85107 696.30786 3221.3345 10588551
604.27997 707.23755 3271.8987 9997183
616.55219 699.16602 3234.5574 11181200
636.21136 699.70551 3237.053 10128768
661.30005 706.00995 3266.2195 8944241
676.04169 701.22345 3244.0754 9602169
696.87622 702.84668 3251.585 9141620
722.16107 708.75024 3278.8967 10457737
738.38202 705.68188 3264.7017 11378839
766.57635 713.92126 3302.8196 10457990
792.38904 719.58746 3329.0332 9470065
809.86957 717.59546 3319.8176 8942178
831.1676 719.00049 3326.3174 9006690
834.28949 704.98132 3261.4607 8677981
867.86334 716.74658 3315.8901 8941410
886.94763 716.28912 3313.7739 9402218
904.19672 714.40149 3305.0413 9073509
929.78589 719.04376 3326.5178 8941926
951.99261 720.9317 3335.252 9665905
971.1908 720.51093 3333.3052 9797748
991.43323 720.86609 3334.9485 10257786
1022.1392 728.66669 3371.0366 9929078
1045.7056 731.17609 3382.6458 9073256
1071.0348 734.8006 3399.4138 9862772
1099.9109 740.67969 3426.6123 8744291
1113.506 736.24194 3406.0818 9204842
1136.8214 738.27478 3415.4863 9336426
1159.011 739.51819 3421.2388 9204841
1174.9916 736.8252 3408.7803 8875876
1201.1847 740.51917 3425.8696 8349533
1204.8513 730.4339 3379.2119 8546912
1243.7283 741.67529 3431.2183 9204842
1263.1089 741.11578 3428.6299 8810340
1285 742.02374 3432.8303 8744804
1314.6058 747.28882 3457.1882 8744804
1334.7401 747.09082 3456.2722 8942953
1357.5288 748.36206 3462.1533 9600373
1391.4858 755.66064 3495.9187 8285281
1415.6051 757.48083 3504.3396 10259071
1443.97 761.4873 3522.8748 9272435
1459.5558 758.73657 3510.1492 9140848
1475.5116 756.25281 3498.6584 10193793
1489.3556 752.77051 3482.5481 10193793
1522.0896 758.80054 3510.4448 10588037
1534.5565 754.7005 3491.4768 9864570
1558.345 756.20343 3498.4299 9731958
1584.2935 758.70135 3509.9861 9008490
1609.9268 760.98547 3520.5532 8942440
1628.1637 759.75989 3514.8831 8810597
1662.8108 766.12598 3544.3347 8679011
1682.5651 765.55719 3541.7031 8480862
1702.6062 765.13129 3539.7329 8810084
1727.4362 766.84155 3547.645 8941670
1748.4601 766.84155 3547.645 8547167
1771.4187 767.67981 3551.5232 8875106
1792.3477 767.62921 3551.2891 8743263
1783.2074 754.8512 3492.1741 8809313
1807.4977 756.35547 3499.1333 8743776
1826.7614 755.74615 3496.3145 9862000
1824.0516 746.1618 3451.9744 7559243
1826.6625 738.94244 3418.5752 3150854
1837.6952 735.25098 3401.4973 4597779
1832.8496 725.35565 3355.7188 4400398
1854.9103 726.20685 3359.6565 5058068
1901.6426 736.59637 3407.7217 5387291
1871.8245 717.42755 3319.0408 11045992
1886.8687 715.67328 3310.925 11177833
1911.2502 717.46027 3319.1919 11901814
1926.1342 715.68182 3310.9644 12033405
1931.2899 710.36108 3286.3489 12823179
1943.2644 707.62952 3273.7122 12823179
1952.1658 703.84406 3256.1995 12691340
1964.9497 701.5188 3245.4421 12361611
1995.3252 705.45825 3263.6672 8544592
2004.1498 701.77576 3246.6306 11636606
2036.5165 706.32843 3267.6929 10387054
2071.1953 711.58966 3292.033 11834500
2127.1096 723.98053 3349.3567 12098443
2166.0327 730.41248 3379.113 10190704
2301.3284 768.927 3557.293 5849653
2345.2722 776.49652 3592.312 5323054
2364.5955 775.85162 3589.3286 8152924
2394.0769 778.52142 3601.6799 9007978
2424.4287 781.42474 3615.1113 8810343
2427.3564 775.51538 3587.7729 8283999
2479.7935 785.38898 3633.4514 8679528
2505.9143 786.82965 3640.1162 7823960
2527.5962 786.86389 3640.2744 6244667
2536.3911 782.91962 3622.0271 5981493
2535.3582 776.03333 3590.1689 8546136
2514.804 763.3363 3531.4287 9203809
2550.5059 767.78375 3552.0039 9072222
2555.5334 763 3529.8728 8150863
2530.8542 749.4964 3467.4011 8545623
2528.01 742.62457 3435.6099 10980221
2540.0671 740.20502 3424.4163 10717307
2596.1228 750.54382 3472.2466 11178117
2605.7959 747.4162 3457.7773 12363163
2646.938 753.29309 3484.9658 13020581
2762.5779 780.11627 3609.0579 11177860
2769.6509 776.10492 3590.5005 8940898
2803.5889 779.62549 3606.7874 8348504
2837.6213 783.11877 3622.9485 8611678
2871.5715 786.53705 3638.7625 8874594
2916.1121 792.78345 3667.6604 9137766
2991.8379 807.35284 3735.063 8874848
3000.1748 803.65686 3717.9641 8480089
3039.3301 808.20984 3739.0276 8809055
3055.0037 806.49792 3731.1077 9072227
3067.4143 803.95538 3719.3452 8808544
3111.9861 809.81836 3746.469 8677470
3098.5034 800.5979 3703.8125 9006691
3213.8755 824.56683 3814.7002 9072228
3249.2419 827.81775 3829.7397 9664620
3098.4197 783.91669 3626.6399 8019538
3129.6694 786.36841 3637.9822 4072733
3124.6631 779.73907 3607.313 2624519
3164.53 784.32166 3628.5132 2362629
3174.3665 781.44946 3615.2258 2098944
3182.1829 778.12189 3599.8315 2954506
3191.5989 775.22723 3586.4397 1245184
3196.9116 771.3808 3568.6453 1310976
3179.8037 762.21063 3526.2209 1704960
3163.8418 753.43304 3485.6133 1967360
3172.1438 750.51007 3472.0906 1507328
3189.9521 749.85931 3469.0801 1572864
3214.3203 750.74915 3473.1968 1574913
3166.324 734.83344 3399.5657 9137235
3208.8359 739.99109 3423.4268 8411196
3214.7244 736.69135 3408.1609 8610641
3201.6956 729.12463 3373.155 12694943
3246.4895 734.73822 3399.1252 13750209
0 0 0 0
0 0 0 0
0 0 0 0
0 0 0 0
0 0 0 0
0 0 0 0
0 0 0 0
0 0 0 0
0 0 0 0
0 0 0 0
0 0 0 0
0 0 0 0
0 0 0 0
0 0 0 0
0 0 0 0
0 0 0 0
0 0 0 0
0 0 0 0
0 0 0 0
0 0 0 0
0 0 0 0
0 0 0 0
0 0 0 0
0 0 0 0
0 0 0 0
0 0 0 0
0 0 0 0
0 0 0 0
-563.46991 162.63432 732.31885 21
-559.16437 162.64432 732.36383 24
-553.26733 162.18793 730.30878 25
-548.98969 162.20279 730.37567 30
-546.84406 162.85281 733.30267 38
0 0 0 0
0 0 0 0
0 0 0 0
0 0 0 0
-506.9606 157.22247 707.95007 5979
-501.83896 156.93285 706.64594 5717
-499.979 157.66692 709.95129 2366
-499.55728 158.8708 715.37225 44
-495.8653 159.0464 716.16296 42
-494.65857 160.02904 720.58765 297
-490.81689 160.16895 721.21759 300
-487.03189 160.32996 721.94263 1331
-485.76364 161.32967 726.44415 1594
-482.76178 161.76634 728.41046 2883
-479.55325 162.14104 730.0976 4430
-476.66028 162.6302 732.30029 5977
-472.84344 162.81027 733.11108 270182
-469.75629 163.24724 735.07867 271213
-465.89926 163.42235 735.86719 469110
-462.84872 163.88632 737.95642 468599
-460.40051 164.57446 741.05499 402806
-457.49173 165.10962 743.46472 336500
-454.65839 165.68269 746.04523 204656
-451.68927 166.21706 748.45135 137321
-450.22971 167.32303 753.4314 3676
-446.74188 167.68982 755.08301 2900
-441.94989 167.56955 754.54144 1610
-437.45099 167.55907 754.49426 829
-433.33633 167.6971 755.11578 311
-429.35898 167.89166 755.99188 53
-426.65689 168.59428 759.1557 1340
-423.28177 169.04309 761.17657 3656
-419.3912 169.2935 762.30414 3404
-414.91473 169.31027 762.37964 3404
-410.37253 169.30031 762.33478 3665
-405.92682 169.33035 762.47009 4180
-401.71057 169.45789 763.04437 4178
-396.63687 169.22247 761.98431 4432
-392.13763 169.22957 762.0163 3913
-388.8652 169.77245 764.46075 2365
-384.96722 170.0518 765.71863 817
-381.25055 170.41882 767.37134 556
-377.27048 170.67558 768.52747 296
-373.14246 170.87086 769.4068 39
-369.10678 171.11378 770.50061 36
-364.69925 171.18825 770.83588 37
-360.58307 171.40308 771.80328 41
-355.79446 171.29968 771.33771 304
-351.92627 171.64252 772.88141 464456
-348.0123 171.97176 774.36395 464196
-344.46133 172.49158 776.70465 33
0 0 0 0
-366.59369 188.61534 849.30756 21
-361.68088 188.67813 849.59033 21
-356.5885 188.64769 849.45325 21
-351.53619 188.63789 849.40918 21
-346.51535 188.64494 849.44092 21
-340.86115 188.30231 847.89801 21
-336.08551 188.44202 848.52716 21
-336.24744 191.39651 861.83081 20
-332.88995 192.40794 866.38513 23
-321.08252 188.49055 848.74573 23
-315.72034 188.29234 847.85321 24
-310.69577 188.29234 847.85321 25
-305.99301 188.49055 848.74573 27
0 0 0 0
0 0 0 0
-291.0386 188.57812 849.14001 27
-286.18961 188.6989 849.6839 27
-514.88507 345.56927 1556.0485 25
-276.88504 189.22256 852.04187 25
-272.83609 189.91898 855.17767 23
-268.39645 190.36461 857.18433 23
-263.8544 190.7534 858.935 23
-259.98862 191.65607 862.99951 23
-256.11612 192.58986 867.20428 23
0 0 0 0
-248.26138 194.48862 875.75415 23
-243.18945 194.58299 876.17914 23
-238.30521 194.83498 877.31372 23
-234.11244 195.67613 881.10132 23
0 0 0 0
-326.94119 286.02316 1287.9209 23
-319.69586 286.36996 1289.4825 23
0 0 0 0
0 0 0 0
0 0 0 0
0 0 0 0
-213.27423 216.9738 977.00171 22
-209.09711 218.66037 984.59607 21
0 0 0 0
-205.55209 227.65904 1025.1157 21
-214.12318 244.37437 1100.3824 22
-218.39021 257.07339 1157.5643 23
-218.04207 264.98724 1193.1992 23
-347.46829 436.43295 1965.1946 23
-332.3631 431.93762 1944.9526 23
-322.0777 433.60809 1952.4745 23
-318.50482 444.77679 2002.7655 23
-317.0498 459.88202 2070.7822 23
-308.90878 466.11514 2098.8491 23
-299.60931 471.04996 2121.0698 23
-289.1803 474.56329 2136.8899 23
-278.03976 477.17734 2148.6606 23
0 0 0 0
0 0 0 0
-246.71764 490.86185 2210.28 23
-236.84 497.62949 2240.7537 23
-225.94424 502.93478 2264.6426 23
-214.00761 506.44696 2280.4575 23
0 0 0 0
-188.46477 510.4722 2298.5825 23
0 0 0 0
0 0 0 0
0 0 0 0
0 0 0 0
-127.52451 540.87946 2435.502 23
-114.32204 546.76624 2462.0093 23
0 0 0 0
0 0 0 0
-73.808937 572.01605 2575.7056 23
-58.256897 569.20349 2563.041 23
-43.82674 579.23444 2608.2087 23
-28.794888 587.91071 2647.2769 23
-12.799981 574.15869 2585.3535 21
2.7595718 628.40002 2829.5945 21
18.084232 581.92993 2620.3462 21
33.904633 586.97949 2643.0837 21
54.944836 650.64996 2929.7827 21
71.566338 643.98206 2899.7581 21
89.83474 651.84631 2935.1697 21
105.84162 643.41132 2897.1882 21
124.25828 649.93536 2926.5649 21
143.25667 657.53131 2960.7686 21
159.51064 652.24762 2936.9766 21
176.96254 652.41998 2937.7527 21
193.69684 650.15271 2927.5437 21
211.19348 650.60681 2929.5884 21
228.54878 650.58954 2929.5107 20
245.8672 650.47717 2929.0046 20
264.77982 654.31915 2946.3044 19
285.08249 660.90826 2975.9744 19
300.31964 655.67047 2952.3894 19
318.36664 656.80621 2957.5034 19
342.21829 669.17377 3013.1929 18
364.10095 676.65552 3046.8821 65554
386.06815 683.58002 3078.0618 65552
406.0061 686.44867 3090.979 196620
435.39795 704.36371 3171.6477 984852
450.26367 698.2688 3144.2034 3024171
470.22195 700.24207 3153.0886 7629159
491.01541 703.26068 3166.6812 8088932
511.75061 705.97662 3178.9106 11510166
530.32648 705.62659 3177.3345 11312788
553.04535 710.62415 3199.8376 11049616
570.85846 709.19574 3193.4058 11049616
591.31012 711.03168 3201.6729 10589322
617.58234 719.53497 3239.9619 9866111
644.74457 728.53113 3280.4702 9471353
648.6709 711.51367 3203.843 10062719
669.60193 713.58569 3213.1733 9337970
687.36761 712.26331 3207.2185 9535349
707.80414 713.70502 3213.7104 9667707
728.73334 715.55499 3222.0408 10918287
755.35815 722.76038 3254.4854 10720905
780.51746 728.23956 3279.1575 10983561
800.88153 729.08722 3282.9741 9600624
824.0683 732.40332 3297.9062 8217687
848.43622 736.59125 3316.7637 9139302
858.71735 728.6366 3280.9453 9270633
874.04163 725.21875 3265.5549 9007461
903.01471 733.02838 3300.7209 9797233
924.1524 734.28131 3306.3625 9139560
938.93933 730.54102 3289.5205 9073767
963.00677 734.02667 3305.2161 8678752
986.74597 737.12817 3319.1816 8613219
1014.233 742.85345 3344.9617 9402734
1029.2889 739.42883 3329.5413 9205355
1058.7089 746.258 3360.2917 9271148
1088.3619 752.99622 3390.6331 9204842
1107.7472 752.51501 3388.4663 9402221
1128.9624 753.27197 3391.8748 9731185
1154.6479 756.93292 3408.3594 9665392
1159.8319 747.25922 3364.8003 9007463
1189.2639 753.27112 3391.8708 8810084
1201.308 748.25269 3369.2737 8875877
1223.0817 749.35962 3374.2581 9270635
1232.1226 742.75525 3344.5193 8678498
1269.3579 753.08728 3391.0432 8679012
1302.3966 760.64618 3425.0798 9402480
1326.1339 762.62427 3433.9866 9270637
1345.2473 761.92358 3430.8315 9336687
1368.4976 763.55182 3438.1636 9008492
1403.9531 771.84253 3475.4951 9797751
1433.8018 776.85535 3498.0674 9535349
1446.955 772.80853 3479.845 9338227
1460.7656 769.22162 3463.6936 10851466
1477.8175 767.41718 3455.5686 10193793
1499.988 768.28387 3459.4712 9535606
1513.4666 764.73523 3443.4922 9469813
1542.6401 769.10602 3463.1731 9205872
1565.9678 770.48572 3469.3857 8942440
1587.8143 771.11041 3472.1985 8942183
1613.3033 773.46539 3482.8027 8876390
1627.2997 770.32043 3468.6416 8481375
1649.6685 771.16797 3472.4578 8810084
1672.6611 772.28253 3477.4766 8875877
1694.4877 772.8382 3479.9788 8941670
1709.5327 770.32465 3468.6606 8480862
1731.4409 770.92676 3471.3718 9006693
1755.3011 772.3736 3477.8867 8611932
1752.3888 762.14307 3431.8201 8415328
1800.6234 774.13666 3485.8254 589824
1816.4146 772.06818 3476.5112 1311488
1813.4861 762.17841 3431.9792 4204572
1820.2721 756.54565 3406.6157 4467226
1824.0023 749.78033 3376.1523 5190687
1836.6877 746.80304 3362.7461 4992794
1857.3652 747.10431 3364.1028 4531728
1875.1738 746.25763 3360.29 6374703
1881.764 741.01093 3336.665 7822399
1858.1566 724.10571 3260.5432 11440240
1895.5684 731.08228 3291.9578 11307881
1903.1403 726.52533 3271.4385 12097137
1915.8838 724.01465 3260.1333 12228468
1927.6218 721.17792 3247.3599 12293751
1933.3571 716.17371 3224.8267 8740166
1931.791 708.58923 3190.675 12029821
1960.3284 712.08685 3206.4243 11766907
1977.5625 711.45093 3203.5605 11438968
2016.5895 718.59265 3235.7188 10782065
2068.8713 730.27869 3288.3394 11505535
2100.5288 734.53442 3307.5024 11703429
2125.6821 736.45813 3316.1643 11703429
2137.8279 733.88123 3304.561 11243393
2212.1287 752.49426 3388.3728 10190708
2345.0437 790.53168 3559.6499 7493199
2368.7007 791.38751 3563.5037 4729896
2374.6045 786.34943 3540.8176 1835521
2360.6838 774.89209 3489.2271 5651000
2375.6365 773.02911 3480.8381 6704970
2385.0605 769.41467 3464.563 6967628
2382.0239 761.87646 3430.6196 8415329
2423.074 768.44733 3460.2073 9073002
2493.3728 784.10608 3530.7163 8940899
2488.1868 775.96344 3494.0513 9335656
2493.9648 771.34631 3473.261 9073510
2484.72 762.19647 3432.0605 5651507
2502.6377 761.45972 3428.7429 10190455
2489.3499 751.31659 3383.0701 10255988
2505.7856 750.23486 3378.1992 9466213
2524.2695 749.77863 3376.1448 10584436
2542.042 749.11987 3373.1785 11768455
2566.4673 750.41669 3379.0178 11702662
2638.8975 765.62103 3447.481 13283237
2672.5146 769.41742 3464.5754 13876143
2708.7883 773.91504 3484.8274 13941166
2759.7756 782.51648 3523.5583 8414293
2752.3494 774.55023 3487.6877 9072482
2815.9138 786.53174 3541.6387 7756366
2882.5046 799.17505 3598.5696 8085333
2874.5859 791.12653 3562.3281 8414297
2937.8052 802.63074 3614.1301 9138020
2983.4529 809.20258 3643.7219 9203813
2988.4058 804.7215 3623.5447 8874592
3015.1355 806.12677 3629.8721 8676958
3065.554 813.80054 3664.4263 8414043
3065.5063 808.06372 3638.594 8545629
3094.8821 810.1087 3647.8022 8348250
3130.5828 813.76953 3664.2864 8217177
3163.8672 816.7561 3677.7344 8677727
3151.248 807.93268 3638.0042 8809567
3103.6418 790.32019 3558.6975 8480603
3099.7737 784.00781 3530.2737 7230790
3183.5125 799.78931 3601.3357 4798770
3164.356 789.68262 3555.8267 2233358
3189.2175 790.62195 3560.0564 917504
3185.05 784.39972 3532.0386 1114112
3159.5918 773.04962 3480.9307 1310720
3173.2725 771.36066 3473.3257 1769728
3181.4634 768.36774 3459.8489 1901824
3194.7986 766.64746 3452.1028 1704960
3189.0483 760.39832 3423.9639 5981226
3191.5254 756.17767 3404.9587 10583911
3220.6492 758.28369 3414.4419 7622713
3250.5476 760.5448 3424.6233 9860700
3141.2844 730.41968 3288.9741 12032645
0 0 0 0
0 0 0 0
0 0 0 0
0 0 0 0
0 0 0 0
0 0 0 0
0 0 0 0
0 0 0 0
0 0 0 0
0 0 0 0
0 0 0 0
0 0 0 0
0 0 0 0
0 0 0 0
0 0 0 0
0 0 0 0
0 0 0 0
0 0 0 0
0 0 0 0
0 0 0 0
0 0 0 0
0 0 0 0
0 0 0 0
0 0 0 0
0 0 0 0
0 0 0 0
0 0 0 0
0 0 0 0
-560.4765 166.08714 728.42841 26
-559.09442 166.96356 732.27222 28
-569.78113 171.48602 752.10687 39
-539.86786 163.76413 718.24005 1081
0 0 0 0
0 0 0 0
0 0 0 0
-509.71423 159.65224 700.20599 5731
-506.81107 160.04582 701.93225 5986
-507.34256 161.53955 708.48346 138340
-498.61102 160.08421 702.10059 335979
-501.24527 162.28419 711.74933 402029
-498.81119 162.86664 714.30383 270959
-496.97794 163.65695 717.76996 468854
-493.8439 164.02882 719.40094 534649
-490.01047 164.17284 720.03259 403065
-486.85422 164.54828 721.6792 336759
-483.84363 164.98004 723.57281 204917
-480.11551 165.17267 724.41766 72560
-476.94904 165.56375 726.13287 4965
-473.53616 165.87563 727.50067 3423
-469.79269 166.07637 728.3811 3420
-467.21768 166.69772 731.10626 2902
-464.00778 167.10207 732.87964 2386
-460.31412 167.33821 733.91528 2125
-456.97623 167.7094 735.54327 1356
-453.82648 168.15747 737.50842 2380
-451.48679 168.91731 740.84094 2122
-445.26682 168.22607 737.80933 2891
-444.55383 169.62236 743.93317 3147
-440.28091 169.67468 744.16266 3400
-432.18045 168.2381 737.86206 3140
-429.71814 168.98938 741.15704 3136
-427.01459 169.66032 744.09973 2876
-423.78674 170.1348 746.18066 2873
-419.78485 170.30524 746.92816 2613
-414.42773 169.92365 745.25458 1326
-415.07159 172.02087 754.45264 38
-410.25821 171.87746 753.82361 36
-407.77292 172.71695 757.50549 34
-402.30228 172.29662 755.66199 33
-399.34079 172.95349 758.54291 28
-394.88614 172.9713 758.62097 25
-389.53833 172.59377 756.96521 23
-385.51111 172.79938 757.86707 22
-381.7164 173.1153 759.25256 21
-377.68335 173.32935 760.19141 22
-373.5549 173.50427 760.95856 20
-369.22821 173.59027 761.33569 21
-365.25272 173.84555 762.45538 24
-361.30185 174.11909 763.65503 26
-356.97565 174.2164 764.08179 27
-352.87344 174.42691 765.00513 37
-350.40332 175.46017 769.5368 464196
-347.3793 176.23967 772.95551 398402
-342.5303 176.10173 772.35052 30
0 0 0 0
-349.02942 184.37041 808.61548 21
-363.76273 194.828 854.48059 20
-357.22803 194.02908 850.97668 21
0 0 0 0
0 0 0 0
0 0 0 0
0 0 0 0
-335.31601 195.95956 859.44342 21
-332.12769 197.09 864.40131 22
0 0 0 0
0 0 0 0
-311.30267 193.69452 849.50934 25
-306.26831 193.69452 849.50934 27
0 0 0 0
-296.69913 194.02119 850.94214 27
-291.65628 194.02119 850.94214 27
-286.45682 193.91522 850.47729 28
-281.8566 194.21832 851.8067 25
-277.25409 194.53088 853.17755 25
-517.68512 369.97241 1622.6324 23
-514.98981 375.01208 1644.7356 23
-517.02356 383.75626 1683.0861 23
-508.37396 384.75888 1687.4833 23
-501.43698 387.12393 1697.856 23
0 0 0 0
-488.36325 392.79431 1722.7252 23
-483.2381 396.97073 1741.0424 23
-474.54471 398.33426 1747.0226 23
-464.41605 398.52695 1747.8677 23
0 0 0 0
0 0 0 0
0 0 0 0
0 0 0 0
-220.06972 212.55075 932.20935 23
-218.22534 216.19664 948.19958 23
0 0 0 0
-211.70508 221.12477 969.81348 23
0 0 0 0
0 0 0 0
-199.61681 226.98506 995.51562 23
0 0 0 0
-218.39021 263.93338 1157.5643 23
-215.18085 268.48834 1177.5416 23
-204.30168 263.45807 1155.4797 23
-332.05319 443.05032 1943.1392 23
-321.88196 444.90829 1951.2878 23
-205.12444 294.09027 1289.8271 23
-253.92328 378.14526 1658.4772 23
-249.31491 386.23212 1693.9447 23
-247.13533 398.91803 1749.5829 23
0 0 0 0
-187.49127 330.36276 1448.9117 23
-178.35359 329.34509 1444.4484 23
0 0 0 0
-315.7428 644.95544 2828.6587 23
-326.20499 703.68585 3086.2395 23
-307.91525 703.68585 3086.2395 23
-211.59911 514.10962 2254.7925 23
-199.09074 516.32446 2264.5063 23
-187.60646 521.70734 2288.1145 23
-175.02701 524.64606 2301.0034 23
0 0 0 0
-151.39323 537.56628 2357.6692 23
0 0 0 0
0 0 0 0
0 0 0 0
0 0 0 0
-83.89518 553.14087 2425.9763 23
-71.136444 566.01587 2482.4438 23
-56.499626 566.76489 2485.729 23
-42.648617 578.70502 2538.0964 23
-28.354069 594.35852 2606.7498 23
-13.203276 608.0531 2666.8115 21
2.7006228 631.38696 2769.1497 21
19.368183 639.8772 2806.3865 21
36.422844 647.40326 2839.3945 21
53.453125 649.87646 2850.2415 21
70.438393 650.74609 2854.0554 21
86.980904 647.98053 2841.9263 21
103.88312 648.35718 2843.5781 21
120.61642 647.72174 2840.791 21
140.15903 660.48029 2896.7478 21
158.0952 663.71045 2910.9148 21
175.49527 664.27588 2913.3945 21
192.4491 663.20215 2908.6855 21
209.1057 661.36487 2900.6274 21
227.20319 664.01782 2912.2629 21
243.26028 660.75403 2897.9485 21
261.08221 662.39832 2905.1599 19
279.84811 666.08588 2921.333 19
298.10226 668.19672 2930.5908 19
316.79544 671.005 2942.9075 19
338.4039 679.37299 2979.6079 19
356.07437 679.39716 2979.7139 18
381.7453 693.96283 3043.5962 18
400.09653 694.5083 3045.9885 65550
426.91565 709.07111 3109.8586 131082
449.94592 716.39612 3141.9846 2827562
458.78336 701.43927 3076.3867 6181971
482.02554 708.80768 3108.7031 8418668
504.25153 714.19427 3132.3276 10984077
525.68939 718.12177 3149.553 10523271
546.25189 720.625 3160.5317 11049871
568.70111 725.36877 3181.3372 10984334
590.08545 728.49359 3195.042 10194818
605.41998 724.18732 3176.1555 10721165
627.29083 727.72363 3191.6653 9668475
645.32489 726.73224 3187.3169 8943467
660.77136 722.966 3170.7988 9338226
681.51459 725.04303 3179.9084 9403504
702.96863 727.7442 3191.7554 9930106
720.06537 725.91119 3183.7161 9930106
745.13214 732.00134 3210.4263 10588291
766.26477 734.01965 3219.2783 10390658
797.40137 745.29004 3268.708 10588036
814.49316 743.21027 3259.5867 11179404
824.53601 734.94379 3223.3313 9600627
837.17346 729.31195 3198.6313 9270890
849.38092 723.56329 3173.4187 8810595
881.11615 734.3385 3220.6768 8612702
908.8313 741.37738 3251.5479 8349532
922.33936 736.77515 3231.3635 9468268
944.69452 739.28357 3242.365 8941669
972.0235 745.50671 3269.6587 8678755
1004.9056 755.66254 3314.2 10521215
1018.7562 751.39197 3295.4702 9270892
1042.8713 754.71039 3310.0242 9073512
1069.2888 759.54181 3331.2139 8546658
1081.7388 754.4563 3308.9097 8941670
1106.9926 758.32294 3325.8682 9204841
1140.4209 767.55609 3366.363 9270634
1140.1443 754.17688 3307.6843 8875877
1171.7607 761.98981 3341.9504 8809827
1193.4138 763.17151 3347.1333 9007462
1198.2958 753.76508 3305.8782 9599856
1229.6849 761.06696 3337.9028 8876392
1253.2776 763.38861 3348.0852 8678757
1284.8301 770.41071 3378.8831 9468273
1298.9604 766.93109 3363.6218 9205100
1342.8645 780.86969 3424.7544 9994617
1350.7318 773.75031 3393.5298 9403250
1371.1957 773.94952 3394.4036 9469043
1395.3535 776.19794 3404.2646 9600629
1432.2565 785.37097 3444.4958 9798521
1440.1384 778.59625 3414.7834 10193793
1457.2878 776.95038 3407.5645 10260099
1477.2043 776.80444 3406.9246 10193280
1499.9907 778.15125 3412.8315 9601142
1508.4247 772.11566 3386.3606 10061436
1519.5956 767.62115 3366.6484 8876647
1561.812 778.7226 3415.3372 8482146
1563.0243 769.35663 3374.26 9731699
1602.4875 778.8175 3415.7537 8942182
1617.6825 776.39502 3405.1289 8678498
1644.2892 779.44165 3418.491 8546912
1667.0549 780.6156 3423.6396 9204328
1677.233 775.93787 3403.124 8612191
1713.7638 783.41809 3435.9309 8875107
1730.6587 781.85168 3429.061 8480349
1748.8965 780.92139 3424.9807 8809314
1796.8688 793.13715 3478.5569 8809573
1804.9573 787.67078 3454.5825 3546390
1804.2961 778.55164 3414.5874 2757898
1807.9769 771.48749 3383.6055 2166793
1800.3494 759.80579 3332.3716 5783596
1829.4142 763.69501 3349.4292 3021579
1845.1163 761.98224 3341.9172 5848359
1862.3016 760.91199 3337.2231 4730137
1870.0277 756.03979 3315.8547 4993049
1873.0804 749.39923 3286.7305 9466717
1890.5759 748.61426 3283.2876 11242344
1903.6232 746.10187 3272.2688 11503720
1902.1631 738.01154 3236.7859 9726032
1894.0809 727.539 3190.8555 9725264
1909.332 726.14758 3184.7529 10451044
1943.9768 732.08698 3210.802 9989469
1967.1229 733.62286 3217.5381 10056032
1971.1978 728.08502 3193.25 10121568
1986.2555 726.67059 3187.0466 10516840
2029.8151 735.612 3226.262 10517096
2060.4883 739.75995 3244.4541 10188389
2086.771 742.26965 3255.4612 10781299
2086.8999 735.5155 3225.8386 10518385
2100.1482 733.46582 3216.8494 11111038
2124.0869 735.15308 3224.2493 10519417
2319.7734 795.72272 3489.897 10848638
2316.8098 787.68365 3454.6389 9336169
2292.1362 772.46881 3387.9094 8941668
2348.6072 784.62732 3441.2341 8612705
2390.6582 791.80042 3472.6943 8283738
2381.4431 782.01636 3429.783 8283740
2437.1482 793.53589 3480.3057 8743519
2464.4883 795.70392 3489.8145 7427663
2467.0776 789.91125 3464.4089 6309183
2448.6116 777.52814 3410.0989 8941415
2393.7087 753.8725 3306.3494 721153
2443.8989 763.43024 3348.2678 11309956
2452.4988 759.94659 3332.989 10453366
2475.385 760.90991 3337.2141 10189937
2485.7573 758.04193 3324.6357 9860458
2533.0688 766.3952 3361.2717 11373184
2579.2126 774.26752 3395.7983 12294543
2566.0532 764.35333 3352.3164 11636100
2636.3701 779.26562 3417.719 9597031
2640.3059 774.479 3396.7256 8413527
2623.1013 763.6106 3349.0588 12558742
2659.2617 768.32385 3369.7302 10256499
2727.7659 782.242 3430.7729 9401191
2782.3345 791.98767 3473.5154 8874591
2816.1301 795.7204 3489.887 8808542
2889.4812 810.49402 3554.6812 8742749
2919.2241 812.91034 3565.2788 8479577
2933.2773 810.95428 3556.6997 8479833
2939.0459 806.75195 3538.2693 9071716
2966.467 808.51068 3545.9824 8611165
2994.1614 810.31842 3553.9111 8611165
3012.4944 809.58527 3550.6956 8545115
3043.1348 812.14679 3561.9299 8216663
3089.4695 818.83276 3591.2532 8085333
3103.0452 816.80402 3582.3557 8151125
3112.4634 813.71613 3568.8127 9335398
3159.1716 820.35303 3597.9209 9269861
3181.2732 820.55402 3598.8025 9335654
3206.6577 821.59351 3603.3616 9665130
3238.2 824.18665 3614.7344 10586488
3160.2554 799.06213 3504.543 8876639
3205.2231 805.14087 3531.2031 6572860
3160.3542 788.72046 3459.1863 2494220
3176.2473 787.57819 3454.1763 918274
3194.3638 786.99823 3451.6331 1704704
3181.636 778.875 3416.0056 1442048
3162.7981 769.3681 3374.3103 7493187
3214.248 776.97107 3407.6558 9531743
3241.1172 778.57452 3414.6877 9335388
3282.6006 783.64679 3436.9341 11703932
0 0 0 0
0 0 0 0
0 0 0 0
0 0 0 0
0 0 0 0
0 0 0 0
0 0 0 0
0 0 0 0
0 0 0 0
0 0 0 0
0 0 0 0
0 0 0 0
0 0 0 0
0 0 0 0
0 0 0 0
0 0 0 0
0 0 0 0
0 0 0 0
0 0 0 0
0 0 0 0
0 0 0 0
0 0 0 0
0 0 0 0
0 0 0 0
0 0 0 0
0 0 0 0
0 0 0 0
0 0 0 0
0 0 0 0
-574.17072 175.92247 752.01837 1841
0 0 0 0
0 0 0 0
-522.11786 163.78764 700.14551 270193
0 0 0 0
0 0 0 0
-511.7691 164.46216 703.02881 269161
-508.65729 164.8038 704.48926 136805
-505.84225 165.24806 706.38837 4960
-502.49622 165.52483 707.57141 2905
-500.5528 166.27214 710.76599 2648
-492.34244 164.93277 705.04053 1875
-495.09857 167.27565 715.05566 1617
-491.9187 167.63608 716.59644 1615
-489.62921 168.30885 719.47235 1613
-486.82785 168.81598 721.64014 1869
-483.25504 169.06218 722.69263 2379
-480.42184 169.57385 724.87988 2637
-476.99863 169.88463 726.20831 3662
-470.65958 169.15312 723.08136 3918
-467.1232 169.4247 724.24225 3659
-463.52148 169.6774 725.32245 3399
-460.1745 170.02892 726.82513 2624
-457.26276 170.54944 729.05023 1590
-456.4007 171.85168 734.61694 45
-452.86081 172.16098 735.93909 39
-449.60837 172.58664 737.75867 36
-445.73642 172.78052 738.58746 35
-442.3587 173.17172 740.25977 34
-438.27399 173.29121 740.77051 30
-434.38892 173.49287 741.63257 28
-430.6933 173.77509 742.83893 26
-421.0975 171.65796 733.78882 25
-417.29834 171.88428 734.75623 24
-418.43729 174.17079 744.53046 22
-409.47748 172.25774 736.35272 23
-406.98001 173.0513 739.745 21
-405.46109 174.28276 745.00916 21
-403.02939 175.1447 748.69366 20
-398.66223 175.17535 748.82471 19
-394.6301 175.35558 749.59509 19
-390.67636 175.5751 750.53351 20
-386.86722 175.86545 751.77466 20
-382.36334 175.84306 751.67896 19
-378.97806 176.34061 753.80585 17
-375.13516 176.63457 755.06244 16
-373.40454 177.94223 760.65228 16
-369.52231 178.24397 761.94214 16
-365.40384 178.43781 762.77075 17
-361.82248 178.90208 764.75543 19
-358.9003 179.70822 768.20135 23
-354.85931 179.96765 769.31036 33
-350.38998 180.01376 769.50751 462390
-346.34421 180.28157 770.65228 660284
-343.26239 181.06499 774.00122 28
0 0 0 0
-348.42355 188.83409 807.21185 21
-362.6817 199.29781 851.94128 21
-357.66776 199.31721 852.02423 21
-352.6973 199.36176 852.21466 21
-347.68527 199.38376 852.30878 21
-341.72995 198.85751 850.05914 21
-337.17221 199.14095 851.27075 21
-333.64233 200.04929 855.15369 21
-330.49765 201.22017 860.15887 23
-323.19223 199.85483 854.32245 23
-317.08713 199.20012 851.52368 25
0 0 0 0
0 0 0 0
-301.62262 198.98532 850.60553 25
-297.30682 199.47177 852.685 25
-292.2536 199.47177 852.685 25
-286.45782 198.95601 850.48022 25
-282.23428 199.53333 852.94812 23
-521.86963 375.67847 1605.9183 23
-522.32062 382.9874 1637.162 23
-514.59131 384.46143 1643.4629 23
-515.74048 392.75348 1678.9092 23
-508.92133 395.18436 1689.3003 23
-502.27463 397.84924 1700.6921 23
0 0 0 0
-489.44284 403.89441 1726.5334 23
-483.09769 407.1702 1740.5365 23
-474.34805 408.51813 1746.2986 23
0 0 0 0
-452.7916 407.745 1742.9935 23
0 0 0 0
0 0 0 0
-219.08125 211.77934 905.29633 23
-218.70102 216.7189 926.41156 23
-217.4809 221.05914 944.96484 23
-213.39001 222.63373 951.69574 23
0 0 0 0
0 0 0 0
0 0 0 0
0 0 0 0
0 0 0 0
-195.3712 242.25089 1035.5535 23
-199.2032 255.01268 1090.1066 23
-202.89671 268.44681 1147.5336 23
-202.3221 276.96979 1183.9669 23
-200.31963 284.08029 1214.3622 23
-196.62523 289.2319 1236.3839 23
-252.53761 385.85657 1649.4268 23
-248.15759 394.4313 1686.0814 23
-245.74483 406.98358 1739.7388 23
-249.45647 431.22217 1843.3518 23
-243.36665 439.96164 1880.7107 23
-179.53351 340.14062 1454.0043 23
0 0 0 0
0 0 0 0
-233.05243 515.80493 2204.9192 23
-313.03482 733.97949 3137.553 23
-208.49017 519.72211 2221.6638 23
-196.34125 522.42853 2233.2329 23
-185.67447 529.75494 2264.5513 23
0 0 0 0
0 0 0 0
-149.88824 546.05554 2334.2317 23
-137.28992 551.01154 2355.4172 23
-121.02612 540.71295 2311.3938 23
-107.57018 541.93158 2316.6028 23
-94.773102 547.31146 2339.6006 23
-82.555405 558.45465 2387.2344 23
-68.98362 563.15259 2407.3167 23
-54.855885 564.57843 2413.4119 23
-41.660709 579.99292 2479.3044 23
-26.614025 572.38385 2446.7778 23
-13.032859 615.80487 2632.3904 21
2.6524944 636.25299 2719.8 21
18.915855 641.17633 2740.8459 21
35.491825 647.25153 2766.8157 21
52.238026 651.6106 2785.4495 21
68.244774 646.86731 2765.1733 21
84.716263 647.51312 2767.9338 21
101.71358 651.31635 2784.1917 21
118.78533 654.46814 2797.6646 21
135.91548 657.13013 2809.0439 21
154.34639 664.81403 2841.8904 21
172.60715 670.3252 2865.449 21
189.90265 671.43616 2870.1982 21
207.5937 673.64819 2879.6538 21
224.83087 674.16309 2881.855 21
245.36278 683.78723 2922.9954 21
258.2439 672.2265 2873.5767 19
276.73047 675.78497 2888.7881 19
292.48666 672.64954 2875.3848 19
312.91541 680.01343 2906.8635 19
336.12073 692.328 2959.5049 19
362.51407 709.66199 3033.6028 18
384.34271 716.84436 3064.3052 18
400.47052 713.22552 3048.8359 65554
421.3938 718.09113 3069.6348 65550
443.16153 723.93347 3094.6091 131078
467.37659 733.15045 3134.009 2431519
479.68408 723.698 3093.6025 6905692
495.65121 720.25946 3078.9038 9602428
519.60303 728.25616 3113.0874 10655371
545.55841 738.41638 3156.5193 11115922
562.52631 736.14154 3146.7952 10852750
581.79425 736.92603 3150.1487 11182231
600.42987 736.88574 3149.9766 11379867
619.18201 736.98657 3150.4075 11182999
636.74524 735.70782 3144.9412 11577756
654.65228 734.88776 3141.4355 11576729
672.57898 734.13446 3138.2153 11379088
699.86011 743.35754 3177.6416 9272429
710.40173 734.78326 3140.989 10653832
733.18518 738.98547 3158.9524 9469555
757.52106 744.50427 3182.5435 9864569
778.7959 746.81952 3192.4407 10060921
800.1463 749.09583 3202.1709 10784901
823.88763 753.453 3220.7969 9863796
835.42975 746.70923 3191.9692 9599853
855.3313 747.57037 3195.6501 8613216
882.07935 754.24854 3224.1973 9467755
900.44043 753.62396 3221.5276 9600367
923.65887 757.00635 3235.9863 9336682
954.97083 766.74945 3277.6353 8941925
975.39691 767.53802 3281.0061 9007462
992.38568 765.6438 3272.9089 8875877
1009.0596 763.58398 3264.1038 9205098
1034.708 768.26514 3284.1145 9533806
1053.3423 767.66162 3281.5344 9336173
1063.6768 761.14087 3253.6602 9007464
1097.0961 771.07709 3296.1348 8480862
1119.8295 773.28674 3305.5803 9599345
1132.1826 768.37561 3284.5867 9073257
1148.8555 766.51257 3276.6228 9073257
1172.124 769.039 3287.4224 8875878
1193.2621 770.10779 3291.9912 9139562
1206.23 765.95416 3274.2356 9402479
1233.4526 770.84058 3295.1235 9468016
1260.4972 775.46503 3314.8918 8876136
1286.5265 779.33258 3331.4246 9534066
1303.5414 777.70502 3324.4673 9599859
1326.7754 779.78125 3333.3425 9074028
1356.2644 785.41882 3357.4414 9535093
1383.8359 789.79883 3376.165 9666678
1413.5421 795.25513 3399.489 9535606
1424.4312 790.12036 3377.5391 9338229
1424.2933 779.09613 3330.4136 9009005
1452.2804 783.54736 3349.4417 10194306
1463.0544 778.71692 3328.7927 9865084
1494.4957 784.8689 3355.0906 9601399
1501.4523 778.16937 3326.4524 9733241
1542.231 788.94568 3372.5176 9995642
1555.1267 785.36481 3357.2107 9271662
1575.5164 785.61121 3358.2639 9139562
1599.8594 787.79822 3367.6125 9270635
1616.0193 785.95135 3359.7178 9138792
1638.2776 787.07928 3364.5396 8809314
1668.3422 791.8855 3385.0847 9072229
1704.7731 799.56329 3417.905 9532524
1716.3943 795.56134 3400.7981 8940898
1736.704 795.63281 3401.1035 8677728
1767.8647 800.6167 3422.408 8085848
1788.0876 800.59027 3422.2952 7230537
1810.2533 801.4245 3425.8613 8611932
1809.4872 792.20062 3386.4319 4467223
1793.1249 776.4259 3318.9995 5388837
1812.1489 776.14966 3317.8186 5059099
1833.6559 776.9314 3321.1599 5453601
1847.3035 774.40173 3310.3464 5322016
1868.0144 774.85516 3312.2849 6177328
1871.6659 768.29645 3284.2483 6110766
1878.6982 763.24628 3262.6602 7293242
1864.2224 749.65002 3204.54 9133130
1848.2052 735.71429 3144.969 10845282
1882.9974 742.08075 3172.1836 10583143
1919.2767 748.90161 3201.3408 10845803
1939.2722 749.29712 3203.0315 10450533
1950.4973 746.32916 3190.3442 9726554
1963.7046 744.16925 3181.1113 10187875
1982.9988 744.33521 3181.8208 10187875
1997.0223 742.53839 3174.1399 10056288
2017.8857 743.29456 3177.3723 10187874
2038.4877 743.94128 3180.137 10451561
2052.814 742.30688 3173.1501 9990754
2082.7043 746.27911 3190.1304 9530462
2091.2437 742.59808 3174.395 9201755
2138.6106 752.64752 3217.3535 10452595
2189.0327 763.58496 3264.1079 11111295
2217.8916 766.875 3278.1719 10782589
2269.8701 778.03247 3325.8667 8809056
2337.728 794.39386 3395.8074 7822678
2361.6316 795.66718 3401.2502 8414307
2331.0276 778.70996 3328.7632 720896
2429.0984 804.66205 3439.7009 1048576
2436.5303 800.40717 3421.5122 983041
2441.0125 795.26141 3399.5159 851968
2402.998 776.46832 3319.1807 589824
2421.1702 775.98816 3317.1282 10521730
2479.5103 788.28601 3369.6978 9994099
2488.2544 784.74573 3354.5642 9664364
2497.939 781.55585 3340.9285 10321781
2505.9609 777.89996 3325.3005 10979197
2517.615 775.41986 3314.6987 11439492
2545.1072 777.81842 3324.9521 11373442
2568.5593 778.95508 3329.8108 10584182
2557.9512 769.82373 3290.7771 9465957
2577.1316 769.72778 3290.3667 9926507
2620.8191 776.89783 3321.0168 12032398
2650.3662 779.80078 3333.4258 11572105
2705.7537 790.20721 3377.9104 8348247
2752.9895 798.0976 3411.6396 8611419
2774.1626 798.3725 3412.8147 8677725
2844.1565 812.59161 3473.5977 9138020
2854.0312 809.55359 3460.6108 8809055
2876.457 810.09363 3462.9194 8545629
2916.1235 815.44714 3485.804 8347993
2931.8306 814.07251 3479.928 8611422
2937.2754 809.88751 3462.0381 8348249
2961.8865 811.00861 3466.8306 8479579
2990.0647 813.08423 3475.7034 8480091
2996.4141 809.23621 3459.2539 8282711
3082.3157 826.77905 3534.2446 7887696
3124.9023 832.5448 3558.8918 8019538
3133.7378 829.30176 3545.0286 8414039
3166.9443 832.50812 3558.7351 8677212
3193.5366 833.94513 3564.8777 8874590
3214.3691 833.86896 3564.552 9203554
3220.0483 829.88831 3547.5359 9993070
3141.7668 804.46094 3438.8411 10321777
3142.2517 799.39966 3417.2058 10322800
3180.2729 803.89166 3436.4075 10717301
3190.0242 801.22577 3425.012 9664097
3197.3335 797.98425 3411.155 5255458
3187.2661 790.47388 3379.0503 10322543
3287.6975 810.29095 3463.7629 2756104
3267.5491 800.32825 3421.175 7033406
0 0 0 0
0 0 0 0
0 0 0 0
0 0 0 0
0 0 0 0
0 0 0 0
0 0 0 0
0 0 0 0
0 0 0 0
0 0 0 0
0 0 0 0
0 0 0 0
0 0 0 0
0 0 0 0
0 0 0 0
0 0 0 0
0 0 0 0
0 0 0 0
0 0 0 0
0 0 0 0
0 0 0 0
0 0 0 0
0 0 0 0
0 0 0 0
0 0 0 0
0 0 0 0
0 0 0 0
0 0 0 0
0 0 0 0
0 0 0 0
0 0 0 0
0 0 0 0
0 0 0 0
0 0 0 0
0 0 0 0
-512.05176 168.72159 703.41711 1860
-510.49683 169.58986 707.03705 2118
0 0 0 0
-502.92471 169.86276 708.17474 2117
-500.68069 170.52786 710.94763 1597
-496.98251 170.70477 711.68518 824
-493.6673 171.01738 712.98846 305
-492.23471 171.99319 717.05676 43
-489.04047 172.3651 718.6073 41
-485.08307 172.4722 719.05377 37
-482.26065 172.98831 721.20551 34
-478.78705 173.278 722.41327 32
-475.61154 173.68176 724.09656 29
-471.8298 173.86948 724.87921 27
-468.77032 174.32924 726.79596 23
-461.83615 173.34323 722.68518 23
-459.60303 174.11974 725.92255 22
-455.54422 174.21274 726.31024 22
-452.43213 174.67299 728.22913 22
-449.76971 175.31743 730.91583 19
-441.85345 173.90654 725.03369 20
-442.50903 175.87483 733.23969 19
-438.60483 176.05188 733.97784 18
-434.95718 176.33652 735.16449 18
-426.04218 174.46983 727.38214 18
-422.70053 174.87071 729.05341 18
-420.04382 175.56613 731.9527 18
-417.81989 176.45886 735.67456 18
-414.57352 176.93404 737.65558 16
-411.41193 177.4559 739.83136 16
-407.45282 177.64133 740.60437 16
-403.89847 178.00916 742.13794 15
-399.67688 178.08781 742.46582 16
-397.11514 178.91603 745.9187 16
-393.5238 179.29378 747.49365 16
-391.98044 180.62386 753.03882 16
-388.68704 181.16885 755.31097 16
-384.18533 181.1568 755.26074 14
-380.25076 181.41504 756.33734 14
-377.10138 182.0585 759.02002 14
-373.12213 182.31203 760.07697 14
-369.12543 182.56311 761.12378 15
-365.14999 182.83107 762.24091 17
-361.26324 183.1507 763.57349 18
-358.01166 183.80452 766.29932 22
-354.38486 184.28001 768.28174 30
-350.54886 184.65771 769.85638 462129
-346.37335 184.86417 770.71716 594233
-343.3443 185.6962 774.18591 29
0 0 0 0
-351.15103 195.13342 813.5307 21
-347.40662 195.74011 816.06 22
-345.56827 197.45302 823.20129 20
-336.68756 195.13342 813.5307 21
-346.97543 204.01736 850.56873 21
-342.59143 204.40915 852.20209 21
-337.95477 204.65967 853.24658 21
-333.8074 205.21861 855.57678 21
-330.39743 206.25511 859.89807 23
-323.80048 205.30338 855.93024 23
-318.01404 204.84348 854.01282 25
-312.79242 204.73837 853.57465 25
-307.73395 204.73837 853.57465 25
-302.67545 204.73837 853.57465 25
-297.5744 204.70906 853.45245 25
-292.51666 204.70906 853.45245 25
-286.60052 204.09776 850.90387 26
-517.20099 374.91248 1563.0475 23
-521.12805 384.64813 1603.6364 23
-520.54218 391.35254 1631.5878 23
-512.53046 392.62219 1636.881 23
-512.14166 399.89301 1667.1937 23
-509.3244 405.51636 1690.6382 23
-255.77934 207.73405 866.06396 23
-251.94527 208.81017 870.55035 23
-246.78619 208.81017 870.55035 23
-241.98872 209.12263 871.85309 23
-237.32614 209.56787 873.70929 23
0 0 0 0
-452.70703 417.99625 1742.668 23
-320.10138 302.45782 1260.9768 23
0 0 0 0
-218.72827 216.79446 903.83771 23
-218.048 221.54556 923.64545 23
-216.10352 225.22372 938.9801 23
0 0 0 0
0 0 0 0
0 0 0 0
-200.20668 232.61502 969.79523 23
0 0 0 0
0 0 0 0
0 0 0 0
-198.11926 260.05014 1084.1749 23
-201.91685 273.91806 1141.9917 23
-201.92299 283.42603 1181.6313 23
-198.94284 289.2749 1206.0159 23
-195.80363 295.31979 1231.2177 23
-243.5945 381.62091 1591.0156 23
-246.40378 401.56522 1674.1653 23
-244.1904 414.65408 1728.7343 23
-247.17412 438.10092 1826.4863 23
-242.76219 449.98666 1876.0393 23
-182.04497 353.63611 1474.3441 23
0 0 0 0
0 0 0 0
0 0 0 0
0 0 0 0
0 0 0 0
0 0 0 0
0 0 0 0
0 0 0 0
0 0 0 0
0 0 0 0
-134.3755 552.97693 2305.416 23
-119.14365 545.78741 2275.4419 23
-106.12163 548.17761 2285.407 23
-92.990074 550.61871 2295.5842 23
-80.264107 556.70953 2320.9775 23
