# .PCD v0.7 - Point Cloud Data file format
VERSION 0.7
FIELDS x y z rgb
SIZE 4 4 4 4
TYPE F F F U
COUNT 1 1 1 1
WIDTH 1287
HEIGHT 1
VIEWPOINT 0 0 0 1 0 0 0
POINTS 1287
DATA ascii
2838.9719 818.53442 4388.3589 10719356
2889.428 825.51971 4425.8091 6968910
2963.5256 839.07318 4498.4722 6837326
2951.7795 828.29639 4440.6953 7561305
2975.2292 827.49902 4436.4204 7101267
2978.136 821.05212 4401.8569 6969682
3045.3137 832.28229 4462.0649 7561564
3076.1602 833.4754 4468.4614 7298648
3122.0703 838.69476 4496.4434 7429974
3151.2324 839.36469 4500.0352 7364433
3187.9885 842.02917 4514.3203 8087126
3221.5906 843.82312 4523.938 7889744
3226.9597 838.2536 4494.0786 6902078
3287.3083 846.94012 4540.6489 6112822
3258.4165 832.6803 4464.1987 8349781
3300.4634 836.63257 4485.3877 7955025
3323.699 835.79114 4480.877 8086358
3330.4028 830.83905 4454.3271 7559501
3340.332 826.76306 4432.4746 7164744
3361.9468 825.6203 4426.3481 6244155
3423.0837 834.12598 4471.9492 5125677
3430.6304 829.54254 4447.3765 5125675
3460.7981 830.45709 4452.2798 7889237
3471.0127 826.60626 4431.6343 8087387
3471.6453 820.54828 4399.1562 4534317
3610.9988 847.12415 4541.6353 5784130
3564.0005 829.91272 4449.3608 5652290
3622.4614 837.33105 4489.1323 6639444
3719.6934 853.53766 4576.02 4140081
3790.759 863.54907 4629.6934 524288
3680.4961 832.40601 4462.728 1115657
3797.1238 852.65631 4571.2949 1378575
3824.9329 852.81653 4572.1538 459010
3749.1013 830.02911 4449.9849 590341
3718.7585 817.56055 4383.1382 524291
3588.5581 783.46381 4200.3374 524294
3585.7004 777.44714 4168.0806 393223
3579.9529 770.8905 4132.9287 393222
3473.397 742.86292 3982.666 196612
3637.4478 772.6983 4142.6206 1642777
3661.8481 772.66669 4142.4512 2498338
3574.5996 749.23389 4016.8225 7103074
3668.1633 763.75867 4094.6934 7759466
3730.113 771.55334 4136.4824 6443860
3828.1375 786.65936 4217.4692 6837076
4024.5168 821.64972 4405.061 4008235
4037.9382 819.07684 4391.2671 5587524
4053.1208 816.89191 4379.5532 524545
4021.6099 805.38361 4317.8545 590338
3999.5586 795.9035 4267.0293 1444364
4083.4675 807.49573 4329.1782 525318
3994.1672 784.9054 4208.0659 590599
3986.4172 778.52173 4173.8413 459010
0 0 0 0
0 0 0 0
0 0 0 0
0 0 0 0
0 0 0 0
-4217.4165 896.11475 4656.3452 23
-4187.4302 895.60315 4653.687 23
-4156.7158 894.9281 4650.1792 21
-4115.3286 891.93085 4634.605 21
-4087.0432 891.75201 4633.6758 21
-4037.4531 886.89075 4608.416 21
-3980.051 880.23566 4573.835 21
-3974.7061 885.08124 4599.0137 21
-3938.5066 883.07568 4588.5923 21
-3905.4563 881.75323 4581.7207 21
-3874.8997 880.97931 4577.6992 21
-3699.126 846.94568 4400.8555 21
-3666.3638 845.40497 4392.8496 21
-3621.5464 841.0426 4370.1821 21
-3598.3792 841.68146 4373.502 21
-3556.6809 837.96368 4354.1836 21
-3517.9727 834.90125 4338.2705 21
-3503.2095 837.51819 4351.8687 21
-3467.4719 835.12231 4339.4194 23
-3421.9421 830.3147 4314.4385 23
-3331.6023 814.47992 4232.1587 23
-3355.0713 826.43896 4294.2993 23
-3294.3975 817.69586 4248.8691 23
-3232.4026 808.48773 4201.022 21
-3194.1494 805.12079 4183.5273 21
-3129.2053 794.92102 4130.5278 21
-3139.2219 803.75293 4176.4194 21
-3104.7327 801.23969 4163.3604 19
-3054.3196 794.5437 4128.5669 19
-2959.1406 776.00024 4032.2124 65555
-3012.9385 796.54041 4138.9419 65555
-2930.2478 781.03748 4058.387 65554
-2969.6848 798.09991 4147.0454 196626
-2634.4751 713.92084 3709.6384 131087
-2510.5449 686.06171 3564.8787 131083
-2423.813 667.98145 3470.9307 459278
0 0 0 0
-2345.9507 657.68604 3417.4343 3287087
-2294.6951 648.9187 3371.8777 4865603
-2302.9609 656.97717 3413.751 4865600
-2236.4878 643.6684 3344.5964 6049359
-2229.4375 647.37665 3363.8652 6115148
-2196.2004 643.47925 3343.6138 6706516
-2237.9517 661.68213 3438.1985 7166808
-2200.6311 656.6261 3411.9265 7824739
-2181.2908 656.89093 3413.3027 8548718
-2157.8718 655.92096 3408.2627 7562593
-2124.552 651.89471 3387.3416 7693923
-2119.3191 656.49194 3411.2297 7759718
-2102.0676 657.41907 3416.0469 8154476
-2071.7502 654.23804 3399.5181 7892333
-2058.9622 656.58453 3411.7107 7826797
-2033.1526 654.78387 3402.3542 9077376
-2004.6753 652.07947 3388.3018 8747901
-2001.8163 657.73767 3417.7026 8748158
-1949.451 647.07898 3362.3186 8683134
-1937.2078 649.65546 3375.7061 8946306
-1922.283 651.37695 3384.6514 8617342
-1878.4531 643.23682 3342.354 8486268
-1875.7092 649.14221 3373.0393 8749953
-1869.6543 654.01654 3398.3669 10197400
-1869.652 661.13733 3435.3677 9671058
-1858.9819 664.60114 3453.366 8420991
-1838.3649 664.54626 3453.0811 7565168
-1825.1169 667.18408 3466.7874 9144202
-1793.4521 663.07281 3445.4246 10000025
-1792.1329 670.21545 3482.5391 9671060
-1787.6548 676.32935 3514.3076 8881545
-1764.219 675.33051 3509.1177 9605010
-1726.2557 668.68054 3474.5635 8552320
-1724.0088 675.87201 3511.9314 7894132
-1716.9708 681.3382 3540.3342 9143685
-1710.6952 687.24573 3571.0308 9538956
-1697.7438 690.58582 3588.3862 9209477
-1668.5587 687.32349 3571.4348 7827825
-1657.347 691.47632 3593.0134 8354169
-1641.6484 693.84076 3605.2996 8879999
-1626.1409 696.34937 3618.3347 9603466
-1615.0303 700.83307 3641.6326 8484985
-1586.3151 697.69531 3625.3284 8353142
-1594.0836 710.73804 3693.1003 7629417
-1592.152 719.75879 3739.9734 7826796
-1526.2625 699.71283 3635.8118 7891819
-1542.49 717.27832 3727.0845 7365475
-1528.1654 720.94061 3746.1143 7759974
-1481.6785 709.31403 3685.7009 6970200
-1484.3472 721.22351 3747.5845 7628644
-1472.5509 726.35986 3774.2734 7562338
-1448.7831 725.65826 3770.6279 7628388
-1427.1486 726.0199 3772.5073 7826023
-1411.0441 729.25116 3789.2974 7825766
-1399.922 735.20355 3820.2268 7825509
-1373.4025 733.13239 3809.4646 7364958
-1374.4012 745.92694 3875.947 8088938
-1341.4688 740.42786 3847.3733 7036250
-1328.9497 746.20081 3877.3701 7233629
-1314.1278 750.86108 3901.5857 7430752
-1295.2966 753.35651 3914.5522 7299167
-1283.5933 760.164 3949.925 7628645
-1262.177 761.36554 3956.1685 8879226
-1241.3278 762.96106 3964.459 8879226
-1245.6602 780.3941 4055.0437 8287346
-1205.1711 769.88062 4000.4138 7826538
-1197.4429 780.29309 4054.5186 8616054
-1170.8115 778.56183 4045.5227 9865864
-1150.7131 781.19336 4059.1965 9931913
-1122.1188 778.04633 4042.844 9537411
-1105.1005 782.96362 4068.395 9734790
-1087.6814 787.80994 4093.5776 8089966
-1074.7045 796.16833 4137.0088 7958382
-1057.0299 801.35553 4163.9624 10064270
-1032.5767 801.52893 4164.8633 10327700
-1016.3132 808.22369 4199.6504 9866891
-991.81152 808.53864 4201.2866 9800584
-963.61377 805.77905 4186.9478 7760226
-942.15918 808.66144 4201.9248 7693662
-918.38751 809.65747 4207.1006 7232338
-888.34259 805.02429 4183.0259 7297618
-884.95404 824.97479 4286.6914 7757399
-849.82721 815.64294 4238.2017 7954266
-825.2049 816.13171 4240.7412 7691094
-812.29773 828.60138 4305.5356 9204077
-800.91864 843.4892 4382.895 11506833
-777.36108 846.11932 4396.5615 11112844
-749.91046 844.54761 4388.3945 9073004
-717.36218 836.91565 4348.7378 8020058
-677.30524 819.62836 4258.9106 7362128
-641.49371 806.33929 4189.8584 8218205
-575.66107 752.72491 3911.2703 10521218
-587.33508 800.21021 4158.0107 11047564
-564.42078 802.66602 4170.772 10587014
-525.97357 782.24591 4064.6658 10324355
-499.90561 779.15997 4048.6309 10324356
-483.07693 790.88947 4109.5791 10192514
-464.11258 800.18219 4157.8657 7232343
-453.10663 825.00757 4286.8618 6179910
-440.82141 850.31439 4418.3599 7561564
-412.55899 846.05243 4396.2139 7890782
-384.10556 840.79773 4368.9097 6377283
-359.48019 843.76862 4384.3467 5653561
-331.41348 838.49567 4356.9478 5719612
-307.21835 842.95447 4380.1167 5719611
-277.59735 831.97479 4323.0645 5588024
-255.22902 842.70917 4378.8418 6377797
-227.79077 837.23895 4350.4175 6575175
-203.33394 842.72913 4378.9453 5061166
-177.12265 841.49042 4372.5093 8152671
-149.22139 830.42249 4314.9985 6573125
-118.7584 797.57227 4144.3037 9664114
-94.277695 798.24396 4147.7939 8414047
-70.279404 804.91437 4182.4546 10453373
-45.618874 807.13647 4194.001 10453373
-20.648745 802.64355 4170.6548 8480354
4.0192642 793.13574 4121.251 10915980
29.780546 830.44275 4315.104 8086626
55.949543 839.396 4361.626 8020576
83.402634 855.86804 4447.2173 7560795
110.86467 864.49915 4492.0659 7429209
138.10777 868.41125 4512.394 7626588
164.97896 869.09491 4515.9463 7100244
193.183 875.62909 4549.8989 7495000
221.24413 879.99426 4572.5806 7100242
249.88934 885.47644 4601.0669 7166291
277.08954 885.26331 4599.9595 7034704
306.01413 890.10406 4625.1128 7166288
334.48251 892.93115 4639.8027 7495509
362.84637 895.0708 4650.9209 7232338
385.54697 883.9245 4593.0029 7297361
414.35565 887.32855 4610.6909 6244672
438.13425 880.20599 4573.6812 6639171
469.19183 887.68481 4612.542 6573120
493.80801 882.82428 4587.2861 6572863
524.5108 888.78485 4618.2578 8152151
548.32501 883.0603 4588.5122 9599598
558.87665 857.52692 4455.8374 8481117
596.59393 874.0993 4541.9497 9270633
616.55865 864.35345 4491.3091 8151895
658.64935 885.14911 4599.3662 10718332
688.30798 888.2486 4615.4717 9468263
715.73822 888.3454 4615.9746 10323571
742.13263 887.19672 4610.0059 10389623
762.15765 878.78558 4566.3003 12297365
798.15515 888.73639 4618.0063 10652797
822.36267 885.33466 4600.3306 9665392
847.48016 883.09949 4588.7158 8875879
873.5744 881.98944 4582.9478 6376004
901.74463 882.97913 4588.0903 7034191
923.09509 877.42847 4559.2485 6837326
954.55542 881.52997 4580.5605 6574411
981.99518 881.79431 4581.9341 6903376
1003.1837 876.58203 4554.8501 7100754
1023.1757 870.62488 4523.896 7166036
1045.2196 866.67334 4503.3633 5916737
1059.5724 856.69995 4451.54 3746597
1074.244 847.46277 4403.542 9338995
1105.817 851.68073 4425.4595 9602424
1160.8284 873.33698 4537.9883 7431000
1206.2266 886.94373 4608.6914 7628124
1198.9618 862.08215 4479.5068 7429719
1248.6689 878.37451 4564.1646 6969168
1262.3779 869.19 4516.4404 8482407
1298.4896 875.4917 4549.1846 8745322
1322.2177 873.35724 4538.0938 8679271
1352.6921 875.67523 4550.1387 8546915
1378.9023 875.19611 4547.6489 8481376
1389.2393 864.8537 4493.9082 8415068
1410.8877 861.80963 4478.0908 8415068
1444.526 866.06659 4500.2104 7953746
1482.5082 872.72632 4534.8154 7889237
1517.1964 877.24438 4558.292 7033674
1556.0887 883.99268 4593.3569 7296590
1589.4845 887.43994 4611.2695 7165007
1603.807 880.30176 4574.1787 7231312
1643.4716 887.07959 4609.397 8086364
1677.9576 890.88623 4629.1772 8086363
1712.8405 894.77771 4649.3979 7823449
1735.3298 892.17426 4635.8701 7691864
1745.4656 883.3996 4590.2754 7626070
1759.1724 876.67389 4555.3276 7823963
1789.1217 878.12347 4562.8599 7166033
1809.7812 875.03827 4546.8286 7824218
1838.1558 875.71906 4550.3662 6574150
1851.4403 869.2951 4516.9863 4928807
1847.8625 855.24982 4444.0049 9797478
1900.0314 867.03802 4505.2583 9138778
1893.5585 852.11047 4427.6924 6177582
1959.6461 869.79724 4519.5957 6111538
1937.1385 848.21393 4407.4453 5387562
1995.6711 862.21783 4480.2119 5190699
2021.8893 862.07605 4479.4751 4928302
2010.0145 845.90668 4395.4565 2036754
2024.688 841.18079 4370.9004 11574167
2041.9303 837.62811 4352.4399 11113615
2058.718 833.97986 4333.4834 6178367
2143.252 857.52722 4455.8389 6836295
2247.7102 888.37622 4616.1348 6902089
2258.7791 882.01636 4583.0879 7362896
2252.6355 869.1662 4516.3164 7560020
2265.0044 863.67694 4487.7935 8021083
2267.0591 854.42773 4439.7334 8810342
2377.7461 885.86322 4603.0767 9993849
2383.5923 877.96875 4562.0562 10849669
2426.5569 883.77026 4592.2012 10915718
2373.3369 854.80035 4441.6694 11179147
2407.124 857.45941 4455.4863 10389629
2479.3835 873.6167 4539.4419 10520958
2506.7859 873.79114 4540.3486 10323577
2540.0225 875.97406 4551.6909 9796978
2566.3735 875.76135 4550.5859 7823190
2555.7837 863.07831 4484.6831 6968397
2581.0554 862.64191 4482.4155 6639178
2609.3735 863.22241 4485.4316 5652540
2596.3162 850.24139 4417.9805 6244935
2600.0156 842.95233 4380.1055 5981763
2654.0125 851.95312 4426.875 5389626
2666.0095 847.42755 4403.3594 4534317
2685.0671 845.21216 4391.8481 4534059
2706.3987 843.74841 4384.2417 4402984
2741.9666 846.70856 4399.623 4468520
2752.9419 842.09027 4375.626 4139812
2781.4353 842.8667 4379.6606 5126706
2828.8245 849.30212 4413.0996 5324085
2842.6128 845.62378 4393.9868 5653307
2845.3418 838.75226 4358.2812 4600363
2837.332 828.86725 4306.917 5653051
2898.7141 839.24908 4360.8628 7232597
2948.7463 846.19049 4396.9312 7363926
2970.5769 844.98816 4390.6841 7692892
2999.1609 845.71118 4394.4409 7298647
3012.7651 842.23407 4376.373 7167061
3079.9949 853.6795 4435.8457 7627355
3097.8271 851.35583 4423.771 7758938
3095.0757 843.46155 4382.7515 7824731
3130.375 845.98206 4395.8481 8284769
3131.876 839.40216 4361.6582 8020827
3131.1306 832.33301 4324.9258 7889241
3152.0776 831.09814 4318.5093 7428690
3184.8821 832.98438 4328.3105 7033419
3224.9822 836.73346 4347.791 7756886
3242.1965 834.53223 4336.353 7625811
3285.4182 839.00732 4359.6064 6704453
3333.1375 844.55206 4388.418 6507333
3308.2219 831.74933 4321.8926 6441797
3362.3389 838.86078 4358.8452 7033933
3393.4778 840.17493 4365.6733 7297876
3417.5422 839.73077 4363.3657 7955551
3444.8376 840.08118 4365.1865 7231828
3460.6069 837.63654 4352.4839 6836815
3470.5552 833.82959 4332.7021 5784386
3504.1248 835.71198 4342.4834 4205100
3567.9651 844.7337 4389.3618 4863544
3615.332 849.75293 4415.4424 5916491
3635.9067 848.448 4408.6616 4535610
3673.6558 851.14081 4422.6538 1445905
3654.8135 840.77679 4368.8008 459011
3624.1624 827.86108 4301.689 458756
3598.3296 816.21875 4241.1938 458756
3592.5942 809.26508 4205.0615 524292
3592.8787 803.75397 4176.4248 327684
3512.7678 780.45618 4055.3662 262147
3466.7559 764.99957 3975.0513 327683
3653.0859 800.67584 4160.4307 985100
3680.7278 801.32599 4163.8086 1051148
3599.4871 778.42059 4044.7891 1445648
3654.022 784.98676 4078.9077 7299683
3715.6323 792.97668 4120.4243 7628389
3765.0625 798.2796 4147.9795 7167067
3792.478 798.87653 4151.0811 6245452
3852.6064 806.31226 4189.7183 6640467
3968.0835 825.16248 4287.667 6047814
3832.1372 791.82202 4114.4248 6575185
3777.7676 775.65253 4030.4058 5718592
3981.9175 812.43207 4221.5176 5258041
4050.5049 821.26611 4267.4204 7034195
4066.9304 819.47998 4258.1396 7034451
0 0 0 0
0 0 0 0
0 0 0 0
0 0 0 0
0 0 0 0
-4125.2095 903.51392 4554.542 23
-4091.6265 902.06061 4547.2158 23
-4062.1306 901.49512 4544.3652 21
-4029.6794 900.26178 4538.1484 21
-3964.9507 891.75238 4495.2534 21
-3962.1587 897.15228 4522.4736 21
-3903.7556 889.94794 4486.1572 21
-3891.7849 893.30267 4503.0679 21
-3856.2415 891.25549 4492.7485 21
-3825.8496 890.37891 4488.3296 21
-3806.4226 892.05963 4496.8022 21
-3776.126 891.19873 4492.4624 21
-3750.5188 891.44037 4493.6802 21
-3727.7778 892.3714 4498.3735 21
-3683.1782 888.04553 4476.5674 21
-3656.5259 888.01562 4476.4165 21
-3632.1624 888.54523 4479.0859 21
-3351.7036 825.97217 4163.6602 21
-3310.5928 821.89172 4143.0908 23
-3294.7876 824.07959 4154.1201 21
-3328.4861 838.77539 4228.2002 21
-3234.9973 821.39984 4140.6113 21
-3203.426 819.60046 4131.541 21
-3194.4167 823.59027 4151.6533 21
-3140.0237 815.85028 4112.6367 20
-3119.6106 816.88702 4117.8628 18
-3099.4155 817.99762 4123.4614 18
-3070.9092 816.91498 4118.0039 18
-3010.561 807.27673 4069.418 18
-2960.3027 800.21008 4033.7959 19
-2969.4065 809.20551 4079.1411 19
-2945.3157 809.22839 4079.2561 19
-2858.4644 791.86523 3991.7302 19
-2892.5771 808.00214 4073.075 18
-2735.6064 770.5849 3884.4575 65553
-2477.8303 703.896 3548.2842 131086
-2333.4709 668.56042 3370.1602 131083
-2314.0295 668.71387 3370.9336 459019
-2283.8081 665.72754 3355.8799 2036766
-2260.2349 664.64374 3350.4165 2628641
-2228.8008 661.20874 3333.1011 3681068
-2195.7546 657.2298 3313.0432 5062463
-2200.6355 664.63367 3350.3657 6443858
-2192.0854 668.07904 3367.7336 6509652
-2152.7532 662.12012 3337.6951 6969946
-2129.0359 660.89789 3331.5339 7233116
-2099.842 657.93677 3316.6072 7759461
-2087.0083 660.09424 3327.4827 6378319
-2093.4639 668.45203 3369.6138 6969945
-2060.8093 664.36243 3348.9985 7035995
-2050.6489 667.51562 3364.8933 7628132
-2039.097 670.27313 3378.7939 7562339
-1994.0551 661.96771 3336.927 7628132
-1987.6206 666.44086 3359.4758 7760233
-1945.0874 658.77832 3320.8494 7957612
-1938.083 663.1153 3342.7117 7694697
-1908.2175 659.63916 3325.1887 7694953
-1903.5231 664.88245 3351.6199 7760747
-1901.7465 671.2663 3383.8003 8485239
-1877.6595 669.82727 3376.5461 8617341
-1846.9644 665.97449 3357.1248 8815746
-1841.5425 671.25 3383.718 9079432
-1822.7101 671.69965 3385.9849 9276040
-1822.7045 679.17462 3423.6655 7892592
-1794.3647 676.14117 3408.374 7695212
-1786.6012 680.88025 3432.2634 7498862
-1774.4512 684.03754 3448.179 9999765
-1760.0194 686.37848 3459.9797 9276300
-1749.4996 690.31836 3479.8403 10000023
-1727.9833 689.9613 3478.0405 8355198
-1718.7789 694.57111 3501.2778 9013128
-1693.6656 692.78601 3492.2795 9933973
-1690.2097 699.92529 3528.2678 9539726
-1672.4357 701.23981 3534.8945 9671312
-1648.304 699.88818 3528.0811 9342347
-1638.0513 704.47083 3551.1816 8288376
-1602.099 697.97626 3518.4431 8749183
-1611.2318 711.21136 3585.1604 8616314
-1596.803 714.26099 3600.533 8616314
-1589.5129 720.62964 3632.637 9010559
-1567.5186 720.41516 3631.5559 6970203
-1548.3467 721.50995 3637.0747 7299425
-1526.9182 721.56927 3637.3738 7628389
-1521.6941 729.39764 3676.8357 8681334
-1498.7059 728.81488 3673.8982 8155760
-1487.8986 734.22571 3701.1736 8879226
-1474.847 738.67444 3723.5994 7102045
-1449.1606 736.83398 3714.322 8220526
-1452.1362 749.73499 3779.3547 7233118
-1424.0073 746.72937 3764.2036 6904663
-1400.0328 745.84137 3759.7273 7824739
-1394.3783 754.84198 3805.0986 7890275
-1369.9459 753.80615 3799.8772 7758946
-1348.3319 754.31232 3802.4287 8153448
-1326.1899 754.5354 3803.5532 7824739
-1312.8684 759.8714 3830.4514 7627360
-1288.385 758.82098 3825.1567 7429981
-1277.795 766.06238 3861.6599 7561567
-1255.3312 766.31952 3862.9561 6970201
-1243.6317 773.27936 3898.04 8286575
-1232.5775 780.91156 3936.5132 9076862
-1209.8767 781.31683 3938.5566 8682104
-1192.6959 785.37317 3959.0039 8418675
-1186.0864 796.69287 4016.0659 7826538
-1168.4445 800.914 4037.3442 8813689
-1147.1849 802.78003 4046.7507 9339774
-1119.6021 800.20636 4033.7769 8879223
-1089.3954 795.60413 4010.5774 8813431
-1074.8214 802.46808 4045.1782 9010556
-1051.4271 802.90973 4047.4045 7300194
-1050.4139 820.862 4137.9004 8352882
-1029.0377 823.37909 4150.5889 8155761
-1000.7244 820.33295 4135.2334 9208449
-989.53815 831.52594 4191.6567 9405827
-952.19513 820.74951 4137.3335 8418416
-925.2132 818.57025 4126.3477 7628384
-905.90771 823.2486 4149.9312 7496026
-886.26276 827.87103 4173.2324 7298134
-863.41864 829.68457 4182.3745 8613738
-846.95911 837.92194 4223.8979 7889758
-815.46075 831.32941 4190.6655 7428437
-792.79114 833.60608 4202.1421 7560021
-766.72998 832.34857 4195.8032 7954524
-741.32147 831.73901 4192.7305 7428435
-701.59637 814.46735 4105.6655 7559763
-671.23578 807.21637 4069.1138 8876127
-631.36438 787.56122 3970.0337 10455409
-601.46576 779.30603 3928.4199 10257773
-573.46552 772.94464 3896.3528 9731434
-543.50031 763.29004 3847.6846 9402730
-523.37512 767.21429 3867.4666 11047559
-503.87503 772.45618 3893.8904 10324095
-480.88989 772.60223 3894.6267 10258562
-459.48083 775.42273 3908.8447 10323329
-435.48547 773.94635 3901.4023 5651514
-420.62613 789.45142 3979.5623 9203822
-411.81229 818.81885 4127.6011 8349286
-392.34796 829.38135 4180.8457 3286564
-373.24457 842.18219 4245.374 3745829
-344.06161 832.44635 4196.2964 6574672
-321.6394 838.82532 4228.4521 6903122
-296.85965 839.61432 4232.4292 7297878
-274.74268 848.77515 4278.6084 2693142
-248.33241 845.18683 4260.52 2826012
-221.40604 838.83087 4228.48 7561563
-194.77315 832.10638 4194.5825 7693150
-170.00632 832.55286 4196.833 6310984
-140.94357 808.50922 4075.6309 5258039
-118.12744 817.76434 4122.2856 8875624
-93.615517 817.04535 4118.6611 8940647
-69.345497 818.67517 4126.8765 9795444
-45.446644 828.84991 4178.167 10255482
-20.46837 820.13245 4134.2227 8742500
4.0349364 820.74701 4137.3208 9071720
28.956873 832.33923 4195.7563 10257019
54.303936 839.79504 4233.3403 9007212
79.624779 842.26147 4245.7734 7231572
106.46094 855.72333 4313.6338 7034450
133.94055 868.14264 4376.2383 6376262
159.05029 863.66388 4353.6616 5718589
188.85149 882.35498 4447.8818 7232084
213.9709 877.27246 4422.2607 7166291
241.34679 881.54089 4443.7778 7034961
269.26654 886.76068 4470.0903 7166034
296.31433 888.43085 4478.5098 6771275
322.86496 888.45844 4478.6489 6508103
348.47842 886.09888 4466.7544 6507845
373.78885 883.35626 4452.9292 5652535
396.67331 875.6203 4413.9326 6310463
422.37506 874.67566 4409.1709 6836550
450.14066 877.86609 4425.2534 5980984
475.74701 876.72601 4419.5063 5322540
497.84482 869.5766 4383.4668 6770499
522.30475 867.05762 4370.7686 10191736
542.76862 858.45636 4327.4106 9336938
566.0639 854.90735 4309.5205 9797492
592.45862 856.14374 4315.7529 9994614
605.8219 839.22577 4230.4707 10652543
660.06134 878.02661 4426.063 6178616
688.50671 880.86121 4440.3516 10784383
732.6076 902.77905 4550.8379 10258040
765.24048 909.5105 4584.7705 10981250
780.82056 896.20746 4517.7109 12033940
808.74866 897.48944 4524.1733 12428442
830.45294 892.00397 4496.5215 12099734
857.15784 892.06378 4496.8232 11770769
894.03973 902.39215 4548.8877 10718081
907.87903 889.53876 4484.0947 9007465
922.37256 878.03931 4426.127 7758683
956.8266 885.65137 4464.4985 7429719
975.69739 878.81799 4430.0518 7495513
1008.291 884.37897 4458.0845 7363928
1017.9631 870.06476 4385.9277 5456697
1024.979 854.24945 4306.2041 13945269
1031.2933 838.6322 4227.4785 11248523
1055.4691 837.93579 4223.9683 10788229
1092.6234 847.33661 4271.3569 10722692
1121.8549 850.30658 4286.3281 10328198
1126.6433 835.02881 4209.314 12105383
1202.7832 872.15051 4396.4419 12367788
1214.7642 862.16217 4346.0913 9338738
1245.5042 865.62622 4363.5532 4337447
1280.7854 872.04114 4395.8906 5257520
1310.7522 874.65417 4409.0625 6836039
1333.7363 872.59656 4398.6904 7494224
1357.5022 871.11963 4391.2451 6770246
1401.6178 882.51111 4448.6689 7560016
1405.8477 868.83203 4379.7134 8546912
1460.7002 886.36731 4468.1074 8415582
1493.197 889.95398 4486.1875 8217947
1522.527 891.56073 4494.2871 6507075
1525.5649 877.9809 4425.832 7823191
1548.3544 876.03516 4416.0239 8152414
1593.302 886.48254 4468.688 6573383
1617.8096 885.40161 4463.2397 6771019
1628.3494 876.83429 4420.0522 7166033
1666.4293 883.13318 4451.8047 7166287
1673.5417 873.08008 4401.1279 7495253
1714.9163 880.93579 4440.7275 7626582
1736.0284 878.30267 4427.4541 7889754
1767.2845 880.80365 4440.0615 7363665
1783.3694 875.78088 4414.7422 7560787
1793.8597 868.1958 4376.5063 7889494
1821.6849 869.09705 4381.0493 8942183
1844.2056 867.47778 4372.8867 8481376
1873.8143 869.19141 4381.5249 6178620
1890.5168 864.95325 4360.1606 7099722
1917.5807 865.50592 4362.9468 6902090
1937.8835 863.03296 4350.481 2757651
1973.5728 867.38715 4372.4302 4336683
1920.0181 832.91418 4198.6543 3548195
1926.418 824.99908 4158.7549 655872
1960.4204 828.95557 4178.6992 9271925
2009.2504 839.00482 4229.3569 11047822
2082.4844 858.87146 4329.5029 4666155
2099.5745 855.38092 4311.9077 6309954
2126.8223 856.06299 4315.3457 6047037
2173.6331 864.50958 4357.9243 6112830
2211.9282 869.41058 4382.6299 6113088
2200.3792 854.83374 4309.1494 5850687
2262.8105 869.00256 4380.5732 6113858
2360.7427 896.32892 4518.3232 6836813
2404.2014 902.5918 4549.894 6508105
2356.2236 874.76917 4409.6421 6573641
2403.9851 882.71106 4449.6763 7758171
2434.8645 884.349 4457.9331 7692122
2462.1348 884.65491 4459.4756 9336692
2489.9023 885.13123 4461.8765 10192257
2535.791 891.97168 4496.3584 10850697
2606.4238 907.28308 4573.542 10455938
2632.0364 906.76935 4570.9526 9929338
2589.2578 882.94446 4450.853 9206130
2606.4548 879.84583 4435.2329 7232341
2599.427 868.71301 4379.1138 5982274
2613.8059 864.88379 4359.8105 4008482
2620.7407 858.69043 4328.5903 5653306
2619.2478 849.88251 4284.1904 5126962
2628.5356 844.70819 4258.1069 6113602
2624.0237 835.23975 4210.3774 4666410
2687.8293 847.49072 4272.1338 5784891
2687.7898 839.57007 4232.2061 7166798
2659.657 823.10156 4149.1899 6377284
2696.8071 826.95343 4168.6069 6113856
2728.2751 829.00873 4178.9673 6311492
2682.5454 807.78082 4071.9595 8153697
2740.4048 817.84662 4122.7002 6508618
2815.896 832.95007 4198.8354 5850688
2871.0845 841.83588 4243.6284 5915968
2931.0596 851.95892 4294.6572 6179912
3003.3594 865.45892 4362.71 6508618
3040.7607 868.75806 4379.3403 6969425
3073.4033 870.65314 4388.8936 7561306
3090.6875 868.20209 4376.5381 7824478
3107.4065 865.63446 4363.5947 7824220
3127.9761 864.17279 4356.2271 7955293
3126.7009 856.74957 4318.8071 7823447
3149.9365 856.10864 4315.5757 7297104
3165.2197 853.33398 4301.5889 7231311
3180.1624 850.51263 4287.3667 7823191
3228.5835 856.61859 4318.1465 7889241
3280.1465 863.45544 4352.6108 8349791
3312.8862 865.26947 4361.7549 8810344
3274.0476 848.50513 4277.2471 7428692
3285.4175 844.91034 4259.126 7231827
3305.3325 843.55115 4252.2749 7692379
3332.9812 844.17151 4255.4019 6179140
3372.198 847.69025 4273.1396 7297367
3390.928 846.04529 4264.8472 7363672
3381.5864 837.47235 4221.6318 6508621
3483.0042 856.25421 4316.3096 6376780
3524.9617 860.25122 4336.4585 6837333
3530.8252 855.44556 4312.2334 5784646
3532.9172 849.80182 4283.7837 6180432
3615.8152 863.53674 4353.0205 4535349
3585.0786 850.13092 4285.4429 5719624
3684.8098 867.63403 4373.6743 5391429
3666.5608 857.30658 4321.6147 3154724
3619.2632 840.37769 4236.2773 2102294
3603.272 830.901 4188.5063 2431260
3642.2429 834.1413 4204.8403 1905685
3616.9761 822.72601 4147.2969 1576719
3584.46 809.82697 4082.2737 1971221
3622.853 813.01379 4098.3379 1708049
3617.3777 806.37909 4064.8931 1970706
3665.3088 811.65863 4091.5068 3878188
3732.4939 821.10443 4139.1226 4272690
3697.3325 808.05896 4073.3613 4534576
3730.231 809.96075 4082.948 3415839
3768.3843 812.9718 4098.1265 4205352
3762.6362 806.53381 4065.6731 5652800
3780.3867 805.18274 4058.8623 6179144
3774.5481 798.8562 4026.9712 5784129
3968.5771 834.6441 4207.3745 5521214
3992.7639 834.48785 4206.5874 2888981
4118.2285 855.36945 4311.8496 3876388
0 0 0 0
0 0 0 0
0 0 0 0
0 0 0 0
0 0 0 0
-3827.5952 863.37354 4225.9531 23
-3801.0984 863.04358 4224.3384 23
-3752.0793 857.56177 4197.5063 20
-3745.5972 861.79364 4218.2202 21
-3714.4319 860.36523 4211.2285 21
-3669.1982 855.63678 4188.084 21
-3635.8918 853.64404 4178.3306 21
-3630.3022 858.17621 4200.5142 21
-3600.7905 857.0769 4195.1333 21
-3578.3567 857.65869 4197.981 21
-3546.9146 856.07446 4190.2266 21
-3513.3201 853.94464 4179.8018 21
-3544.5876 867.66199 4246.9438 21
-3667.0793 904.06531 4425.1274 21
-3638.4639 903.47156 4422.2212 21
-3605.686 901.82806 4414.1768 21
-3566.3411 898.50616 4397.917 21
-3521.9612 893.85742 4375.1626 21
-3395.8098 868.23254 4249.7368 23
-3366.8584 867.26233 4244.9878 21
-3270.0178 848.65839 4153.9272 21
-3266.407 854.15143 4180.814 21
-3231.8301 851.56915 4168.1743 21
-3180.1602 844.40833 4133.1245 21
-3144.125 841.32007 4118.0083 21
-3094.1211 834.41638 4084.2168 21
-3052.2874 829.62457 4060.7622 21
-3017.4746 826.67999 4046.3496 21
-2968.5525 819.79187 4012.6343 21
-2948.5977 820.85675 4017.8464 18
-2850.2427 799.93542 3915.4429 19
-2827.1885 799.97778 3915.6501 19
-2808.2798 801.20349 3921.6497 19
-2767.8342 796.25397 3897.4231 20
-2749.5715 797.65637 3904.2876 65554
-2728.345 798.21545 3907.0242 65554
-2585.8801 763.01062 3734.707 262161
-2427.2891 722.39844 3535.9229 196619
-2233.47 670.50336 3281.9119 327687
-2231.9658 675.93793 3308.5127 1313297
-2211.3884 675.64142 3307.0613 2891556
-2179.5569 671.87042 3288.6033 4601913
-2173.4619 676.03656 3308.9954 5390915
-2160.8416 678.23041 3319.7334 5719622
-2129.8467 674.64423 3302.1802 6246222
-2101.6606 671.88953 3288.6968 8023146
-2085.3914 672.92865 3293.783 8943992
-2075.6865 676.12567 3309.4316 8088938
-2063.447 678.55023 3321.2988 7562337
-2046.7147 679.52972 3326.0935 7693667
-2046.6603 686.11945 3358.3481 7100760
-2000.4352 677.20837 3314.731 7561311
-1985.9142 678.95984 3323.3037 7562080
-1957.5907 675.9801 3308.719 7693923
-1924.1633 671.15991 3285.1255 7759462
-1923.2986 677.71533 3317.2124 7299424
-1933.6008 688.38159 3369.4207 7102045
-1896.9327 682.37415 3340.0159 7299424
-1874.3558 681.36237 3335.0637 7037024
-1845.688 678.09131 3319.0527 7366758
-1825.4044 677.86328 3317.9365 8353912
-1819.9121 683.1828 3343.9739 9867152
-1817.1477 689.65466 3375.6519 9077892
-1809.8904 694.54657 3399.5962 7893618
-1801.191 698.98895 3421.3403 8025460
-1761.472 691.35767 3383.9875 8749440
-1740.5123 690.99811 3382.2278 8354682
-1748.319 702.18384 3436.9783 9209479
-1719.5844 698.784 3420.3369 7104359
-1683.7665 692.39038 3389.0422 6973286
-1700.8914 707.87598 3464.8396 9539213
-1694.1899 713.70288 3493.3606 10000022
-1676.0455 714.79382 3498.7004 9802898
-1653.9932 714.22461 3495.9141 9868434
-1636.046 715.43604 3501.8438 9473163
-1600.9717 709.09277 3470.7957 9143685
-1589.3906 713.12524 3490.5334 7432297
-1598.8038 726.80811 3557.5068 7498090
-1579.0471 727.41888 3560.4963 8024177
-1573.7137 734.78052 3596.5293 9406085
-1559.9368 738.34784 3613.9902 6445400
-1538.1082 738.15051 3613.0244 7102046
-1511.6791 735.70856 3601.0718 7759975
-1498.73 739.85107 3621.3481 8022890
-1491.2943 746.87531 3655.7295 8088683
-1478.5885 751.42816 3678.0144 8220269
-1461.412 753.81134 3689.6792 8154733
-1437.5668 752.7749 3684.6062 7562339
-1431.3433 761.07617 3725.2388 7825254
-1410.0264 761.48639 3727.2466 8220267
-1379.7704 757.00537 3705.3132 7496029
-1364.6342 760.8089 3723.9302 6640463
-1344.3839 761.83942 3728.9744 7693151
-1333.0767 768.05695 3759.4075 7692896
-1301.4924 762.60468 3732.72 7364445
-1304.9688 777.86255 3807.4028 7759459
-1276.4111 774.22675 3789.6067 8087654
-1255.0201 774.8855 3792.8311 7298908
-1245.8933 783.27881 3833.9136 7561824
-1213.6016 777.14972 3803.9136 7365214
-1204.6722 786.03229 3847.3914 8549233
-1205.7147 801.88959 3925.0081 8616053
-1172.9348 795.43396 3893.4094 7431523
-1164.535 805.58441 3943.0933 7760229
-1135.212 801.38031 3922.5154 7628130
-1122.9452 809.29266 3961.2437 7036250
-1091.8551 803.6875 3933.8081 7628387
-1071.5682 805.96332 3944.9475 7628131
-1056.7229 812.5246 3977.063 8944760
-1039.6652 817.64539 4002.1277 7365987
-1014.0778 816.14038 3994.7612 7958124
-1013.2714 834.98419 4086.9958 8023661
-982.96582 829.84692 4061.8506 7892074
-953.03363 824.7749 4037.0244 7892074
-938.30066 832.93408 4076.9614 8023144
-913.27069 832.14221 4073.0852 8351852
-896.55865 839.09216 4107.1035 7693920
-877.67615 844.34204 4132.7998 7627358
-855.88129 847.01105 4145.8638 7824480
-828.98114 844.63611 4134.2393 7429465
-803.07159 843.15674 4126.998 7627101
-786.55341 851.75409 4169.0796 7890015
-760.00421 849.69427 4158.9976 7561049
-722.49426 834.83142 4086.2483 8086620
-680.23901 813.2644 3980.6846 1969927
-647.89331 802.42096 3927.6089 9468265
-612.04053 786.26385 3848.5249 9600619
-586.336 782.39777 3829.6011 9600877
-564.11194 783.05145 3832.801 9732721
-535.66693 774.76239 3792.2285 10456188
-517.12079 780.69153 3821.2498 11640463
-499.2124 788.17072 3857.8582 11377035
-476.07166 787.71033 3855.6045 11113094
-448.38919 779.30994 3814.4871 8546655
-427.84024 783.07391 3832.9106 9335916
-412.1879 796.72473 3899.7275 10125690
-391.60666 801.90424 3925.0798 10125692
-369.66809 804.7829 3939.1699 9534068
-350.03671 813.41107 3981.4023 9073006
-340.23141 847.77063 4149.582 6968402
-314.78305 845.46875 4138.3149 4797235
-293.80191 855.78992 4188.834 8087138
-266.26334 847.15302 4146.5586 7626843
-246.90897 865.44623 4236.0986 7035219
-223.56401 872.30981 4269.6938 5916998
-196.72838 865.56708 4236.6899 1115911
-168.66907 850.67975 4163.8213 852482
-141.93472 838.51776 4104.292 3547680
-116.72192 832.17322 4073.2371 9204590
-93.520134 840.59613 4114.4648 8743268
-69.389969 843.67255 4129.5229 9532526
-44.972523 844.70532 4134.5781 9860721
-20.380735 841.01642 4116.522 9268069
3.9992206 837.78369 4100.6987 9597802
28.774466 851.80444 4169.3262 9795695
53.952564 859.28656 4205.9487 9467246
78.491913 855.08148 4185.3662 10191996
104.53038 865.30566 4235.4106 6705481
130.45497 870.81024 4262.354 6310981
157.7784 882.35175 4318.8462 6574153
183.82079 884.50745 4329.3975 6377288
204.7637 864.60272 4231.9702 7034961
230.26619 866.19373 4239.7573 6113859
260.24338 882.64813 4320.2969 6705996
288.42639 890.61475 4359.291 7495512
317.88016 900.87305 4409.502 7692634
335.99033 879.86694 4306.6836 7823962
363.64728 885.06226 4332.1133 6968909
388.90417 884.11627 4327.4829 6639175
417.10883 889.57404 4354.1968 6310211
447.44656 898.68005 4398.7681 1773838
465.95825 884.33887 4328.5723 5191475
485.08353 872.59814 4271.105 3416089
503.98999 861.64777 4217.5063 9336685
535.8974 872.90918 4272.6274 9666418
560.95233 872.49609 4270.6055 10258043
580.40417 863.77991 4227.9424 9797492
614.53723 876.73016 4291.3301 9402735
649.19739 889.37329 4353.2144 10455422
673.35638 887.21368 4342.6436 9468781
713.33752 905.29279 4431.1353 9994356
745.38037 912.37146 4465.7832 10849668
774.3587 915.34204 4480.3237 10717566
797.97992 911.99323 4463.9321 10980226
820.38318 907.51215 4441.9985 10783361
847.18829 908.02747 4444.521 11572876
868.08142 902.36633 4416.8115 12362905
896.17389 904.30127 4426.2822 12823199
908.41809 890.58893 4359.1646 11968146
930.06451 886.5976 4339.6284 9665390
950.19598 881.41589 4314.2651 9336686
965.80634 872.42175 4270.2417 1050632
977.05005 860.04315 4209.6523 1245441
997.39087 856.08929 4190.2993 4336423
1061.8171 889.24811 4352.6016 4271135
1058.3314 865.30817 4235.4229 8353380
1073.6863 857.52502 4197.3267 11050380
1096.5385 855.94659 4189.6006 13879732
1115.2303 851.26245 4166.6733 12365981
1139.6538 851.06146 4165.6895 12101785
1162.8611 849.9801 4160.3965 12035222
1199.5005 858.5578 4202.3818 11705745
1220.0255 855.48712 4187.3516 5126192
1284.9761 883.06921 4322.3579 4139043
1287.7477 867.67737 4247.019 3942177
1316.723 870.19299 4259.3325 5125934
1332.6144 864.12976 4229.6548 6573634
1381.1818 879.08789 4302.8706 7099979
1415.9729 884.89447 4331.292 7297358
1448.1221 888.87262 4350.7637 7165772
1487.5688 897.11255 4391.0957 7362895
1502.1495 890.33087 4357.9014 7494481
1525.9004 889.12183 4351.9834 9468785
1528.933 876.08136 4288.1543 8284511
1571.087 885.51746 4334.3413 8152926
1579.6373 876.0144 4287.8267 7560790
1638.6301 894.3432 4377.5405 7561046
1667.3864 895.85498 4384.9404 7166031
1672.7816 884.96167 4331.6211 7232081
1674.4404 872.45093 4270.3843 7034702
1715.42 880.49518 4309.7588 5982013
1740.7135 880.3703 4309.1475 6968136
1764.7407 879.61786 4305.4644 6507585
1789.3925 879.19354 4303.3877 7165770
1827.0449 885.07922 4332.1963 7033420
1822.9796 870.8725 4262.6587 6770507
1821.2994 858.1778 4200.522 7231827
1820.1188 846.05786 4141.1982 7166033
1830.0382 839.35126 4108.3716 7691610
1817.3796 822.60138 4026.3857 3743772
1836.6716 820.55994 4016.394 4139046
1890.8535 833.95905 4081.9783 5126196
1883.618 820.27368 4014.9924 7758430
1976.231 849.86908 4159.853 8218977
2002.7452 850.65997 4163.7241 9205871
2032.4645 852.77637 4174.0835 6639687
2026.3237 839.97675 4111.4331 6244417
2070.1982 847.9679 4150.5474 6638919
2098.7439 849.56628 4158.3711 6046783
2127.1184 851.05902 4165.6777 4599082
2160.2224 854.38818 4181.9727 5192245
2174.3679 850.22864 4161.6128 5718588
2233.0256 863.37244 4225.9478 6442312
2286.4424 874.22083 4279.0474 4600108
2288.0063 865.22266 4235.0044 6178883
2282.4509 853.75684 4178.8828 6507848
2331.6855 862.81165 4223.2031 6968397
2463.165 901.78448 4413.9634 6573637
2558.4397 926.82269 4536.5181 6507844
2609.8489 935.61469 4579.5522 6639684
2586.2498 917.61243 4491.4365 7626321
2512.2861 882.28943 4318.541 8087386
2506.2236 871.28467 4264.6758 6968903
2526.3005 869.49603 4255.9214 8482913
2548.0212 868.30322 4250.0825 9930104
2544.8413 858.73108 4203.23 9272431
2524.5039 843.61096 4129.2217 9798260
2481.2922 821.21082 4019.5796 3942685
2483.9165 814.26227 3985.5686 5390389
2507.0369 814.10028 3984.7756 4074531
2524.7097 812.18884 3975.4197 5653562
2541.717 810.10059 3965.1982 6903629
2568.5505 811.15369 3970.353 6837836
2568.2988 803.71185 3933.9275 5850941
2613.9062 810.62579 3967.769 7824217
2632.7488 809.18994 3960.7412 7429719
2653.3567 808.31744 3956.4705 5653309
2768.4548 835.99347 4091.9363 4732208
2857.5359 855.40076 4186.9287 4337450
2911.7939 864.13922 4229.7012 4008743
2949.6301 867.89673 4248.0928 3876899
2971.6453 866.97479 4243.5806 4995379
3015.8789 872.49622 4270.606 5455928
3041.8015 872.6723 4271.4683 6574153
3068.6641 873.1131 4273.6255 6639947
3087.4138 871.25708 4264.541 7100496
3096.6057 866.7561 4242.5098 6837581
3138.2324 871.33307 4264.9131 7494742
3140.0378 864.8689 4233.2725 7626327
3187.0442 870.85815 4262.5884 8086364
3237.4824 877.68378 4295.9976 8086619
3247.3093 873.479 4275.4165 8217949
3190.2781 851.49463 4167.8096 8086365
3209.2363 849.97406 4160.3672 7954779
3231.4805 849.34033 4157.2651 8020830
3266.3743 852.01587 4170.3608 7429465
3255.5581 842.8175 4125.3379 5061946
3304.625 849.14349 4156.3018 9273983
3332.3794 849.94006 4160.2007 11050134
3362.7549 851.38867 4167.291 11379098
3368.8691 846.71838 4144.4312 12431011
3461.9041 863.80383 4228.0596 11707033
3496.5476 866.17877 4239.6841 10720138
3537.5732 870.08966 4258.8267 8482663
3583.0317 875.02753 4282.9961 8483435
3601.9976 873.47162 4275.3804 7496541
3623.9128 872.64771 4271.3477 6970457
3520.5217 841.87042 4120.7021 6180942
3525.9329 837.35608 4098.6055 5588806
3547.9495 836.82001 4095.9819 5062462
3537.6941 828.73138 4056.3904 3154465
3606.3704 839.11743 4107.2271 3088672
3607.1833 833.67987 4080.6118 3286050
3640.9912 835.88959 4091.428 2890779
3660.4167 834.7901 4086.0459 3022366
3648.9187 826.69904 4046.4426 1576204
3641.3887 819.60675 4011.728 3679781
3628.2917 811.36145 3971.3701 5192249
3699.1755 821.88141 4022.8621 4731955
3691.1846 814.85443 3988.4668 4534574
3723.8853 816.84265 3998.1987 5389627
3787.6526 825.57727 4040.9519 5587005
3814.2729 826.15619 4043.7856 4994870
3847.5979 828.17096 4053.6475 4139560
3869.5327 827.72437 4051.4614 4074026
0 0 0 0
0 0 0 0
0 0 0 0
0 0 0 0
0 0 0 0
-3855.2498 894.83624 4256.4858 23
-3904.7773 912.30127 4339.562 23
-3876.1423 911.61493 4336.2974 20
-3848.0835 911.05603 4333.6387 21
-3838.7383 914.94983 4352.1606 21
-3782.9011 907.74023 4317.8662 21
-3772.2939 911.35956 4335.0825 21
-3746.7786 911.40222 4335.2856 21
-3692.4456 904.38721 4301.917 21
-3664.668 903.82391 4299.2378 21
-3645.0056 905.26831 4306.1084 21
-3350.2734 837.93555 3985.8252 21
-3594.488 905.39948 4306.7319 21
-3574.1414 906.71259 4312.978 21
-3534.0803 903.00714 4295.3525 21
-3506.0125 902.33478 4292.1543 21
-3351.6511 868.91113 4133.167 21
-3318.1702 866.56403 4122.0029 21
-3284.0708 864.01959 4109.8994 24
-3247.6824 860.83026 4094.729 21
-3218.2654 859.45471 4088.1858 21
-3180.9968 855.94568 4071.4941 21
-3146.4534 853.1217 4058.0615 21
-3127.9067 854.62512 4065.2129 21
-3098.9209 853.2774 4058.802 21
-3055.3074 847.84943 4032.9829 21
-2979.9988 833.47113 3964.5894 21
-2968.2498 836.78253 3980.3403 21
-2930.0059 832.61786 3960.5303 21
-2886.7957 826.96326 3933.6331 21
-2870.7637 829.06555 3943.6331 21
-2837.0408 826.05133 3929.2954 21
-2734.7427 802.85522 3818.958 21
-2651.0388 784.77637 3732.9619 21
-2784.0801 831.09528 3953.2881 21
-2740.9509 825.16437 3925.0762 65556
-2688.7996 816.39246 3883.3506 65555
-2734.929 837.56726 3984.0735 196625
-2468.637 762.5993 3627.4717 196623
-2311.1294 720.2146 3425.8594 196617
-2223.8494 699.15741 3325.6963 1444630
-2181.4678 691.96558 3291.4868 1970457
-2151.8948 688.74353 3276.1604 2890783
-2124.9292 686.30493 3264.5608 4535093
-2087.6487 680.45935 3236.7549 5983050
-2092.4551 688.35071 3274.2917 6970202
-2075.354 689.11542 3277.9294 7299165
-2055.3457 688.92023 3277.0007 7825508
-2030.3107 687.02014 3267.9629 8022886
-2003.0951 684.33868 3255.2078 8022630
-1976.3019 681.75067 3242.8975 7759716
-1978.1924 689.10388 3277.8745 8088681
-1952.1951 686.79181 3266.8767 7825509
-1918.877 681.83221 3243.2852 7693923
-1902.5585 682.87378 3248.2397 7167579
-1896.7086 687.73248 3271.3513 7299422
-1891.0609 692.76562 3295.2925 7167579
-1890.0261 699.61127 3327.8552 7891303
-1866.3157 698.11914 3320.7576 6904666
-1843.5314 696.94543 3315.1746 6971486
-1826.8118 698.06378 3320.4944 8879997
-1821.6427 703.66833 3347.1536 10262420
-1817.6741 709.86505 3376.6296 9538700
-1786.9463 705.63312 3356.4993 9407114
-1763.2837 704.12708 3349.3357 8749184
-1736.8052 701.44958 3336.5994 8091510
-1727.636 705.78168 3357.2061 8157305
-1726.5215 713.54346 3394.127 9802130
-1700.6038 711.11676 3382.5837 8157305
-1695.375 717.3866 3412.4075 9539472
-1672.3983 716.20715 3406.7971 9407886
-1667.3322 722.76282 3437.9807 9605264
-1662.9912 729.79901 3471.45 9605519
-1645.3894 731.11908 3477.729 9605519
-1623.1017 730.36401 3474.1375 8485755
-1573.8696 717.30939 3412.0403 7300454
-1574.0328 726.72034 3456.8054 6773852
-1572.7744 735.71454 3499.5884 9669512
-1564.7251 741.7301 3528.2026 10064270
-1552.1282 745.72357 3547.1985 9011326
-1533.8339 747.05176 3553.5164 8287089
-1530.6899 755.89874 3595.5989 7234401
-1509.765 756.09076 3596.5122 7496547
-1496.4174 760.13721 3615.7603 7628390
-1481.573 763.52997 3631.8987 8022377
-1455.2034 760.99567 3619.8435 7496290
-1433.8419 761.04376 3620.0723 7430753
-1416.757 763.39752 3631.2686 7891305
-1413.0795 773.15979 3677.7051 7167325
-1401.7902 778.99792 3705.4753 7496544
-1387.9583 783.58643 3727.3015 7759716
-1359.6724 780.03113 3710.3901 7496544
-1342.1113 782.61292 3722.6709 8219497
-1306.9578 774.85101 3685.7495 8416619
-1290.1217 777.86963 3700.1084 8022118
-1278.8485 784.40472 3731.1938 7561567
-1258.3077 785.38538 3735.8586 7627360
-1244.0206 790.37433 3759.5896 7429981
-1242.7887 803.99084 3824.3596 7824482
-1208.7225 796.47748 3788.6206 7628130
-1187.6023 797.3717 3792.8745 8483696
-1178.5796 806.57977 3836.6743 9207162
-1151.5916 803.61322 3822.5632 8418160
-1145.9259 815.70544 3880.083 7431008
-1130.1584 820.95508 3905.0537 8154474
-1103.1161 818.06274 3891.2957 7431008
-1075.658 814.73199 3875.4521 7496801
-1056.3048 817.52869 3888.7554 7956839
-1047.5237 828.81488 3942.4409 7430751
-1027.8079 831.76709 3956.4836 8154733
-1007.6522 834.4928 3969.449 7891561
-983.96259 834.35223 3968.78 7694180
-965.87238 839.06903 3991.2166 7496544
-950.36182 846.31995 4025.707 7233372
-922.24146 842.42566 4007.1833 7299163
-911.95233 855.04413 4067.2061 7825252
-886.39484 853.64349 4060.5435 7693151
-862.0766 853.39148 4059.3445 7495772
-840.27887 855.69177 4070.2864 7298136
-817.06116 856.63922 4074.7932 7363929
-793.86218 857.66455 4079.6707 7363673
-763.22229 850.46289 4045.4141 7231572
-735.42285 846.06195 4024.4802 6902347
-694.88293 826.21747 3930.0857 5125932
-651.16418 801.08594 3810.542 4072469
-631.64142 804.98486 3829.0879 3414024
-603.14838 797.31622 3792.6106 8940886
-583.3327 800.96893 3809.9851 9664863
-559.72272 799.49597 3802.979 10257258
-537.98138 800.6806 3808.6135 10323564
-513.92542 798.37317 3797.6379 10651762
-492.45596 800.05658 3805.6453 8873814
-465.88916 793.22278 3773.1389 9860199
-443.17523 792.59058 3770.1316 10189167
-426.80042 803.8302 3823.5955 9202530
-409.45032 814.39038 3873.8274 9729389
-382.6358 806.26233 3835.1646 9401194
-357.71964 801.36041 3811.8477 9203560
-336.66464 805.03052 3829.3049 9269868
-319.19046 818.41235 3892.959 9796728
-305.63263 844.70337 4018.0178 9928315
-284.31177 852.16901 4053.5298 7889501
-261.4332 855.9129 4071.3381 7495001
-238.54753 860.39233 4092.6458 6903119
-218.77852 878.39917 4178.2993 4272430
-197.51483 894.23523 4253.627 2431769
-168.70137 875.52307 4164.6187 918017
-141.29671 858.9621 4085.8425 589824
-117.27509 860.3703 4092.541 7428694
-93.081757 860.92468 4095.178 10981001
-68.874161 861.69159 4098.8262 9467504
-44.795769 865.7915 4118.3281 9861747
-20.396873 866.09711 4119.7817 9795440
4.0116096 864.75592 4113.4019 9334888
28.604897 871.34753 4144.7563 10256504
53.257751 872.82483 4151.7837 8151386
77.926918 873.55133 4155.2393 8283742
102.5612 873.63177 4155.6221 8547173
126.34286 867.82458 4127.999 7561048
152.75758 879.05371 4181.4126 7363926
177.6951 879.83386 4185.1235 7232596
203.18547 882.82513 4199.3521 7166547
226.60349 877.14166 4172.3179 7363669
253.52245 884.79504 4208.7227 7100754
277.13489 880.57123 4188.6309 6508616
297.83334 868.54395 4131.4209 6640203
324.62045 874.75092 4160.9458 7955806
339.08481 849.21985 4039.5015 7561561
366.66309 857.73346 4079.998 7100497
395.79617 868.60571 4131.7144 6771017
424.62259 877.57727 4174.3896 6244416
450.67032 880.13452 4186.5537 6836040
475.96747 881.03546 4190.8394 7231311
502.24573 883.57312 4202.9102 7493970
529.11713 886.86511 4218.5693 7691861
558.72589 894.24121 4253.6553 7494482
581.21014 890.06982 4233.8135 7560275
605.46692 888.84607 4227.9922 6902347
624.02954 879.69226 4184.4502 7757398
657.31555 891.2005 4239.1919 7757654
688.57001 899.20862 4277.2837 8678497
732.97223 923.20801 4391.4424 9402221
751.12659 913.63501 4345.9062 9467241
769.3457 904.77283 4303.7515 10190967
800.31049 910.98779 4333.314 7953748
816.87524 900.93433 4285.4927 9796462
849.37231 908.52911 4321.6191 10125171
858.4715 891.38452 4240.0669 10783872
880.83551 888.59662 4226.8057 11376267
919.16718 901.62573 4288.7817 11902613
949.65863 906.47021 4311.8257 11376778
958.62573 891.05365 4238.4932 11113602
983.71167 891.02441 4238.354 9534827
1005.9721 888.50104 4226.3511 6245442
1026.1608 884.31488 4206.439 1049344
1041.4597 876.21338 4167.9023 1245440
1089.8219 895.6601 4260.4048 655360
1092.8237 877.79126 4175.4077 655616
1109.0164 871.07434 4143.457 10719882
1133.5436 871.05298 4143.3555 11377037
1150.4149 865.27429 4115.8677 10455420
1167.8123 860.1228 4091.3638 10388090
1206.4694 870.52094 4140.8247 10389117
1235.351 873.59149 4155.4307 4796715
1268.656 879.60901 4184.0542 7494996
1283.6361 872.93408 4152.3032 4665384
1316.3397 878.3363 4178 6836552
1346.6813 881.992 4195.3896 6310979
1373.077 882.97778 4200.0786 6245443
1404.7987 887.29248 4220.6021 7100495
1424.1948 883.80737 4204.0244 6771528
1480.7357 903.0965 4295.7773 4862761
1504.8204 902.27325 4291.8618 5191983
1512.0299 891.5274 4240.7466 5586484
1531.4258 888.20087 4224.9229 5652277
1529.1415 872.60931 4150.7588 6508099
1576.5807 885.43719 4211.7773 7890009
1622.7561 897.16656 4267.5703 7758937
1616.7185 880.11212 4186.4473 7297874
1651.4349 885.42358 4211.7124 7692888
1694.865 895.17926 4258.1172 6969678
1694.7329 881.97784 4195.3223 5850428
1696.4048 870.08356 4138.7441 6047294
1700.5104 859.75861 4089.6316 5323317
0 0 0 0
1672.9561 822.38586 3911.8596 984068
1628.4584 789.57062 3755.7666 1903117
1654.9171 791.58014 3765.3254 4138539
1665.8932 786.22906 3739.8718 5322815
1659.896 773.1131 3677.4829 4401709
1651.7448 759.34674 3612 6573389
1692.3198 768.04669 3653.3833 7231315
1686.6195 755.79047 3595.0837 9665140
1871.8438 828.32782 3940.1238 6507332
1894.3433 827.95618 3938.356 6507332
1981.1917 855.37592 4068.7839 9402992
2020.8674 862.01459 4100.3623 8547940
2000.5613 843.21375 4010.9319 7034189
2057.6233 857.08136 4076.8962 6376003
2109.9004 868.6571 4131.959 1837833
2103.9158 856.25568 4072.9688 4796717
2144.3826 862.82611 4104.2227 3809565
2163.3652 860.70166 4094.1172 4270372
2192.8049 862.73859 4103.8062 3876128
2217.407 862.84833 4104.3281 4928815
2240.0229 862.19122 4101.2026 5324087
2302.6958 876.80066 4170.6958 5652025
2387.2256 899.33405 4277.8809 5718074
2382.1445 887.98975 4223.9189 6178623
2478.1638 914.17645 4348.4819 6310208
2458.7529 897.68109 4270.0181 6375998
2452.8132 886.38989 4216.3091 5849912
2470.8821 883.91528 4204.5376 5586996
2474.8311 876.48914 4169.2139 4797741
2494.8318 874.83862 4161.3628 4797742
2501.9277 868.7395 4132.3511 5785152
2478.5574 852.28241 4054.0691 4864049
2430.9629 827.89154 3938.0483 4074281
2481.9028 837.20233 3982.3376 4469299
2479.7554 828.59888 3941.4133 6048847
2500.543 827.74817 3937.3667 3878704
2548.8535 835.93976 3976.3318 7168866
2544.8923 826.99481 3933.7832 8616310
2587.3403 833.1568 3963.094 8351592
2605.4287 831.43427 3954.9004 8548713
2617.0046 827.6828 3937.0557 8942958
2634.7012 825.91614 3928.6523 9205873
2735.7295 850.07434 4043.5662 5718845
2826.2705 870.58246 4141.1177 5324602
