# .PCD v0.7 - Point Cloud Data file format
VERSION 0.7
FIELDS x y z rgb
SIZE 4 4 4 4
TYPE F F F U
COUNT 1 1 1 1
WIDTH 1292
HEIGHT 1
VIEWPOINT 0 0 0 1 0 0 0
POINTS 1292
DATA ascii
-1313.361 900.79846 2219.8423 6970457
-1307.7108 905.99811 2232.6558 7825509
-1288.7035 901.95551 2222.6934 6115148
-1276.9955 902.99078 2225.2449 6838614
-1267.3497 905.52124 2231.4805 7167580
-1248.0496 901.13416 2220.6694 6773078
-1245.5637 908.92352 2239.8647 7694179
-1229.4523 906.83063 2234.7073 7496544
-1218.5653 908.58759 2239.0369 7759716
-1208.8895 911.2962 2245.7119 7430751
-1187.9425 905.47406 2231.3643 7233372
-1177.3475 907.50012 2236.3572 7364958
-1160.4375 904.64923 2229.3318 7167578
-1147.9512 905.22113 2230.741 7431007
-1149.0308 916.62842 2258.8521 7101528
-1134.9995 916.10803 2257.5696 7431006
-1124.1158 918.146 2262.5918 6838868
-1113.3505 920.33093 2267.9761 6706769
-1092.1775 913.8609 2252.032 6443854
-1087.5801 921.27173 2270.2944 7364956
-1072.1814 919.604 2266.1848 7364956
-1054.7592 916.13635 2257.6394 6904405
-1042.1647 916.82678 2259.3408 6312268
-1033.6678 921.18677 2270.0852 6509648
-1018.4034 919.55127 2266.0547 5983304
-1005.5085 920.03998 2267.2593 6772050
-985.50555 913.95013 2252.252 6640978
-965.02649 907.24548 2235.7295 6509646
-963.06195 918.00238 2262.2378 6640719
-944.46863 912.98834 2249.8818 7232857
-939.49268 921.1828 2270.0754 6640463
-929.22284 924.34918 2277.8784 6772048
-919.99249 928.65826 2288.4973 5324603
-899.74048 921.80438 2271.6072 6640463
-889.133 924.77338 2278.9236 6640719
-871.78937 920.71967 2268.9341 6641490
-859.30908 921.75568 2271.4873 6904405
-847.61389 923.68024 2276.23 6772306
-837.06281 926.9342 2284.2485 7034965
-822.70599 926.01129 2281.9744 6640463
-806.19324 922.59045 2273.5444 6970198
-793.94153 924.01245 2277.0486 7167320
-779.58575 922.99243 2274.5349 6706509
-768.18646 925.49847 2280.7107 6048322
-754.48804 925.27484 2280.1594 6245701
-742.53522 927.22266 2284.9595 6179396
-733.98041 933.56488 2300.5886 5455928
-727.32806 942.61285 2322.8855 5389879
-710.6405 938.7533 2313.3745 4600620
-693.86884 934.62866 2303.2102 5916223
-677.6593 931.1109 2294.5413 5719357
-663.72668 930.64166 2293.385 6048579
-647.4234 926.75928 2283.8176 5916993
-638.87433 934.04785 2301.7788 6640460
-623.46039 931.39893 2295.2512 6443338
-609.22174 930.42688 2292.8557 6377545
-592.62158 925.72162 2281.2605 6706510
-578.31042 924.45575 2278.1409 5982530
-565.83069 926.12683 2282.259 6377545
-549.51135 921.44141 2270.7129 6246473
-537.15985 923.34125 2275.3945 5720129
-524.13165 924.14581 2277.3772 5917508
-509.83783 922.70221 2273.8198 6049094
-496.93369 923.76367 2276.4355 6049094
-484.25983 925.32446 2280.2817 6509645
-468.33011 920.57489 2268.5774 6838610
-457.7627 926.39648 2282.9236 5654336
-440.25797 918.10583 2262.4927 6115143
-427.82047 920.1933 2267.637 6246986
-417.2981 926.66888 2283.595 5918279
-400.57886 919.35645 2265.5747 5852229
-390.12418 926.41309 2282.9644 6246987
-376.51312 926.21191 2282.4688 6509904
-362.22177 924.26001 2277.6587 7497054
-349.67096 926.7702 2283.8445 6773332
-335.12509 923.98181 2276.9731 6970453
-324.10406 931.08569 2294.4792 6246986
-310.37552 930.69299 2293.5115 6180679
-297.18909 931.96423 2296.6443 6049094
-282.73126 929.17932 2289.7812 5917510
-268.58444 927.18707 2284.8718 3943718
-254.54378 925.36932 2280.3923 5983301
-241.5674 927.43378 2285.4797 6904404
-228.60428 929.7973 2291.3042 6049353
-215.53288 931.99121 2296.7107 5983559
-202.10022 932.81335 2298.7368 6180682
-188.36812 932.27252 2297.4038 6312011
-173.97231 928.10657 2287.1377 5983303
-161.16605 932.43298 2297.7993 6180425
-147.23648 930.45929 2292.9355 3680548
-133.15077 926.99719 2284.4038 5259580
-119.70373 927.70111 2286.1384 6180682
-106.14581 927.61554 2285.9277 5785923
-92.757675 929.20605 2289.8472 5917509
-78.994629 926.94214 2284.2683 5917765
-65.975098 934.27094 2302.3286 6574925
-52.223412 932.35004 2297.595 5916739
-38.946819 940.54742 2317.7959 5127478
-24.916607 929.56207 2290.7246 5916994
-11.495091 942.16846 2321.7905 5390907
2.2510483 936.64032 2308.1675 5588029
16.073492 945.09265 2328.9966 5391164
29.632994 937.41718 2310.082 5588543
42.920532 928.70801 2288.6199 5983559
56.710701 932.44568 2297.8306 6378060
70.50489 934.78912 2303.6055 6115144
84.728317 941.14026 2319.2566 5916995
99.893906 954.72296 2352.7285 5917251
113.83668 954.72296 2352.7285 6114373
127.29479 951.10175 2343.8049 6574924
140.22523 944.63837 2327.8772 6114373
153.79761 943.2699 2324.5049 6048580
168.43069 948.09717 2336.4006 5324857
182.62415 949.90436 2340.8542 5259064
195.85332 946.79486 2333.1914 4272169
207.95175 938.98981 2313.9573 4666927
224.30379 950.16895 2341.5061 3745825
237.12694 945.96771 2331.1531 4864306
251.46585 947.94299 2336.0208 4863795
266.1731 951.02826 2343.6238 3877156
278.62338 946.14337 2331.5859 3548191
292.60147 946.66302 2332.8665 4271915
308.35596 952.6236 2347.5552 5390139
321.67035 950.85681 2343.2014 5324859
331.14014 938.34186 2312.3606 5720389
346.41449 942.61609 2322.8936 4667443
360.02939 942.22076 2321.9194 3812903
375.57941 946.73248 2333.0376 6312524
390.70129 949.88281 2340.801 5918021
405.34512 951.69482 2345.2664 6312522
421.82388 957.55188 2359.7 2826523
433.13651 951.68225 2345.2354 4339764
444.37607 946.02209 2331.2869 5654849
458.40994 946.47247 2332.397 5062456
476.48624 954.99854 2353.4077 1905423
490.50345 955.13568 2353.7456 4075822
504.26041 954.77246 2352.8506 5062459
515.68524 950.1319 2341.4148 4536371
529.32208 949.70325 2340.3586 4733750
545.87744 954.39923 2351.9309 3746854
558.4552 952.0802 2346.2161 4931128
571.54364 950.72321 2342.8721 4338478
581.84796 944.9093 2328.5449 5391167
598.16821 948.9082 2338.3994 5456704
612.99988 950.41809 2342.1201 4732724
627.58783 951.49152 2344.7654 4206381
638.68372 947.33887 2334.532 4666931
653.30646 948.48254 2337.3503 3877159
665.40692 945.99298 2331.2153 4798260
678.95746 945.62427 2330.3066 4666416
692.57733 945.36493 2329.6675 5126967
705.61359 944.33459 2327.1284 4995381
716.06104 939.94568 2316.3127 4271658
728.7876 938.6571 2313.1375 5192503
733.97076 927.87988 2286.5791 5455932
750.4353 931.49664 2295.4919 5192760
774.38043 944.10486 2326.5623 5061431
788.37598 944.35382 2327.176 4798259
808.88422 952.26123 2346.6624 6114119
817.75537 946.43329 2332.3003 4798002
838.47437 954.28314 2351.6448 4798772
850.18286 951.789 2345.4985 4929845
860.56183 947.91071 2335.9412 4600623
882.27612 956.44342 2356.9683 4798773
898.27802 958.61395 2362.3174 4667443
909.76459 955.97327 2355.8098 4799029
919.98596 952.10321 2346.2727 4996408
930.62732 948.77637 2338.0745 4865079
941.84619 946.12732 2331.5464 3680550
959.76819 950.19116 2341.5608 4535602
976.87244 953.34094 2349.323 4338479
981.81262 944.69812 2328.0244 4667443
1009.5221 957.89978 2360.5574 5128251
1024.261 958.6015 2362.2864 5522753
1038.9308 959.22028 2363.8115 5720387
1056.3833 962.35803 2371.5437 5654851
1066.3419 958.67572 2362.4695 5917510
1075.8453 954.68524 2352.6357 5588547
1083.592 949.25775 2339.2607 4930617
1108.5123 958.82196 2362.8298 2037011
1120.0216 956.69214 2357.5813 4798777
1136.0205 958.40259 2361.7964 2891036
1149.4346 957.91718 2360.6001 3285794
1155.2657 951.20001 2344.0469 3746088
1174.6958 955.70605 2355.1514 4272430
1190.2505 956.99066 2358.3169 4206894
1204.7413 957.39996 2359.3254 4600882
1214.3676 953.97821 2350.8933 4140587
1229.3649 954.80566 2352.9324 4140845
1244.6785 955.85742 2355.5244 3746343
1258.6378 955.85742 2355.5244 3680296
1264.6833 949.91339 2340.8762 3811882
1288.869 957.57556 2359.7583 3154466
1294.0253 951.08704 2343.7686 3747118
1308.1584 951.2641 2344.2048 3089447
1327.9548 955.51233 2354.6738 3155497
1343.7158 956.79871 2357.844 656647
1352.6289 953.23285 2349.0566 590855
1368.1099 954.32098 2351.738 393220
1376.4353 950.44629 2342.1895 458756
1386.295 947.69763 2335.416 524292
1395.8196 944.77661 2328.2178 524290
1404.1385 941.10461 2319.1689 589826
1407.535 934.23669 2302.2441 655360
1415.2627 930.34772 2292.6606 655360
1425.7878 928.35425 2287.748 655360
1436.485 926.50928 2283.2014 655360
1438.3156 919.03326 2264.7783 524288
1452.6871 919.63458 2266.2603 1312007
1462.2751 917.22455 2260.321 852225
1457.6935 906.05084 2232.7856 589824
1468.5726 904.60156 2229.2141 5851976
1469.502 897.10394 2210.7378 4798770
1483.5662 897.68658 2212.1736 6377801
1499.2894 899.25403 2216.0364 8680041
1516.6069 901.74225 2222.168 5784894
1522.4709 897.43622 2211.5566 8416608
1534.632 896.88385 2210.1953 10917752
1545.8817 895.81281 2207.5559 1708304
1560.2157 896.53186 2209.3281 5520956
1565.3689 892.00751 2198.1787 8879994
1595.0094 901.39648 2221.3159 10390899
1618.274 907.05798 2235.2676 10061940
1650.4587 917.58673 2261.2136 7824978
1670.3635 921.17383 2270.0532 8417640
1715.6279 938.57715 2312.9404 7759709
1748.1259 948.7757 2338.0728 7431260
1797.9753 968.15723 2385.8347 9338231
1829.355 977.36829 2408.5337 3616301
1845.2192 978.21167 2410.6121 4666930
1858.1187 977.48236 2408.8147 8482928
1846.7954 964.11877 2375.8828 8746099
1856.3159 961.75647 2370.0613 6377294
1857.8649 955.33057 2354.2261 6179914
1875.2156 957.06549 2358.5012 5455933
1891.5494 958.2594 2361.4436 5783871
1894.5327 952.72223 2347.7981 5323835
1914.3026 955.64575 2355.0027 4469040
1940.4895 961.70715 2369.9399 7232089
1993.2661 980.76477 2416.9036 6903124
1983.8373 969.16132 2388.3091 8021349
2010.2417 975.10376 2402.9531 8942451
1977.1602 952.31079 2346.7844 7561054
1994.2811 953.84784 2350.572 7824225
2045.3605 971.49286 2394.0547 7561308
2051.8479 967.86053 2385.1035 6048069
2048.4424 959.64349 2364.8542 7692383
2058.1409 957.63519 2359.9053 4139307
2080.6145 961.55811 2369.5725 4863031
2099.0916 963.59375 2374.5889 3284000
2116.5349 965.13086 2378.377 3481636
2143.6433 971.02576 2392.9038 4007724
2167.4041 975.33691 2403.5276 4994106
2169.9629 970.11279 2390.6538 4994363
2180.7244 968.60004 2386.926 4599605
2174.0334 959.40491 2364.2664 4599606
2142.9204 939.61896 2315.5078 4599606
2154.908 938.86328 2313.6455 3744296
2169.3728 939.18951 2314.4495 4270896
2185.3916 940.1803 2316.8911 4665652
2188.8442 935.78632 2306.063 3482147
2228.1958 946.69922 2332.9558 5192255
0 0 0 0
0 0 0 0
0 0 0 0
0 0 0 0
0 0 0 0
0 0 0 0
0 0 0 0
0 0 0 0
0 0 0 0
-2106.522 983.29645 2388.2642 23
-2101.0066 987.35583 2398.1238 23
-2087.625 987.7486 2399.0779 23
-2030.777 967.43988 2349.7512 23
-2012.7644 965.47931 2344.9893 23
-1995.9092 964.05035 2341.5186 23
-1985.6823 965.82532 2345.8298 23
-1960.3278 960.2157 2332.2048 23
-1939.1023 956.56305 2323.3333 21
-1915.8203 951.83649 2311.8533 20
-1896.7667 949.15784 2305.3472 21
-1874.6781 944.91046 2295.031 21
-1862.6799 945.72418 2297.0073 65557
-1846.3982 944.35901 2293.6917 65557
-1831.9623 943.92462 2292.6367 196628
-1808.0192 938.54846 2279.5789 131092
-1799.052 940.92413 2285.3489 196627
-1779.5494 937.78381 2277.7214 327698
-1761.535 935.38574 2271.897 393231
-1749.542 936.17273 2273.8083 393229
-1693.2012 913.05731 2217.665 393225
-1666.4269 905.64893 2199.6711 655369
-1654.212 906.09845 2200.7632 1049099
-1639.8047 905.34479 2198.9326 1903638
-1624.9675 904.33978 2196.4915 2626842
-1614.5586 905.80292 2200.0452 3613481
-1580.2223 893.75684 2170.7874 4994875
-1572.0729 896.4455 2177.3176 5521217
-1567.0114 900.95416 2188.2683 6705746
-1555.0079 901.51343 2189.6267 6837329
-1537.1909 898.68329 2182.7529 6048327
-1535.4258 905.26929 2198.749 6837841
-1518.0466 902.68323 2192.468 7627104
-1506.2036 903.37299 2194.1433 6377034
-1492.8256 903.146 2193.592 6969428
-1483.7765 905.55713 2199.4482 7101014
-1466.6202 903.01923 2193.2842 7035221
-1440.0253 894.57245 2172.7683 7101014
-1430.0461 896.38843 2177.1792 7034964
-1418.3597 897.15765 2179.0474 6969427
-1407.5988 898.53162 2182.3845 7101013
-1396.042 899.41852 2184.5386 7102041
-1379.374 896.99811 2178.6599 7102043
-1376.1183 903.33636 2194.0544 6970456
-1371.6887 909.01758 2207.8533 6838358
-1353.7653 905.77972 2199.989 7101016
-1348.7228 911.18121 2213.1082 7627360
-1330.6115 907.77283 2204.8298 6509392
-1314.9487 905.98395 2200.4849 6904664
-1300.9653 905.32788 2198.8914 7299165
-1285.516 903.62787 2194.7625 6970200
-1271.9314 903.21747 2193.7656 6180684
-1261.2871 904.90802 2197.8718 6114634
-1229.7601 891.49542 2165.2947 7561824
-1237.7106 906.72015 2202.2732 7693153
-1230.2567 910.86432 2212.3386 7693410
-1217.511 911.13751 2213.0022 7364701
-1206.6302 912.82758 2217.1069 7891302
-1189.4913 909.76825 2209.6765 7167579
-1190.9976 921.06018 2237.1028 7759716
-1168.2136 913.60992 2219.0073 6969429
-1153.0579 912.02386 2215.1548 4404011
-1142.9337 914.42664 2220.991 3350298
-1133.1696 917.17694 2227.6709 5390134
-1124.2758 920.70471 2236.2393 5653565
-1105.3453 915.99939 2224.8108 7233112
-1095.6091 918.89166 2231.8357 6707539
-1081.7023 918.31384 2230.4324 6575440
-1065.4346 915.69281 2224.0662 6772820
-1051.8678 915.35663 2223.2495 6970200
-1043.5834 919.66681 2233.7183 6969942
-1027.2772 916.9278 2227.0657 6640976
-1026.6187 928.26593 2254.6042 6575183
-1005.8663 921.49487 2238.1584 6575185
-986.63867 915.95831 2224.7109 6772051
-977.54083 919.80322 2234.0496 5982790
-956.75409 912.60406 2216.5642 7759201
-947.63965 916.49335 2226.0105 6904148
-932.99329 915.06677 2222.5457 6312268
-919.24408 914.49182 2221.1492 6575696
-910.48505 918.93671 2231.9451 6509904
-911.24622 933.26276 2266.7407 6707026
-880.15814 914.91077 2222.1667 6641233
-869.638 917.70605 2228.9561 6509904
-861.15295 922.76837 2241.2515 6772305
-847.26672 922.11102 2239.6548 6114631
-834.85345 923.06104 2241.9624 7232855
-820.65533 922.03662 2239.4744 6640718
-807.03192 921.63489 2238.4985 7364697
-795.64526 923.81671 2243.7979 7167318
-786.35773 928.55157 2255.2981 7167061
-768.6076 923.28436 2242.5049 6377288
-751.76031 918.93549 2231.9421 6311494
-745.94916 928.16278 2254.3538 6508874
-736.33691 932.91077 2265.8857 7035217
-727.47168 938.79919 2280.1877 5324599
-714.43982 939.43164 2281.7239 5982785
-698.21674 935.8114 2272.9309 6969680
-690.23395 943.31036 2291.1445 6114371
-669.76471 933.70325 2267.8105 5916993
-653.36725 929.49518 2257.5898 5719614
-643.4964 934.59021 2269.9648 4995892
-626.19922 928.8869 2256.1123 6048580
-618.77502 937.89935 2278.0022 6509131
-605.19781 937.7796 2277.7114 6509131
-585.93695 928.64648 2255.5286 5522236
-572.06531 927.82758 2253.5396 5785408
-553.15802 918.60706 2231.1443 6114373
-545.58398 928.21649 2254.4841 6246216
-529.74695 923.8974 2243.9937 6312266
-521.26538 932.51447 2264.9231 6312266
-506.45612 929.96777 2258.7378 6048837
-493.74194 931.2345 2261.8145 6246216
-480.56509 931.67487 2262.884 5456956
-461.2457 919.89008 2234.2605 4667442
-447.58713 919.03198 2232.1765 7101783
-436.42621 923.40643 2242.8013 5589057
-422.0863 921.1181 2237.2432 5588799
-411.57288 927.30273 2252.2646 6575438
-394.24338 918.02997 2229.7427 5456957
-381.3414 918.78156 2231.5684 6246474
-367.94403 918.35083 2230.522 6773331
-356.63684 923.29913 2242.5405 6312781
-342.47168 920.94501 2236.823 6115401
-329.75806 922.46191 2240.5073 6641230
-320.55869 934.34937 2269.3799 7035989
-307.34848 935.07532 2271.1431 6246729
-294.12451 935.8241 2272.9617 6575440
-278.14185 927.44586 2252.6125 5325372
-265.6246 930.36084 2259.6924 6312268
-253.2576 934.13934 2268.8699 6246475
-238.72273 929.89709 2258.5662 6443854
-224.70651 927.29132 2252.2371 6378061
-211.23936 926.76514 2250.959 5720131
-198.91608 931.52496 2262.5198 6443854
-185.28394 930.40021 2259.7881 6707025
-172.5753 934.099 2268.7717 5917510
-159.43947 935.9151 2273.1829 5654338
-144.95004 929.38763 2257.3286 5325373
-132.38335 935.1142 2271.2375 7233113
-118.51689 931.91693 2263.4719 5456959
-104.73679 928.66919 2255.5837 6509647
-91.406021 929.03809 2256.4797 5193787
-78.581703 935.56311 2272.3279 5588288
-64.922485 932.79126 2265.5955 5916740
-51.320065 929.60297 2257.8516 5719105
-37.733387 924.55139 2245.5823 5588285
-24.711031 935.35602 2271.8247 6180422
-11.285987 938.53882 2279.5554 5719872
2.2317674 942.17926 2288.3975 5325371
15.713455 937.41608 2276.8284 5391163
29.117367 934.55762 2269.8857 5654335
42.240082 927.33234 2252.3367 5917509
55.910454 932.7132 2265.4058 6378061
69.538078 935.43518 2272.0171 5785923
83.442436 940.39282 2284.0583 5456957
96.816925 938.82849 2280.2588 6575438
111.20327 946.25739 2298.3025 6246474
126.40739 958.2644 2327.4656 6246473
139.10223 950.7583 2309.2344 6180681
152.34947 948.034 2302.6177 5917510
167.01344 953.849 2316.7412 5785922
181.27538 956.65887 2323.5659 5588543
194.16035 952.3183 2313.0234 5061685
205.22964 940.23181 2283.6672 2890516
221.48708 951.93909 2312.1025 4732463
232.51239 941.10498 2285.7881 4732720
246.22995 941.76093 2287.3813 5916993
259.8053 941.83289 2287.5562 3548192
273.9176 943.74768 2292.2068 4732466
286.90048 941.77411 2287.4133 5324344
299.90219 940.0376 2283.1956 3482142
315.93173 947.53204 2301.3984 3942693
329.00723 945.91309 2297.4663 4271658
341.63806 943.19537 2290.8652 4337710
360.67828 957.70392 2326.1042 3679522
375.56641 960.52527 2332.9568 3811364
388.09985 957.33789 2325.2151 4141099
401.58258 956.63043 2323.4968 5654338
415.44385 956.84167 2324.01 5259579
429.49884 957.47125 2325.5391 4207149
441.03262 952.61591 2313.7463 6114632
453.6282 950.27771 2308.0671 4930617
474.45605 964.81696 2343.3806 3351842
487.53271 963.21521 2339.4902 4338482
501.72641 963.84802 2341.0271 3417637
515.34882 963.37872 2339.8875 3746344
525.76672 957.10065 2324.6389 3154206
536.888 952.39081 2313.1995 4009515
550.08252 951.50177 2311.0403 4404016
566.67926 956.39783 2322.9319 4404014
581.25519 957.73206 2326.1726 4864822
591.70575 952.36469 2313.136 5522754
605.41394 952.36469 2313.136 4996410
618.83551 951.92383 2312.0654 6312270
631.36377 950.15784 2307.7759 5390912
645.97821 951.53955 2311.1321 5126970
663.42059 956.94318 2324.2563 5061432
676.80951 956.39899 2322.9346 4074536
690.01727 955.62543 2321.0559 3679780
695.75037 944.73273 2294.5994 3350302
714.57056 951.68744 2311.4912 5126712
720.3736 941.36987 2286.4316 5258298
737.57397 946.05237 2297.8044 5126967
745.6908 939.125 2280.979 4929588
763.63763 944.60382 2294.2864 5324859
774.81104 941.65906 2287.134 4535086
796.39447 951.24976 2310.428 4798259
803.94989 944.04382 2292.926 4206122
815.79639 942.03235 2288.0405 4732209
833.88184 947.17322 2300.5269 4929845
846.94354 946.5343 2298.9751 4271915
860.55475 946.52008 2298.9404 2890262
878.526 951.22705 2310.373 4074537
884.58984 943.0946 2290.6206 4140844
902.77356 947.9342 2302.3752 4272172
912.5069 943.88873 2292.5493 4666930
928.74707 946.59375 2299.1194 4403758
956.94104 961.22791 2334.6633 3022620
965.16541 955.67169 2321.1682 2890521
974.95605 951.80084 2311.7666 1576718
995.63782 958.52222 2328.0918 3812136
1012.0144 960.97198 2334.0417 5851719
1028.5052 963.46265 2340.0911 5456961
1046.3959 967.18085 2349.1221 5456959
1056.1207 963.35291 2339.8247 4601649
1064.2855 958.21967 2327.3569 6114891
1067.5115 948.82794 2304.5459 4601652
1094.62 960.63269 2333.2178 5127996
1107.649 959.9411 2331.5378 2167568
1120.2396 958.89105 2328.9875 4799031
1133.5334 958.46136 2327.9438 3877929
1149.1672 959.99664 2331.6729 3877931
1157.559 955.51764 2320.7939 4667190
1177.297 960.39954 2332.6514 4141360
1188.5321 958.31232 2327.5818 4666675
1197.9773 954.84619 2319.1633 4337710
1218.9215 960.5202 2332.9443 3811366
1226.319 955.51172 2320.7795 3811110
1239.3268 954.93713 2319.384 3745832
1265.1769 964.16205 2341.7898 3614503
1260.1757 949.93066 2307.2244 3417638
1272.6077 949.00519 2304.9763 2693915
1296.4293 956.50269 2323.1865 3549483
1307.3988 954.45978 2318.2249 4010290
1325.3451 957.49982 2325.6086 3615534
1350.4374 965.58691 2345.2507 3878963
1359.3175 962.03528 2336.6243 3221292
1373.2694 962.10852 2336.8022 459268
1381.1877 957.99542 2326.8123 458756
1392.1082 956.02533 2322.0271 524292
1401.3812 952.97351 2314.6147 524292
1399.438 942.42743 2289.0002 524290
1412.2969 941.95642 2287.8562 458752
1420.6121 938.49274 2279.4434 524288
1428.9319 935.09717 2271.1963 655360
1426.8848 925.04431 2246.7793 655360
1439.2607 924.4411 2245.3145 655362
1441.9626 917.69238 2228.9229 655362
1453.9127 916.89844 2226.9944 655360
1471.3894 919.57275 2233.4897 458752
1470.0234 910.5282 2211.5222 5983564
1482.1968 909.95569 2210.1316 8351853
1499.4052 912.45709 2216.2073 4798766
1506.7267 908.95093 2207.6912 8943467
1524.59 911.80969 2214.6348 3876896
1535.3214 910.39081 2211.1885 7429967
1539.0613 904.88519 2197.8162 7628365
1548.9879 903.07898 2193.4292 5521977
1556.8522 900.11041 2186.219 6443586
1571.2546 900.93988 2188.2336 10127979
1593.452 906.18854 2200.9819 10653809
1612.8 909.74475 2209.6194 9930086
1638.7997 916.96558 2227.1575 7562067
1683.9996 934.72839 2270.3003 8482664
1701.9247 937.19037 2276.28 7101782
1730.7274 945.55627 2296.5996 7692895
1790.4449 970.5498 2357.3047 5126712
1797.725 966.95142 2348.5649 5653055
1839.215 981.66779 2384.3083 4139818
1829.5684 969.07404 2353.7202 458752
1839.7355 967.08612 2348.8921 3745317
1842.1404 961.07855 2334.3005 6507851
1845.235 955.51764 2320.7939 7429466
1857.7484 954.88019 2319.2458 6969429
1886.8958 962.7392 2338.334 6180428
1876.0587 950.23126 2307.9543 5786443
1919.5417 965.21863 2344.3562 7759719
1922.5433 959.78137 2331.1499 5193280
1937.2202 960.2085 2332.1875 4995130
1952.2174 960.78741 2333.5935 6771541
1978.895 967.06622 2348.8438 7100248
1967.0861 954.58075 2318.5186 7824226
1987.425 957.76086 2326.2424 8350570
2022.2877 967.84796 2350.7424 7955811
2012.3195 956.48834 2323.1516 8415851
2050.9797 968.23993 2351.6943 7626335
2102.5391 985.88104 2394.5417 6902611
2122.7356 988.67847 2401.3362 7626590
2141.0405 990.56342 2405.9143 6244169
2132.9233 980.27991 2380.9375 4993846
2136.0757 975.27679 2368.7859 2296849
2173.4272 985.85175 2394.4707 2888472
2186.8813 985.52008 2393.665 3086878
2146.0376 960.88104 2333.8208 4205104
2135.3027 949.95233 2307.2769 6442322
2161.6865 955.57086 2320.9233 3810856
2160.5996 949.05176 2305.0896 4468786
2164.998 945.00903 2295.2705 4534579
2197.293 953.11731 2314.9641 5060923
2183.1956 941.12628 2285.8398 4205359
0 0 0 0
0 0 0 0
0 0 0 0
0 0 0 0
0 0 0 0
0 0 0 0
0 0 0 0
0 0 0 0
0 0 0 0
-2067.8115 979.12024 2344.3765 23
-2067.042 985.3764 2359.356 23
-2035.2017 976.80524 2338.8335 23
-2017.1337 974.77197 2333.9651 23
-2000.493 973.40515 2330.6924 23
-1980.1514 970.20593 2323.0322 23
-1978.6959 976.28021 2337.5764 23
-1939.7892 963.83173 2307.77 23
-2008.8833 1005.2503 2406.9414 23
-1904.4379 959.80054 2298.1179 23
-1887.1694 957.94812 2293.6826 23
-1870.5742 956.41296 2290.0068 23
-1859.1931 957.54089 2292.7075 65557
-1835.8336 952.4707 2280.5676 65557
-1817.3954 949.89752 2274.4065 65554
-1804.5471 950.22961 2275.2014 131091
-1787.76 948.47681 2271.0046 65555
-1771.7416 947.10834 2267.728 196627
-1754.2994 944.95209 2262.5652 196626
-1737.7781 943.26233 2258.5193 196626
-1717.0958 939.27045 2248.9612 327695
-1669.4132 920.33081 2203.6128 262158
-1645.2981 914.18774 2188.9041 393228
-1627.0048 911.20752 2181.7683 393226
-1617.9968 913.42139 2187.0691 1115410
-1593.2131 906.69324 2170.9592 1509651
-1579.8186 906.38977 2170.2327 2693152
-1566.9337 906.3761 2170.2 3218978
-1551.5431 904.9007 2166.6675 4798009
-1536.1993 903.42834 2163.1421 5324095
-1513.6666 897.66785 2149.3494 5324094
-1500.3473 897.31989 2148.5161 6508880
-1505.5244 908.12292 2174.3826 7100759
-1484.3384 903.07306 2162.2913 7298392
-1471.6418 903.14539 2162.4644 6574670
-1452.3408 899.13 2152.8501 6706256
-1439.5275 899.09564 2152.7678 7627358
-1433.5935 903.39563 2163.0637 6903635
-1417.0074 901.00018 2157.3281 6442827
-1401.9351 899.53241 2153.8137 6772049
-1392.2019 901.495 2158.5129 6574669
-1376.1877 899.38904 2153.4705 6311753
-1365.5723 900.80505 2156.8608 6311500
-1362.4714 907.25159 2172.2961 6509136
-1351.339 908.422 2175.0986 6641235
-1341.3959 910.42212 2179.8877 7562337
-1335.9435 915.53876 2192.1387 6772821
-1321.9846 914.86896 2190.5352 7759459
-1294.3115 904.60101 2165.9497 7562337
-1285.899 907.72345 2173.426 6707285
-1268.1976 904.28571 2165.1948 6444113
-1257.9337 906.13525 2169.6233 6509649
-1243.1334 904.72137 2166.238 6312270
-1228.0583 903.07599 2162.2983 6575442
-1216.9281 904.32733 2165.2947 6312527
-1204.0966 904.32776 2165.2954 6443855
-1192.3657 905.16357 2167.2969 6179913
-1190.7897 913.81061 2188.001 5916994
-1176.5327 912.80945 2185.6038 5982531
-1164.8835 913.83179 2188.0518 6312010
-1153.1086 914.77728 2190.3157 5193785
-1142.1143 916.37073 2194.1309 6246217
-1127.6116 915.1535 2191.2166 4667184
-1119.8754 919.46356 2201.5361 6575438
-1106.9015 919.52405 2201.6809 7562334
-1086.1019 913.00751 2186.0781 6838612
-1082.0424 920.57574 2204.1992 6707026
-1069.8444 921.32031 2205.9819 6772819
-1058.0038 922.39484 2208.5547 6904405
-1045.246 922.68658 2209.2534 7167577
-1029.983 920.7464 2204.6079 6772819
-1018.4597 922.14221 2207.95 6904405
-1006.1528 922.85577 2209.6584 6904404
-989.20416 919.27435 2201.0833 7035991
-964.54083 908.33228 2174.8838 5851717
-962.81146 918.98383 2200.3875 6311755
-956.88269 925.86444 2216.8623 6706512
-931.79279 914.13849 2188.7861 6377291
-926.76105 922.0376 2207.6995 6443341
-915.20557 923.57941 2211.3911 6903634
-898.1203 919.50446 2201.6343 7100757
-890.54773 925.19226 2215.2529 5390393
-874.54749 922.1637 2208.0015 6180166
-865.17047 926.13312 2217.5056 6574923
-849.16962 923.02496 2210.0635 5916994
-836.92712 923.96869 2212.3232 6179909
-826.91925 927.44867 2220.6555 6508874
-809.85693 923.00122 2210.0068 6245961
-798.52661 925.04779 2214.907 5850946
-787.13324 927.08856 2219.7932 7232600
-779.69135 933.93176 2236.1785 7561822
-762.93274 929.65894 2225.9478 6509389
-747.9483 927.43573 2220.6245 6114887
-736.02185 928.99255 2224.3521 6180680
-723.89288 930.34583 2227.5925 6312265
-713.95868 934.62256 2237.8325 6245958
-698.50073 931.6933 2230.8188 5916992
-688.5304 936.11194 2241.3987 6903888
-677.08466 938.65894 2247.4971 6245958
-668.10327 944.79321 2262.1848 4864048
-653.12048 942.51813 2256.7373 4864305
-636.92133 938.35565 2246.771 4272169
-616.55719 927.74841 2221.3733 6443339
-606.77411 932.94727 2233.8213 7298390
-595.29327 935.70953 2240.4351 6377290
-580.15228 932.7132 2233.2607 5653568
-567.73297 934.05481 2236.4731 5850944
-550.59167 927.5061 2220.793 6640460
-538.50031 929.35193 2225.2126 5983301
-524.18713 927.35968 2220.4424 6312266
-510.90094 927.12848 2219.8889 7167575
-499.7803 930.91882 2228.9644 5983300
-487.88049 933.42426 2234.9634 6772561
-473.48428 931.16003 2229.542 5983300
-458.1825 926.93372 2219.4226 4008997
-444.79245 926.43951 2218.2393 5258807
-430.3736 923.70709 2211.6968 5587259
-416.57117 922.1676 2208.0107 5258294
-402.92291 920.88055 2204.9292 6048067
-388.56827 917.83887 2197.646 4404013
-376.85858 921.05029 2205.3354 5522750
-363.9516 921.46118 2206.3193 6180937
-350.86469 921.43024 2206.2451 6641744
-338.70166 923.91699 2212.1995 6312780
-326.39407 926.19391 2217.6511 6180938
-312.53763 924.08228 2212.5952 6904405
-301.40707 930.19836 2227.2393 6641233
-286.25955 923.90979 2212.1821 6707282
-274.31241 927.84259 2221.5986 6970455
-261.48056 929.02863 2224.4387 6707027
-249.98431 935.33795 2239.5454 6443856
-238.29391 941.5874 2254.509 6180684
-222.82361 932.75653 2233.3645 5720131
-209.46721 932.21808 2232.0752 6641233
-196.82434 934.99634 2238.7275 7035991
-182.5609 929.92163 2226.5769 6509646
-170.42674 935.74731 2240.5256 5720132
-156.26495 930.48383 2227.9229 6706770
-142.16473 924.64917 2213.9526 6575440
-130.50905 935.14404 2239.0811 6443854
-116.84069 931.96075 2231.4592 5851460
-103.25014 928.66492 2223.5676 6180682
-90.427315 932.31995 2232.3191 5983303
-77.479874 935.72266 2240.4666 5785924
-63.995476 932.70697 2233.2458 6245706
-51.091465 938.78302 2247.7942 5784898
-37.683208 936.612 2242.5959 5521982
-24.25561 931.33264 2229.9553 5653568
-11.090596 935.56543 2240.0901 5390910
2.184622 935.55121 2240.0559 5391165
15.414459 932.81512 2233.5049 5391166
28.588383 930.78668 2228.6479 5522752
41.795624 930.78217 2228.6372 6246475
55.07436 931.98975 2231.5286 6246475
68.242325 931.21808 2229.6809 6838610
81.920143 936.52551 2242.3889 5785666
95.671204 941.07184 2253.2744 5917251
109.68402 946.76385 2266.9033 5851715
123.27417 947.96344 2269.7756 6246217
136.7184 947.91528 2269.6602 6246472
150.91396 952.61841 2280.9211 5851458
163.89577 949.51648 2273.4941 6049094
177.36899 949.51648 2273.4941 5851715
191.14351 951.01575 2277.0837 5324857
204.21532 949.05139 2272.3804 5390649
218.70718 953.52124 2283.083 4732719
230.63081 946.92572 2267.2908 4074790
243.25406 943.77075 2259.7366 5127478
257.89838 948.37708 2270.7659 4534830
272.26404 951.55261 2278.3694 4929845
285.04465 949.15021 2272.6169 4534830
299.13306 951.1228 2277.3401 4534830
312.69531 951.32434 2277.8228 3482401
325.47125 949.216 2272.7747 4469296
340.93237 954.7951 2286.1331 5258812
354.8627 955.82465 2288.5981 4864054
371.58188 964.01361 2308.2056 4798260
382.33423 956.69061 2290.6716 4140331
396.54376 958.22394 2294.343 1774096
407.70193 952.52661 2280.7014 3942951
421.65976 953.52588 2283.094 4600881
434.74033 952.54102 2280.7358 4864565
456.74496 970.57892 2323.9253 4141358
466.35159 961.98645 2303.3518 4272943
480.68158 963.349 2306.6143 3811880
497.1655 968.83344 2319.7461 4206636
505.90097 959.32959 2296.9902 4141100
518.38116 957.23883 2291.9841 3417635
530.49414 954.59399 2285.6514 3812393
543.94238 954.42377 2285.2439 4009772
556.93048 953.47394 2282.9697 4272944
571.70398 955.55347 2287.9487 4864567
586.76312 958.00293 2293.8137 4996154
598.06238 954.34174 2285.0476 4864054
612.81079 956.22479 2289.5562 4601139
622.05011 949.61603 2273.7324 5456445
636.15973 950.56476 2276.0042 4337451
654.1427 957.14166 2291.7517 5850946
668.03107 957.58179 2292.8054 4666416
678.94281 953.82245 2283.8042 2626835
690.6452 951.29919 2277.7625 3679267
701.29761 947.4541 2268.5559 3547682
712.39075 944.33783 2261.0945 4600623
730.36664 950.29199 2275.3508 4732465
743.65417 950.04071 2274.7493 4205864
758.05035 951.18951 2277.5 4403501
772.31775 952.13928 2279.7742 5192760
783.92993 949.83929 2274.2671 2824727
795.4342 947.48865 2268.6387 4929845
808.71326 947.29492 2268.1748 3613728
825.83459 951.53455 2278.3262 4337709
839.13318 951.3042 2277.7744 3350559
853.40906 952.17145 2279.8511 2495507
868.64423 954.06525 2284.3855 3153693
879.66229 951.34027 2277.8608 3614500
891.66528 949.74658 2274.0452 4930360
893.59277 937.6286 2245.03 4207150
914.63397 945.62744 2264.1821 4470322
930.25659 947.87372 2269.5608 4404272
946.71747 950.89807 2276.802 5127995
963.37225 954.02942 2284.2996 5193789
972.73541 949.953 2274.5393 4404273
983.21777 947.06616 2267.6272 3680550
1004.5156 954.53455 2285.509 5127737
1020.8072 957.11017 2291.6763 5193274
1034.6565 957.35864 2292.271 4535344
1047.1992 956.4071 2289.9927 4798774
1062.2555 957.74622 2293.1992 5325117
1076.9636 958.74164 2295.5825 4930361
1095.9092 963.43744 2306.8259 3022619
1111.6689 965.25122 2311.1689 5193789
1119.7069 960.39783 2299.5481 4140847
1128.5461 956.34015 2289.8325 2693658
1138.9172 953.66162 2283.4189 2035985
1150.6163 952.14484 2279.7874 3416867
1169.1349 956.24097 2289.595 4140075
1185.3003 958.34045 2294.6218 4732468
1197.2119 956.99213 2291.3936 4732211
1211.7249 957.73004 2293.1604 4206124
1219.3505 953.06836 2281.9985 3877159
1233.6953 953.70319 2283.5186 2956830
1241.4156 949.25891 2272.8772 1772556
1254.0297 948.61163 2271.3276 3351330
1266.093 947.5661 2268.8242 4601910
1282.0713 949.44165 2273.3149 4338739
1294.0922 948.37817 2270.7686 5720392
1312.6143 952.05188 2279.5647 4207154
1332.9521 956.95428 2291.303 4931134
1330.0308 945.22797 2263.2258 4734270
1355.0487 953.39355 2282.7771 4075831
1386.2286 965.69031 2312.2202 590853
1398.1832 964.48438 2309.3328 327682
1390.7721 950.07275 2274.8259 458754
1399.7346 947.01556 2267.5059 524290
1408.0441 943.57892 2259.2773 524288
1421.6821 943.7442 2259.6731 524288
1416.136 931.29041 2229.8542 655360
1418.2491 924.05731 2212.5354 655360
1422.8379 918.55493 2199.3606 655361
1434.4454 917.64246 2197.1758 655360
1439.9725 912.89166 2185.8008 720897
1477.3287 928.22418 2222.5125 655360
1484.0491 924.20691 2212.8936 984583
1488.6074 918.92548 2200.2478 6179916
1504.1558 920.46094 2203.9243 8087913
1516.4297 919.9834 2202.781 7890785
1511.5781 909.21313 2176.9929 6114117
1526.4701 910.40045 2179.8357 5785149
1531.2838 905.6073 2168.3594 5916219
1551.785 910.0946 2179.1035 8218714
1568.3762 912.23346 2184.2249 9469794
1587.339 915.70551 2192.5381 10127208
1601.882 916.5921 2194.6609 10587503
1624.2454 921.90332 2207.3779 5652010
1643.3376 925.28772 2215.4814 6376776
1660.8372 927.72888 2221.3264 5456443
1690.7512 937.01172 2243.553 5983301
1730.4768 951.54474 2278.3506 5850691
1771.3218 966.46362 2314.0718 4008488
1795.3593 972.05316 2327.4551 4074287
1814.225 974.77875 2333.9812 2891041
1825.267 973.29114 2330.4194 655362
1829.219 968.07367 2317.927 720898
1842.9816 968.0874 2317.9597 984585
1842.2843 960.56158 2299.9402 3877160
1827.7878 946.00427 2265.0845 3482144
1817.797 933.97418 2236.28 2562843
1863.475 950.51349 2275.8813 8351076
1878.9772 951.53394 2278.3245 9601405
1898.8086 954.71631 2285.9443 9206392
1938.4622 967.74969 2317.1511 6706260
1957.3573 970.30914 2323.2795 5850696
1979.4286 974.39642 2333.0659 5521217
1971.2911 963.65961 2307.3579 5915719
1981.3318 961.89569 2303.1345 5980741
2004.9199 966.68805 2314.6091 6770001
2036.6364 975.30774 2335.2478 8151653
2049.4636 974.82635 2334.0952 7955044
2051.8733 969.42957 2321.1733 7889251
2059.8318 966.70892 2314.6592 8086887
2092.0286 975.32422 2335.2874 7626592
2127.2495 985.22705 2358.9983 8086888
2195.2729 1010.0936 2418.5381 7165784
2193.1431 1002.5679 2400.519 7231321
2165.8408 983.70624 2355.3569 4468786
2142.45 966.85101 2314.9995 3284000
2135.4602 957.56494 2292.7651 3678758
2128.2397 948.29346 2270.5657 4007981
2148.4187 951.27026 2277.6934 5192511
2161.4385 951.05981 2277.1895 4271407
2178.2832 952.5246 2280.6965 4863544
0 0 0 0
0 0 0 0
0 0 0 0
0 0 0 0
0 0 0 0
0 0 0 0
0 0 0 0
0 0 0 0
0 0 0 0
-2086.1353 1001.813 2365.1509 23
-2114.6516 1022.3764 2413.6985 23
-2025.767 986.07318 2327.9912 23
-2025.4215 992.66547 2343.5547 23
-1987.8029 980.9549 2315.9075 23
-1969.2516 978.5564 2310.2451 23
-1948.9255 975.23627 2302.4067 23
-1929.1877 972.16577 2295.1575 23
-1911.0959 969.8869 2289.7776 23
-1896.8977 969.56561 2289.019 23
-1876.4996 966.04803 2280.7144 23
-1862.2692 965.67749 2279.8396 21
-1846.043 964.25916 2276.4912 21
-1826.2643 960.95068 2268.6802 21
-1805.8884 957.27661 2260.0061 19
-1791.3184 956.64807 2258.5222 131091
-1777.6646 956.50311 2258.1802 65557
-1762.8162 955.70844 2256.304 65555
-1745.5498 953.58069 2251.2805 19
-1723.6143 948.84973 2240.1113 19
-1715.2092 951.55157 2246.4902 19
-1699.1021 949.98938 2242.802 131090
-1682.4917 948.11914 2238.3865 196626
-1649.8875 937.1344 2212.4531 327695
-1606.7998 919.97156 2171.9338 393228
-1588.3059 916.72638 2164.2725 393225
-1570.7661 913.98364 2157.7971 1114893
-1536.8528 901.59021 2128.5378 2561568
-1540.7378 911.34955 2151.5784 2890787
-1515.7932 904.0766 2134.408 3811886
-1495.2069 899.30267 2123.1372 4535351
-1483.005 899.53333 2123.6819 5982537
-1468.0591 898.08917 2120.2725 6640466
-1455.4463 898.05981 2120.2031 5127226
-1445.2516 899.53497 2123.6858 7561567
-1440.8817 904.69342 2135.864 7495773
-1423.8983 901.95319 2129.3948 7101014
-1406.7279 899.04449 2122.5278 6772049
-1398.9532 902.14246 2129.8416 7561565
-1390.3035 904.72729 2135.9441 6245707
-1374.0869 902.39032 2130.4268 6706258
-1365.2106 904.87518 2136.2932 7166551
-1348.5028 902.16724 2129.9001 7167836
-1335.3333 901.79773 2129.0276 6049098
-1337.6843 912.00256 2153.1201 6838614
-1319.4799 908.25488 2144.2722 7233629
-1315.3752 914.23413 2158.3884 7694180
-1296.4419 909.9231 2148.2107 7299422
-1280.939 907.95807 2143.5715 7233629
-1259.163 901.46271 2128.2368 7299422
-1253.7893 906.69745 2140.5955 7167836
-1245.2341 909.71503 2147.7195 6904407
-1235.0798 911.61456 2152.2041 6378063
-1220.7769 910.45972 2149.4775 6641235
-1211.4276 913.01392 2155.5076 5325375
-1195.8575 910.88409 2150.4795 5786182
-1183.6213 911.27521 2151.4028 5785925
-1175.381 914.78479 2159.6885 4996408
-1155.5013 909.21307 2146.5344 6838612
-1143.6837 909.9317 2148.231 7035991
-1140.287 917.44171 2165.9612 6378060
-1120.3098 911.63055 2152.2419 5851460
-1108.5349 912.43713 2154.146 5917510
-1098.826 914.98267 2160.1558 7036248
-1085.6844 914.69629 2159.4795 6904404
-1075.9291 917.28986 2165.6025 6575184
-1055.423 910.66968 2149.9734 5654338
-1048.3051 915.58118 2161.5686 6378061
-1041.0286 920.47382 2173.1196 6575440
-1026.4873 918.98499 2169.6047 7364956
-1011.5565 917.10529 2165.167 6443854
-1002.7858 920.83398 2173.97 7035991
-991.55725 922.37341 2177.6042 7035991
-973.51849 917.53485 2166.1812 6838612
-963.87396 920.58417 2173.3801 6246475
-951.45184 921.0274 2174.4265 6378061
-937.52203 920.00311 2172.0083 6772562
-922.35229 917.7168 2166.6106 6114889
-913.41602 921.65552 2175.9094 6442828
-901.23944 922.39062 2177.645 6509131
-885.55273 919.50244 2170.8264 5916994
-868.28021 914.85834 2159.8621 6114373
-863.04108 922.94385 2178.9509 6246216
-852.30621 925.30835 2184.5334 6180165
-832.14099 917.34985 2165.7444 5192500
-824.95557 923.67517 2180.6775 5784894
-811.651 923.24133 2179.6533 5521979
-800.58453 925.38049 2184.7036 6838609
-789.34363 927.38489 2189.4358 6969682
-774.3891 925.02039 2183.8535 6706510
-759.20984 922.30261 2177.437 6838095
-754.65942 932.62604 2201.8093 5719615
-740.4187 931.12665 2198.2695 5916993
-728.41357 932.43518 2201.3589 6443080
-715.36786 932.43518 2201.3589 6048579
-708.46722 940.59375 2220.6201 6443337
-693.97308 938.78876 2216.3589 6180165
-683.71344 942.75293 2225.7178 6311494
-665.07733 935.09589 2207.6404 5390393
-664.90405 953.61102 2251.3523 6377544
-644.57788 943.38916 2227.2197 6180165
-628.72327 939.4212 2217.8518 4996148
-616.05499 940.14642 2219.564 5390650
-600.3609 936.18481 2210.2112 3745568
-584.31311 931.48267 2199.1101 5982787
-573.16675 934.5578 2206.3701 6377545
-557.51312 930.25592 2196.2139 6706510
-545.11066 931.30286 2198.6855 6311752
-531.29016 929.91895 2195.4185 6444108
-518.65045 930.58435 2196.9893 5851715
-507.2919 933.64185 2204.2075 6904404
-493.39798 932.07141 2200.5 6443854
-478.24225 927.96729 2190.8108 5522750
-468.32117 934.07483 2205.2297 6641231
-450.6824 924.698 2183.0923 6575695
-439.01993 927.39136 2189.4509 5851715
-425.15558 925.45581 2184.8813 5719873
-413.48264 928.3186 2191.6401 6049094
-398.1489 922.88159 2178.804 5324857
-384.51962 921.16345 2174.7478 5456186
-371.81934 921.62878 2175.8462 5719614
-361.31738 927.77228 2190.3503 6245958
-347.57513 925.74341 2185.5603 4995635
-333.93073 923.82812 2181.0386 6114373
-322.10019 926.97876 2188.4768 6640974
-310.06708 929.78619 2195.105 5785665
-297.44308 930.99023 2197.9475 5785922
-283.96945 929.52338 2194.4844 6246473
-269.28833 923.77356 2180.9099 6575440
-258.92502 933.00256 2202.6982 6838611
-246.47989 935.31183 2208.1501 6312013
-230.82684 925.02435 2183.8628 5588547
-219.2478 930.81097 2197.5242 5917512
-208.33676 940.34338 2220.0291 5391168
-192.08185 925.41516 2184.7854 6970199
-181.05093 935.31635 2208.1609 6114889
-168.1898 936.56873 2211.1177 6049096
-154.51401 933.11292 2202.959 7233370
-141.47025 933.18842 2203.137 6114889
-128.97018 937.23035 2212.6797 6246475
-115.77493 936.56335 2211.105 6180682
-103.00953 939.64734 2218.3857 6180682
-90.137962 942.5235 2225.176 5851717
-76.517563 937.21338 2212.6396 5917510
-63.647675 940.80072 2221.1086 6444110
-50.351543 938.31537 2215.2412 5325373
-37.083305 934.78003 2206.8948 5522751
-24.189787 941.98462 2223.9038 5720131
-10.984659 939.7774 2218.6929 5127994
2.1574373 937.01923 2212.1812 5325372
15.193523 932.49158 2201.4919 5325373
28.2358 932.35175 2201.1619 5391166
41.552578 938.50024 2215.6775 5522495
54.582085 936.76562 2211.5823 5785667
67.258904 930.82172 2197.5496 6180425
81.067879 939.9328 2219.0598 5325116
94.698624 944.72266 2230.3679 5653568
108.96111 953.86951 2251.9624 5324601
121.79479 949.87695 2242.5366 4996407
135.82623 955.09235 2254.8494 5785923
148.32024 949.53082 2241.7195 6115144
161.58875 949.43457 2241.4922 6180937
174.65611 948.2608 2238.7209 5785922
187.71858 947.22797 2236.2827 5522750
202.92188 956.42163 2257.9878 6048580
216.01918 955.16583 2255.0229 4929844
229.99696 957.72284 2261.0596 4666671
243.43727 957.8833 2261.4385 4732208
256.24103 955.65302 2256.1731 5126967
268.55673 951.914 2247.3459 4863795
284.42642 960.53033 2267.688 4666416
297.45886 959.21991 2264.5942 4139815
310.95786 959.46228 2265.1663 4271658
322.61249 954.22925 2252.8118 4863282
336.89047 956.86316 2259.03 4271145
351.52991 960.28314 2267.1042 3349786
365.98715 962.97198 2273.4521 2823955
377.80844 958.7804 2263.5564 2298383
391.82343 960.25238 2267.0317 3482142
405.79129 961.51532 2270.0132 3548192
418.61548 960.07404 2266.6106 4271917
434.51727 965.56134 2279.5654 3088157
449.88272 969.56189 2289.0103 3680808
464.53494 971.836 2294.3792 5194303
474.66898 964.79742 2277.762 4076077
486.17386 960.8573 2268.4597 4010284
499.67557 960.96948 2268.7246 3088923
514.44647 963.4527 2274.5872 3549474
524.77539 957.70264 2261.012 4075819
539.33112 959.76062 2265.8706 4602162
550.42303 955.70441 2256.2944 4733493
566.4978 960.28723 2267.1138 3483682
573.39154 949.4552 2241.5408 4601909
582.76569 943.12787 2226.6028 4996666
607.3772 961.19427 2269.2554 5325374
616.03241 953.77374 2251.7363 5062202
629.50897 953.97412 2252.2095 5456191
647.86835 961.41223 2269.77 5192762
659.05646 958.12225 2262.0027 4535089
672.91937 958.77454 2263.5427 4798261
686.4765 958.97418 2264.0139 5127227
695.81171 953.38141 2250.8101 4139817
709.56378 953.93701 2252.1218 4469037
725.09296 956.81714 2258.9214 4666161
734.92017 952.20508 2248.033 3284509
748.78546 952.89612 2249.6643 3613987
761.19971 951.74866 2246.9553 4271914
770.55493 946.88153 2235.4648 5193017
784.46442 947.68085 2237.3518 1641481
804.74512 956.02246 2257.0454 4469294
818.45624 956.41443 2257.9707 3416606
825.05249 948.61328 2239.5532 3942950
847.38611 958.86694 2263.7607 4140329
860.9209 958.99982 2264.0745 2100748
866.50116 950.40387 2243.7805 2364176
880.69342 951.37085 2246.0635 2956313
890.39197 947.52698 2236.9885 3483171
903.13293 946.98602 2235.7114 4272687
910.146 940.54144 2220.4966 5062203
927.82849 945.14935 2231.3752 4667445
938.68182 942.76868 2225.7549 4996410
960.22357 951.04028 2245.283 5325375
972.45361 949.9892 2242.8015 4864568
984.65369 948.9375 2240.3186 4403503
994.31592 945.50049 2232.2043 4337710
1014.0023 951.56067 2246.5117 4535089
1034.3356 958.06305 2261.8628 3548194
1049.4583 959.63428 2265.5725 4995640
1066.7223 963.09937 2273.7529 5062203
1084.071 966.55334 2281.9075 4469809
1098.1761 967.06598 2283.1177 3680550
1109.5374 965.17908 2278.6631 4404016
1126.1295 967.83331 2284.9292 3351844
1128.9209 958.70447 2263.3772 3351586
1143.9462 960.05731 2266.571 4798777
1155.1268 958.1897 2262.1619 2956316
1179.4205 967.11743 2283.2393 4009003
1182.1956 958.39777 2262.6531 1968907
1193.0372 956.3399 2257.7947 1903628
1193.8633 946.38812 2234.2998 2627095
1211.2986 949.67639 2242.0632 2693402
1219.6119 945.8194 2232.9573 2102034
1233.0077 945.9444 2233.2522 2233363
1251.052 949.59491 2241.8708 4536118
1266.8694 951.49634 2246.3596 4536118
1273.5055 946.53424 2234.6448 5917514
1300.6875 956.78778 2258.8521 3943981
1315.6794 957.95673 2261.6118 4536119
1320.6364 951.8692 2247.24 4009775
1322.9341 944.00574 2228.6755 3812141
1350.6615 954.26422 2252.8943 4601657
1352.1393 945.95764 2233.2834 3943987
1383.4 958.44629 2262.7676 1313551
1390.5829 954.17358 2252.6804 1380118
1395.67 948.55792 2239.4226 262661
1412.3533 950.85498 2244.8457 1710108
1418.6772 946.19995 2233.8557 1117714
1417.3064 936.54633 2211.0647 327683
1412.6396 924.91162 2183.5967 393219
1430.4882 928.09601 2191.1145 720898
1442.572 927.51654 2189.7466 655361
1450.9908 924.61206 2182.8894 655360
1478.054 933.53442 2203.9541 2430487
1491.453 933.74603 2204.4536 2034959
1503.0948 932.86346 2202.3699 589824
1511.2091 929.82544 2195.1975 1182219
1507.1848 919.43451 2170.6658 3811111
1513.7239 915.60876 2161.6338 7232343
1529.7336 917.52771 2166.1643 5324088
1543.0182 917.79395 2166.7927 6114112
1551.1555 915.01929 2160.2422 7034699
1568.7966 917.85052 2166.9263 10325100
1585.5035 920.09351 2172.2217 10192743
1615.8545 930.15442 2195.9744 10389349
1617.0823 923.42432 2180.0852 10127465
1634.9126 926.20618 2186.6531 9140836
1666.3853 936.61224 2211.2205 6969168
1686.1786 940.34265 2220.0273 6969937
1706.1318 944.10376 2228.9067 7166807
1743.5969 957.42297 2260.3518 6574670
1787.4442 974.01697 2299.5281 6509649
1815.7849 981.97369 2318.313 2233621
1802.4944 967.46619 2284.0625 1707281
1818.7115 968.89459 2287.4348 1248272
1814.2769 959.38135 2264.9751 458753
1801.0385 945.3866 2231.9353 3023138
1820.282 948.52161 2239.3369 2627606
1854.0242 959.11176 2264.3389 6839127
1847.1342 948.68115 2239.7136 9470074
1863.0356 950.02161 2242.8782 9140337
1913.1357 968.65833 2286.877 9271925
1930.074 970.36053 2290.8958 8680303
1948.9669 973.01483 2297.1621 8350313
1954.8981 969.20605 2288.1702 7100503
1971.7833 970.84326 2292.0354 7494749
1994.2625 975.19336 2302.3054 6836563
2004.9495 973.7572 2298.9148 6376011
2021.2106 975.02948 2301.9185 6046789
2042.8605 978.86682 2310.9778 6375495
2048.7456 975.14929 2302.2014 6572872
2073.6589 980.47809 2314.782 8546663
2079.3188 976.69312 2305.8459 9073263
2094.6006 977.44757 2307.6272 8482155
2092.3445 970.06122 2290.189 7889762
2109.0576 971.50812 2293.605 7889508
2104.1375 963.0351 2273.6013 6376269
2109.7656 959.46716 2265.1777 7428957
2115.5325 956.0069 2257.0085 6902357
2136.2874 959.32074 2264.8323 7231578
2166.4043 966.77094 2282.4211 5258045
2199.2944 975.3587 2302.6956 3613221
0 0 0 0
0 0 0 0
0 0 0 0
0 0 0 0
0 0 0 0
0 0 0 0
0 0 0 0
0 0 0 0
0 0 0 0
-2028.1263 987.58234 2299.3833 23
-2022.5975 991.55225 2308.6265 23
-2025.324 999.6507 2327.4822 23
-2006.9625 997.38049 2322.1963 23
-2001.5254 1001.5461 2331.895 23
-1965.9023 990.55988 2306.3159 23
-1951.8682 990.37384 2305.8828 23
-1920.976 981.57117 2285.3877 23
-1901.329 978.43048 2278.0752 20
-1883.0026 975.92914 2272.2515 21
-1864.2146 973.151 2265.783 21
-1847.3188 971.32739 2261.5371 21
-1831.8115 970.21259 2258.9414 21
-1819.3965 970.73102 2260.1487 21
-1803.7245 969.50665 2257.2979 21
-1779.3329 963.54218 2243.4109 21
-1762.4713 961.59625 2238.8801 65557
-1746.3506 960.02814 2235.229 65557
-1728.2985 957.36597 2229.0308 65557
-1724.3558 962.53888 2241.075 65554
-1707.8008 960.6972 2236.7869 65555
-1688.5593 957.30371 2228.8857 131091
-1667.0446 952.55756 2217.8354 196627
-1650.0061 950.31421 2212.6123 196627
-1634.3005 948.80878 2209.1072 262162
-1618.2642 947.08539 2205.0945 327694
-1560.6129 920.78064 2143.8494 393229
-1536.7404 914.13745 2128.3821 327689
-1513.501 907.76422 2113.5432 1180946
-1499.8342 907.07385 2111.936 2233631
-1478.0985 901.45093 2098.844 2693409
-1464.7905 900.91589 2097.5984 5127492
-1451.9927 900.68829 2097.0684 5126716
-1446.7604 905.19019 2107.55 5192251
-1430.3206 902.69727 2101.7458 5915974
-1419.4325 903.69513 2104.0691 6903380
-1407.6423 904.13116 2105.0845 7364188
-1397.2428 905.47632 2108.2163 7101016
-1389.4216 908.53162 2115.3301 6969429
-1370.5817 904.37189 2105.645 7232344
-1362.1801 907.08685 2111.9661 6640206
-1343.7089 903.08441 2102.6472 5917511
-1332.4088 903.87177 2104.4805 7167579
-1326.1927 908.1554 2114.4541 7233372
-1315.229 909.23871 2116.9763 6312527
-1311.002 915.04492 2130.4949 7299165
-1290.0721 909.19257 2116.8689 7431008
-1269.4192 903.42224 2103.4338 6970457
-1267.7085 911.15204 2121.4312 7562594
-1253.5939 910.03229 2118.824 7759716
-1249.2177 916.03082 2132.7903 7167836
-1235.5443 915.26483 2131.0068 4404274
-1228.0692 919.12207 2139.9875 4996924
-1209.3101 914.52631 2129.2874 4931388
-1193.5916 912.15735 2123.7717 6905434
-1177.1678 909.19324 2116.8704 7563363
-1168.1182 911.92188 2123.2236 6181195
-1152.1412 909.24323 2116.9868 6444623
-1136.9536 907.13538 2112.0791 6773332
-1126.8655 909.09454 2116.6406 6773330
-1115.9885 910.45435 2119.8066 5918021
