# .PCD v0.7 - Point Cloud Data file format
VERSION 0.7
FIELDS x y z rgb
SIZE 4 4 4 4
TYPE F F F U
COUNT 1 1 1 1
WIDTH 1293
HEIGHT 1
VIEWPOINT 0 0 0 1 0 0 0
POINTS 1293
DATA ascii
-322.01584 823.00812 2187.9038 7628639
-307.97104 820.13519 2180.2664 9470585
-296.93207 825.36578 2194.1714 10851980
-285.79715 830.79651 2208.6086 11048842
-275.01404 837.82031 2227.281 8351075
-264.37833 846.02417 2249.0901 6179906
-254.0876 856.2616 2276.3057 6377543
-242.59081 863.3548 2295.1624 5127988
-231.56349 873.06067 2320.9646 6378056
-220.86015 885.29089 2353.4778 4601390
-207.97066 889.81659 2365.5088 2890259
-195.93529 898.91479 2389.6958 2496532
-180.19341 891.10107 2368.9236 1904395
-165.92148 889.85052 2365.5991 4009512
-153.1058 896.89984 2384.3394 3482653
-138.63753 894.71747 2378.5376 4337705
-123.77526 889.21051 2363.8977 2496273
-110.36313 894.04541 2376.751 5785151
-97.643127 906.72211 2410.4509 5785407
-82.477501 897.14154 2384.9817 4798513
-68.71624 902.03326 2397.9861 4140329
-54.052608 894.54205 2378.0713 3877157
-40.181679 899.51251 2391.2847 4864052
-26.025087 900.01971 2392.6333 4864052
-11.791894 895.92175 2381.739 4206124
2.3405101 902.75305 2399.8994 4271660
16.523516 900.61035 2394.2034 3219229
30.778967 902.5719 2399.418 1641739
45.304062 908.70227 2415.7151 4468783
59.476147 906.50812 2409.8821 4008232
73.929657 908.6225 2415.5029 4205610
87.883125 904.90222 2405.6128 4534831
102.49445 908.04858 2413.9773 4402989
116.53286 905.97021 2408.4521 4863541
130.37206 902.9657 2400.4648 5060917
145.76964 910.28387 2419.9197 4403500
160.20401 910.815 2421.3315 4534830
173.47493 905.18787 2406.3723 4337451
187.59355 904.50293 2404.5515 4600366
203.12186 910.23181 2419.7812 4732209
216.49863 906.19946 2409.0615 4534830
234.5388 920.97809 2448.3494 4140072
245.21077 906.78711 2410.6238 3481885
261.92365 915.26807 2433.1697 2692885
274.48135 909.10168 2416.7769 4470325
288.30457 907.53058 2412.6001 6773853
291.34793 873.7782 2322.8721 7563884
300.2532 859.85864 2285.8679 8288119
313.93188 860.2207 2286.8306 7959413
328.85464 863.82068 2296.4009 8157050
340.18753 858.07965 2281.1387 9472909
355.3631 862.09949 2291.8252 8551548
367.81702 859.46399 2284.8188 9275524
380.56638 857.68127 2280.0798 9143939
394.59238 858.7995 2283.0525 8025715
407.21863 856.89813 2277.9978 9275782
420.04352 855.52325 2274.3428 9209989
432.72958 853.96002 2270.187 9670283
447.54416 856.56476 2277.1116 8880766
459.26041 853.26074 2268.3279 9801864
470.18668 848.71857 2256.2529 10130313
488.34933 857.1286 2278.6104 10590607
501.5925 856.68384 2277.4282 10459790
517.83429 861.24969 2289.5662 10261898
534.36273 866.04706 2302.3196 11051671
545.29132 861.75568 2290.9111 3219485
585.62524 903.01477 2400.5955 4403246
604.49915 910.01117 2419.1946 3745318
628.32428 923.96417 2456.2876 2692889
647.57855 930.71588 2474.2366 3548972
666.10687 936.14838 2488.6785 1313554
667.17804 917.34271 2438.6851 262153
683.06421 919.27252 2443.8154 196621
699.06702 921.27606 2449.1416 131086
709.15137 915.55701 2433.9377 13
727.06494 919.97235 2445.6758 65552
742.4599 921.09058 2448.6484 65551
751.02795 913.85895 2429.4236 65550
774.27441 924.42407 2457.5103 65549
771.50714 904.11432 2403.5183 65547
780.29901 897.84113 2386.8416 196619
792.97485 896.18079 2382.4277 196618
801.97186 890.49365 2367.3088 262153
813.22852 887.46814 2359.2656 327687
823.46698 883.45239 2348.5901 393223
837.38763 883.4549 2348.5969 327685
850.36945 882.48303 2346.0134 393221
861.39807 879.5481 2338.2109 458756
876.07507 880.37238 2340.4023 458755
888.45245 878.89612 2336.4778 458752
895.24481 872.02502 2318.2114 655360
890.00031 853.81409 2269.7991 655360
903.30573 853.67621 2269.4326 5191473
917.71503 854.57031 2271.8096 2954769
934.21826 857.36017 2279.2261 1048576
951.7345 860.987 2288.8677 917504
966.63837 862.18182 2292.0439 851968
979.08026 861.17804 2289.3755 917506
990.60522 859.40613 2284.665 720898
1004.9629 860.10645 2286.5269 720896
1020.4912 861.77667 2290.967 720896
1034.895 862.46588 2292.7993 786432
1052.42 865.70483 2301.4097 4205614
1070.3483 869.18817 2310.6699 655360
1082.9863 868.34192 2308.4202 851968
1097.2974 868.84137 2309.748 851968
1112.8466 870.29694 2313.6174 786432
1124.6432 868.81793 2309.6858 1706251
1154.2633 880.97827 2342.0129 3022624
1175.5817 886.58862 2356.9277 3810856
1208.0618 900.38617 2393.6074 4402736
1244.887 917.06439 2437.9451 4534579
1263.2837 919.94012 2445.5901 5717830
1292.3871 930.4588 2473.5532 4994363
1301.9725 926.84723 2463.9521 5257279
1324.3278 932.30548 2478.4624 6178637
1330.8063 926.58954 2463.2671 6112844
1353.7456 932.33435 2478.5393 5191999
1359.0311 925.9281 2461.5088 4862777
1391.844 938.21356 2494.1685 5126464
1416.8173 945.01172 2512.241 3086881
1414.6833 933.77631 2482.3723 4929085
1433.626 936.54047 2489.7209 4270898
1442.6893 932.86041 2479.9377 5849930
1458.7495 933.73322 2482.2581 5454917
1474.9575 934.68225 2484.781 5389636
1484.8207 931.63153 2476.6709 5324356
1492.8014 927.47107 2465.6106 8021100
1500.8993 923.46332 2454.9561 5389123
1534.778 935.24231 2486.2698 4862779
1542.7233 931.14484 2475.377 5258306
1561.34 933.5047 2481.6504 6442323
1581.3542 936.64838 2490.0076 5916492
1588.1703 931.98877 2477.6206 6113614
1582.1761 919.96588 2445.6587 5719113
1600.9592 922.4375 2452.2292 4074546
1584.2451 904.59589 2404.7986 4666688
1540.6105 871.83801 2317.7144 6509662
1534.8838 860.92163 2288.6941 7299953
1546.1956 859.6698 2285.3662 3221048
1554.5613 856.8161 2277.7795 5326682
1567.103 856.29315 2276.3896 3221049
1566.6067 848.71588 2256.2458 5984610
1586.8782 852.42261 2266.0999 5721437
1581.9462 842.64215 2240.0994 4931411
1587.5181 838.57306 2229.282 5787490
1618.4719 847.86786 2253.9915 6972020
1612.8352 837.99866 2227.7551 6774382
1632.7655 841.46619 2236.9731 8681353
1661.4813 849.36902 2257.9822 2037028
1664.7511 844.24121 2244.3503 6510441
1687.8936 849.19275 2257.5137 3286837
1687.3665 842.25177 2239.0615 6972017
1693.0966 838.51794 2229.1355 7695226
1715.4612 843.0166 2241.0947 7695225
1716.5281 837.0603 2225.2605 7629686
1729.3497 836.88336 2224.79 9076618
1783.9392 856.76886 2277.6541 6640476
1939.2605 924.37054 2457.3679 4205622
1981.7397 937.57806 2492.479 3811119
1975.0458 927.49792 2465.6819 4336952
2023.0842 943.0799 2507.1052 4469563
2031.2443 939.98047 2498.8657 2824739
2038.001 936.28125 2489.0317 4206392
2066.2671 942.44586 2505.4199 3154473
2073.5022 938.99847 2496.2551 2824997
2124.0933 955.09485 2539.0461 1969944
2112.7358 943.30566 2507.7056 3022119
2119.6338 939.77509 2498.3198 2627618
2116.0493 931.6781 2476.7947 2890790
2117.4824 925.88666 2461.3984 3351341
2152.5667 934.78802 2485.062 3088169
2151.5232 927.9859 2466.9792 3416621
2148.3074 920.34509 2446.6665 2956071
2174.739 925.42267 2460.1648 2561057
2202.0881 930.82037 2474.5144 2758692
2233.5112 937.8573 2493.2214 3153450
2241.9438 935.21143 2486.1877 4469309
2252.2507 933.37689 2481.3108 4272187
2272.5913 935.69739 2487.4795 2363932
2296.1953 939.32288 2497.1177 3548463
2292.1147 931.64935 2476.718 2692898
2305.6438 931.18549 2475.4851 3219755
2339.1682 938.75208 2495.6001 3943478
2349.9653 937.15985 2491.3674 2890790
2342.4146 928.31628 2467.8574 3285292
2338.7612 921.11743 2448.7197 4404030
0 0 0 0
0 0 0 0
0 0 0 0
0 0 0 0
0 0 0 0
0 0 0 0
0 0 0 0
0 0 0 0
0 0 0 0
0 0 0 0
-1928.4668 841.04834 2201.1841 5785405
-1917.2693 841.85931 2203.3066 5325110
-1908.2649 843.65125 2207.9963 4141352
-1905.4532 848.22443 2219.9653 4996405
-1878.0679 841.84607 2203.272 4667184
-1872.3746 845.17004 2211.9714 4929842
-1854.3223 842.92279 2206.0898 4206375
-1840.6055 842.62854 2205.3196 4272168
-1827.7205 842.71338 2205.5417 4535340
-1805.8822 838.64166 2194.8853 5061684
-1789.7738 837.19104 2191.0889 5061684
-1773.588 835.68292 2187.1416 5127474
-1762.2875 836.47119 2189.2048 5193014
-1750.505 837.04095 2190.6958 5588027
-1753.5516 844.76282 2210.9055 5982786
-1738.1344 843.63922 2207.9648 6246215
-1730.2501 846.18262 2214.6213 6641486
-1711.8298 843.57281 2207.791 6575693
-1693.1051 840.77148 2200.4595 6509897
-1687.4135 844.44916 2210.0847 6509898
-1673.5339 844.05469 2209.0522 6444102
-1660.7185 844.19489 2209.4192 6377539
-1650.0914 845.45868 2212.7268 5983038
-1638.1921 846.08557 2214.3674 5983038
-1632.3352 849.86859 2224.2683 5983038
-1630.1794 855.65576 2239.4143 6048831
-1610.1938 852.10254 2230.115 6706761
-1600.3411 853.89722 2234.812 6838090
-1592.5477 856.82977 2242.4871 6640713
-1578.6228 856.48505 2241.5847 6180417
-1572.9172 860.63153 2252.437 6312003
-1555.3293 858.29205 2246.3142 4995887
-1542.1887 858.38763 2246.5642 4732718
-1545.5238 867.73505 2271.0281 6114113
-1534.4788 869.10193 2274.6057 5127218
-1525.3866 871.60901 2281.1672 2561295
-1504.6869 867.46912 2270.3323 2758930
-1482.8684 862.60376 2257.5986 4600876
-1444.0181 847.65186 2218.4666 3153939
-1422.9709 842.9718 2206.218 4404007
-1397.2844 835.43115 2186.4827 5785659
-1387.3052 837.22845 2191.1868 4141349
-1368.9451 833.95435 2182.6177 3089177
-1360.3615 836.63019 2189.6208 1116677
-1339.6664 831.83734 2177.0771 2629400
-1328.4128 832.87073 2179.7817 2432536
-1303.9188 825.54163 2160.5999 2234903
-1290.8328 825.36133 2160.1282 1577231
-1278.7819 825.84607 2161.3967 985093
-1264.1183 824.63617 2158.2302 1839371
-1246.3839 821.37787 2149.7026 327680
-1241.682 826.72943 2163.7087 9732726
-1229.4844 827.15002 2164.8093 9403762
-1218.9916 828.73834 2168.9663 10654088
-1208.3627 830.26691 2172.967 10325381
-1199.7894 833.25635 2180.7908 5850944
-1199.9232 842.42352 2204.7832 5258807
-1189.8867 844.57391 2210.4111 7232597
-1169.0667 839.03278 2195.9089 8153185
-1160.4348 842.21277 2204.2317 8482407
-1143.9172 839.67682 2197.5945 9930108
-1139.4844 846.0553 2214.2881 4535080
-1138.3448 855.05597 2237.8447 5390132
-1129.3875 858.32745 2246.4067 5324083
-1130.9094 869.73615 2276.2654 5851197
-1118.2107 870.35175 2277.8767 6377799
-1102.4746 868.58942 2273.2644 6180163
-1092.1857 871.12805 2279.9084 5719612
-1082.5796 874.28192 2288.1626 5522232
-1077.0785 880.87286 2305.4124 5522490
-1057.7007 876.13849 2293.0217 5917760
-1058.0275 887.81555 2323.5828 5654588
-1033.0148 878.2572 2298.5667 4404266
-1021.7985 880.32965 2303.9907 4009765
-1008.2902 880.45679 2304.3235 4733232
-990.0827 876.42767 2293.7786 5720384
-985.0058 884.07153 2313.7839 4799282
-966.8526 880.02905 2303.2041 4271911
-957.03369 883.56543 2312.4595 5127220
-948.78717 888.67737 2325.8381 4863792
-932.78015 886.56384 2320.3066 5455929
-930.25232 897.3902 2348.6414 5456440
-914.91779 896.00354 2345.0122 6048322
-897.6673 892.66876 2336.2844 5916736
-881.08051 889.89978 2329.0376 6048578
-870.60815 893.31665 2337.9802 4666925
-861.02759 897.77399 2349.6458 6048065
-855.18195 906.336 2372.0542 5719356
-834.70776 899.42163 2353.9583 5653562
-822.46497 901.29248 2358.8545 3350809
-804.7489 897.12665 2347.9517 5455930
-788.93646 894.97357 2342.3167 4996148
-779.44928 900.04724 2355.5955 4732719
-764.04492 898.34863 2351.1499 3680031
-748.46246 896.37372 2345.9812 4206632
-731.89038 893.11646 2337.4563 3285788
-716.87061 891.66425 2333.6555 2628115
-691.6712 877.2442 2295.9155 3088411
-685.04187 886.27026 2319.5386 4009514
-670.44141 885.14233 2316.5864 3877929
-658.89874 888.08862 2324.2974 2100747
-639.32922 880.11084 2303.418 1838346
-625.73932 880.19611 2303.6411 4468780
-622.30695 894.89197 2342.103 5061172
-607.30878 893.24707 2337.7981 5850690
-586.82056 883.2619 2311.665 5653312
-574.75336 885.7774 2318.2485 5456190
-553.92651 874.58563 2288.9575 1181447
-513.7984 831.59253 2176.4363 720896
-505.21689 838.75873 2195.1917 655361
-489.81436 834.68018 2184.5173 589826
-475.7814 832.77759 2179.5378 655361
-460.08072 827.76819 2166.4272 655360
-448.42969 829.96637 2172.1804 655361
-433.9921 826.98456 2164.3765 655361
-420.32843 825.34082 2160.0745 589825
-405.85608 821.95605 2151.2158 589827
-391.58371 818.76996 2142.8772 589827
-377.93973 816.72809 2137.5334 327680
-364.22244 814.38086 2131.3901 1182732
-354.76498 821.73181 2150.6289 8023403
-342.13031 821.99707 2151.3232 5523525
-329.02689 821.11304 2149.0095 7563363
-319.17291 828.59357 2168.5876 8549743
-306.49515 829.06372 2169.8179 10326151
-293.80496 829.53967 2171.0637 8220002
-284.47894 839.99292 2198.4219 8154207
-274.26715 848.70862 2221.2324 8088415
-263.91904 857.85992 2245.1831 6773072
-251.35994 860.41461 2251.8691 2167308
-237.48302 858.49188 2246.8372 3153688
-228.89684 876.60266 2294.2366 5390651
-218.01099 887.63763 2323.1172 4536109
-206.32571 896.68604 2346.7986 4601902
-192.48096 896.97906 2347.5654 3746593
-179.94481 903.89111 2365.6555 4338476
-164.30243 895.04968 2342.5159 3680289
-152.00409 904.47443 2367.1821 4140840
-137.14539 899.03162 2352.9375 3285274
-123.35619 900.16144 2355.8943 3218968
-110.32191 907.79144 2375.8633 3416347
-96.593048 911.10229 2384.5286 4600620
-82.226547 908.50275 2377.7251 5653821
-67.963959 906.21356 2371.7339 5653822
-53.991684 907.61096 2375.3911 5258807
-39.684875 902.38696 2361.719 4798258
-25.945538 911.40466 2385.3198 4600624
-11.70198 903.09729 2363.5779 2823958
2.3136704 906.45996 2372.3787 2166541
16.395092 907.6889 2375.5952 1903626
30.681902 913.90015 2391.8511 2166541
45.073822 918.32745 2403.4382 2429457
59.462658 920.58075 2409.3354 3218714
73.408318 916.42889 2398.4692 3284509
87.35672 913.65265 2391.2034 3942439
101.38727 912.39069 2387.9006 4205611
114.74488 906.12384 2371.499 4468782
128.84984 906.48218 2372.437 4666161
143.39398 909.55597 2380.4814 4600368
158.27759 914.03931 2392.2153 4600368
171.56677 909.3349 2379.9031 4271660
186.12088 911.54028 2385.675 4402989
200.59741 913.08124 2389.7078 4600881
215.68712 917.02576 2400.0315 3876902
230.42287 919.07056 2405.3831 3613731
244.19589 917.26086 2400.6467 3417121
256.20715 909.39703 2380.0657 3483944
259.29205 872.32349 2283.0371 7497063
272.65817 871.80023 2281.6675 8749183
286.96848 874.20264 2287.9553 8486014
299.40756 870.94525 2279.4299 7959927
312.10794 868.69629 2273.5439 7565169
325.61789 868.79358 2273.7986 8157303
338.80411 868.05365 2271.8621 9078146
351.23248 865.50281 2265.186 8683388
363.96149 863.85327 2260.8689 10065040
378.1749 865.71899 2265.752 8354423
392.21106 867.06488 2269.2744 9407625
404.3978 864.36865 2262.2178 9933711
417.92859 864.6261 2262.8916 9802382
429.82333 861.58795 2254.9402 9605002
441.3699 858.05615 2245.6968 10262674
455.78525 860.14502 2251.1638 8682871
469.14764 860.18457 2251.2671 10196106
485.96741 866.3855 2267.4963 10327946
499.51755 866.58069 2268.0071 9472898
512.84106 866.38275 2267.489 11183518
523.24622 861.39044 2254.4233 11315362
543.23804 872.03595 2282.2847 2497048
579.39539 907.48364 2375.0579 4600880
598.49719 915.1701 2395.1748 3547943
622.75244 930.19794 2434.5056 1838614
635.53217 927.79254 2428.2102 524296
648.93054 926.37683 2424.5051 327692
665.43835 929.36523 2432.3262 262158
679.44305 928.80505 2430.8601 196622
697.22327 933.32208 2442.6821 131086
704.73322 924.18695 2418.7737 65550
725.93005 933.00726 2441.8582 65550
744.09753 937.66534 2454.0493 65552
757.31067 936.02148 2449.7468 65550
770.34515 934.22272 2445.0391 65550
767.8349 913.98682 2392.0779 65547
777.57086 908.79736 2378.4963 131084
789.35986 906.14966 2371.5667 131083
793.14984 894.57269 2341.2676 196619
806.86548 894.3963 2340.8059 196617
820.78967 894.45306 2340.9543 196617
833.07184 892.74829 2336.4927 262152
847.99207 893.88 2339.4546 262149
859.70734 891.65131 2333.6216 393221
873.61377 891.7298 2333.8271 458754
884.56714 888.83844 2326.26 589825
894.02881 884.56012 2315.0625 655360
893.90729 871.07257 2279.7632 786432
909.52576 873.09631 2285.0596 2758425
924.69177 874.63257 2289.0803 1114112
939.22034 875.53033 2291.4299 917504
951.94696 874.74658 2289.3787 851968
966.5329 875.66937 2291.7939 655360
978.31946 874.06561 2287.5964 720899
989.82648 872.25934 2282.8691 655360
1004.4581 873.21808 2285.3784 720896
1020.058 874.98175 2289.9944 720896
1034.9423 876.09351 2292.9038 1311751
1052.2257 879.18103 2300.9846 1377544
1066.917 880.05139 2303.2625 786432
1081.7161 880.98761 2305.7126 918019
1097.8724 882.992 2310.9585 1312520
1114.1489 885.04242 2316.325 720896
1140.9412 895.29468 2343.157 3350819
1151.0256 892.34741 2335.4436 786432
1160.8721 889.2879 2327.4363 3547941
1196.7853 906.0343 2371.2646 4797495
1230.3121 920.60632 2409.4023 4270894
1243.0004 919.42987 2406.3235 2955033
1278.4731 934.94238 2446.9226 4664881
1286.0835 929.95978 2433.8823 4335919
1303.1759 931.86816 2438.8767 5125692
1316.9164 931.36414 2437.5576 5849672
1348.7208 943.50769 2469.3396 5455170
1365 944.64624 2472.3196 4862776
1381.3868 945.83447 2475.4292 5520708
1386.4541 939.32867 2458.4023 4665400
1407.4888 943.66364 2469.7478 4863036
1411.7388 936.77161 2451.7102 4336435
1415.1941 929.49823 2432.6743 4270642
1436.5013 933.97845 2444.3999 4072750
1450.791 933.85205 2444.0691 4468021
1474.3223 939.61804 2459.1597 5257537
1490.2195 940.45337 2461.3459 4599607
1482.9241 926.77789 2425.5547 4994365
1518.5267 939.91754 2459.9436 4994365
1535.9775 941.67871 2464.553 3678761
1557.1302 945.65491 2474.9595 2955551
1566.3083 942.35254 2466.3164 2823966
1563.3689 931.88812 2438.9292 4534071
1568.542 926.40692 2424.5837 5455430
1549.5165 906.86285 2373.4331 4469308
1539.3979 892.83636 2336.7231 589831
1523.631 875.81311 2292.1702 787983
1521.7386 866.99573 2269.0933 3943999
1529.3041 863.67401 2260.3997 2169381
1519.4462 850.65558 2226.3281 8946060
1532.5695 850.61652 2226.2258 7958401
1546.9222 851.2547 2227.896 6906225
1562.1559 852.36273 2230.7959 6313576
1566.053 847.31842 2217.594 5194837
1590.3699 853.31445 2233.2866 6116196
1609.7021 856.55884 2241.7781 7103347
1603.9846 846.52991 2215.5303 6379368
1628.3469 852.40991 2230.9194 4997458
1647.0117 855.23663 2238.3176 5720414
1648.302 849.06848 2222.1743 6576491
1661.6722 849.17126 2222.4434 4536907
1683.049 853.33191 2233.3325 5128789
1689.5369 849.93762 2224.449 6839918
1705.5178 851.33441 2228.1047 7366519
1713.3812 848.6889 2221.1809 8287108
1721.6763 846.29602 2214.9182 7036783
1741.5409 849.58331 2223.5217 7957626
1756.5924 850.49084 2225.897 8681090
1807.688 868.70636 2273.5703 3286318
1825.9427 870.98694 2279.5391 4732483
1965.2517 930.55365 2435.4365 3613488
1995.2363 937.86371 2454.5684 3548204
2016.9037 941.18677 2463.2654 4008242
2042.1455 946.1181 2476.1716 4403770
2017.8621 928.19788 2429.271 3943219
2075.4656 947.93195 2480.9189 4666941
2098.1167 951.53687 2490.3535 4798785
2094.6775 943.34149 2468.9048 4140857
2118.7336 947.55658 2479.9365 3745842
2119.6333 941.42871 2463.8987 2758947
2120.2793 935.27277 2447.7874 3088169
2137.9751 936.67023 2451.4448 3877686
2147.9861 934.70477 2446.3008 3153963
2183.0454 943.59241 2469.5615 3153963
2176.072 934.31458 2445.2795 3022377
2217.7156 945.89557 2475.5894 4205882
2229.6665 944.7431 2472.573 1181196
2224.4224 936.36743 2450.6523 3483185
2229.8687 932.57135 2440.717 2759205
2264.3899 940.90552 2462.5293 3746100
2286.2952 943.92426 2470.4299 3745843
2316.6594 950.37469 2487.312 2364190
2325.7712 948.08032 2481.3071 4206650
2328.5347 943.24323 2468.6475 5917012
2318.072 933.14221 2442.2112 4338236
2337.3684 935.07172 2447.2612 3548720
0 0 0 0
0 0 0 0
0 0 0 0
0 0 0 0
0 0 0 0
0 0 0 0
0 0 0 0
0 0 0 0
0 0 0 0
0 0 0 0
-1917.4467 849.2124 2188.6055 5061683
-1897.2753 846.00128 2180.3298 4601133
-1872.3508 840.61224 2166.4412 3680289
-1854.6283 838.40442 2160.7512 3877411
-1860.9819 847.12561 2183.2275 5061428
-1836.437 841.80518 2169.5156 4863792
-1824.7981 842.36749 2170.9648 4337448
-1805.0973 839.18988 2162.7754 4140069
-1793.2308 839.63495 2163.9224 3087637
-1780.5615 839.70782 2164.1104 4798512
-1775.2192 843.26227 2173.2708 5588028
-1757.5486 840.96954 2167.3621 5523262
-1745.876 841.53442 2168.8176 5720383
-1733.4044 841.7196 2169.2949 6115141
-1717.4592 840.20813 2165.3997 6115140
-1705.1982 840.48993 2166.1257 5917763
-1719.2157 853.82678 2200.4978 6904657
-1692.0051 846.7356 2182.2224 6641485
-1676.958 845.66913 2179.4739 6641227
-1665.6454 846.48401 2181.574 6641484
-1662.174 851.32764 2194.0571 6444103
-1652.0955 852.8371 2197.9473 6048831
-1641.8848 854.3017 2201.7219 5917245
-1633.4908 856.74268 2208.0127 6509382
-1616.9143 854.89661 2203.2551 6575174
-1608.6547 857.4538 2209.8455 6246210
-1600.2067 859.95148 2216.2827 6048831
-1592.8198 863.0658 2224.3088 6180417
-1585.8706 866.47101 2233.0847 6049087
-1570.8385 865.48022 2230.5312 5324596
-1558.7545 866.1106 2232.156 4929838
-1542.6891 864.52069 2228.0583 4666154
-1538.4856 869.60809 2241.1697 4797484
-1544.0513 880.354 2268.8643 5456440
-1529.7463 879.85986 2267.5908 4666156
-1509.7744 876.0686 2257.8198 3285275
-1480.5516 866.79352 2233.916 2561299
-1453.3083 858.52051 2212.5947 919043
-1430.106 852.50568 2197.093 1706756
-1411.0853 848.89606 2187.7903 3483421
-1385.1594 841.02679 2167.5095 5786175
-1380.6989 846.16528 2180.7524 4602155
-1361.0437 842.00079 2170.0198 2234382
-1348.4221 842.14972 2170.4036 5129530
-1324.9781 835.47736 2153.2073 5195581
-1313.0432 836.00287 2154.5618 2959392
-1299.2622 835.35187 2152.884 2826780
-1291.0212 838.2851 2160.4436 3747627
-1273.2562 835.03113 2152.0574 1050373
-1259.2013 834.16895 2149.8354 2430994
-1243.1412 831.94739 2144.1099 3482652
-1223.6694 827.37305 2132.3208 9864060
-1227.2115 838.42627 2160.8074 8942701
-1211.1676 836.19037 2155.0449 7955806
-1204.636 840.54419 2166.2656 4534827
-1203.3234 848.67242 2187.2141 5916481
-1186.6997 846.06183 2180.4858 4995379
-1184.837 854.03345 2201.0305 7232340
-1163.811 848.21576 2186.0371 11773086
-1150.4877 847.94415 2185.3372 5785406
-1139.1306 849.1322 2188.3989 5587767
-1141.8 860.92371 2218.7881 5982526
-1134.09 865.07239 2229.4802 5916734
-1120.1407 864.50378 2228.0146 5850940
-1111.2241 867.85187 2236.6436 5258804
-1101.5784 870.70459 2243.9956 5456439
-1091.8776 873.58282 2251.4136 5587769
-1081.3082 875.82892 2257.2021 4535339
-1061.87 870.85779 2244.3904 5785661
-1060.1891 880.50824 2269.2617 5654332
-1047.0431 880.76233 2269.9167 5128244
-1038.0647 884.57452 2279.7415 5456953
-1024.5142 884.53961 2279.6516 5325624
-1011.9846 885.39728 2281.8618 5128247
-995.13947 882.45111 2274.269 4930098
-985.59009 885.9826 2283.3704 5324857
-968.0387 882.31879 2273.928 4666927
-960.88733 888.16461 2288.9939 4140583
-957.01917 897.25598 2312.4243 2166793
-948.83545 902.50653 2325.9563 3087895
-934.23871 901.72235 2323.9351 2101002
-923.81805 905.00543 2332.3965 2364946
-910.27118 905.27942 2333.1025 4995891
-890.55975 899.33649 2317.7861 6048321
-876.4184 898.92035 2316.7139 5061682
-859.33459 895.42499 2307.7056 4008737
-844.35541 894.0451 2304.1492 4600874
-828.79376 891.99298 2298.8604 6311236
-823.84344 901.48358 2323.3198 4600874
-809.23523 900.54901 2320.9114 5192756
-791.57483 896.12695 2309.5146 3942946
-780.12708 898.70618 2316.1619 3613725
-765.30145 897.41687 2312.8389 3022101
-757.48267 904.44666 2330.9563 3548445
-742.40973 902.91528 2327.0095 4272168
-724.05103 897.25403 2312.4194 3351580
-704.63678 890.0412 2293.8303 2956567
-685.56622 882.98724 2275.6506 3614752
-667.31757 876.72998 2259.5244 3483169
-660.69153 885.79907 2282.8975 3614758
-647.60248 886.40118 2284.4492 4075308
-633.83374 886.0788 2283.6184 1904142
-615.60779 879.37531 2266.342 3285797
-609.45148 889.9986 2293.7205 327681
-594.5354 888.02252 2288.6277 458755
-570.75739 872.40857 2248.3872 655619
-553.72339 866.60284 2233.4246 590083
-533.24127 854.98425 2203.481 655361
-518.41492 852.07837 2195.9917 524289
-504.62579 850.77136 2192.6233 524290
-490.33066 848.51959 2186.8201 458754
-477.07733 847.99744 2185.4744 458756
-461.9028 843.93604 2175.0071 458756
-449.04987 844.0047 2175.1843 458756
-435.67654 843.07062 2172.7769 458756
-421.57947 840.63647 2166.5037 458755
-407.75137 838.60272 2161.262 458756
-393.69196 835.94562 2154.4143 458756
-377.78934 829.06555 2136.6829 524291
-364.79184 828.30481 2134.7222 524291
-353.10516 830.57269 2140.5669 458753
-337.33209 823.03937 2121.1519 787974
-326.76102 828.10614 2134.2102 5260353
-316.39612 834.12469 2149.7212 10194568
-303.67691 834.18091 2149.8662 6575436
-293.36301 841.13873 2167.7981 9404275
-285.53687 856.19354 2206.5974 8088413
-273.96008 860.9071 2218.7454 7891036
-261.99915 864.82794 2228.8503 656387
-249.92073 868.75677 2238.9756 3746081
-237.36491 871.37354 2245.7197 4008997
-225.83067 878.27423 2263.5044 3548704
-215.13779 889.52533 2292.5007 4403754
-203.24934 897.01654 2311.8074 4009253
-190.125 899.74194 2318.8313 5325112
-175.40198 894.73718 2305.9329 5917507
-162.72139 900.18549 2319.9744 4140840
-150.01523 906.48499 2336.2095 3680289
-135.98238 905.23358 2332.9844 3482653
-122.4696 907.55286 2338.9617 3351324
-108.57159 907.24518 2338.1687 3811618
-94.436157 904.5733 2331.2827 4272169
-81.599861 915.56207 2359.6033 4666926
-67.423996 912.95758 2352.8909 5193271
-53.544006 914.04572 2355.6951 5127479
-39.42205 910.31396 2346.0776 4206121
-25.626558 914.1618 2355.9944 3416350
-11.718935 918.43323 2367.0027 2298642
2.3060482 917.48651 2364.563 1773325
16.301525 916.50677 2362.0378 1838604
30.416361 920.04266 2371.1506 3548194
44.705818 924.95679 2383.8154 3350558
58.843731 925.12836 2384.2576 1969164
72.678825 921.39447 2374.6345 1574920
86.0541 913.98828 2355.5471 1575948
99.792152 911.96478 2350.332 4600882
114.57029 918.77771 2367.8906 4403761
128.162 915.62762 2359.7722 4534576
141.38763 910.7395 2347.1743 3942949
155.35063 911.05103 2347.9773 4008485
170.76253 919.11005 2368.7471 4666159
184.92754 919.74323 2370.3789 4468782
199.59549 922.61176 2377.7717 4600625
214.44748 925.89667 2386.2375 4206125
226.25928 916.46082 2361.9194 1247755
239.82864 914.82867 2357.7131 1970454
245.74034 885.77405 2282.833 4931139
256.90723 877.70563 2262.0388 196865
270.53998 878.44415 2263.9421 6115669
284.65302 880.59863 2269.4946 4471355
295.80756 873.81921 2252.0227 7235688
309.85718 875.80811 2257.1484 10459544
323.27148 875.91101 2257.4136 10064788
334.29947 869.79681 2241.656 9407625
347.14014 868.6861 2238.7935 9143425
360.60544 869.16272 2240.0217 9735558
374.99268 871.74854 2246.6863 6445145
389.85349 875.22046 2255.634 3615791
399.82504 867.84955 2236.6377 5983827
412.76459 867.18732 2234.9309 8089204
426.2038 867.58325 2235.9514 985611
441.82031 872.25385 2247.9885 10457742
454.53915 871.0979 2245.0093 11182233
465.84769 867.38159 2235.4316 8945782
480.55826 870.03015 2242.2576 10064781
494.84967 871.79779 2246.8132 10328466
507.22168 870.17987 2242.6433 10327693
522.13214 872.88831 2249.6235 10457996
535.48682 872.92572 2249.72 4534320
565.26678 899.08649 2317.1418 5784391
592.50592 920.0611 2371.198 2036503
616.75464 935.52759 2411.0586 655367
632.34937 937.46417 2416.0496 393228
649.50775 941.58179 2426.6616 262158
662.51855 939.63861 2421.6536 65550
677.40002 940.37463 2423.5505 14
692.40826 941.2525 2425.813 14
701.22083 933.84363 2406.7188 14
723.42731 944.21173 2433.4395 14
737.68042 943.9967 2432.8855 16
752.89728 944.99969 2435.4705 14
766.70081 944.22437 2433.4722 14
763.76117 923.23834 2379.3867 13
774.08765 918.75873 2367.8416 13
785.24011 915.40143 2359.1892 11
788.9212 903.60419 2328.7852 11
803.89758 904.92749 2332.1956 131083
817.87854 905.10443 2332.6516 196619
830.96198 904.29865 2330.575 262155
845.16895 904.72198 2331.666 262152
854.45502 899.94891 2319.3647 393220
870.86859 902.71497 2326.4934 458756
885.64972 903.72906 2329.1069 458754
886.93427 891.15137 2296.6914 720898
886.38391 877.138 2260.5759 1904400
910.95636 888.03265 2288.6538 4074284
933.99139 897.13074 2312.1016 918275
940.86542 890.66705 2295.4434 917504
951.08954 887.51379 2287.3167 851968
964.40228 887.29077 2286.7419 655360
978.06427 887.39081 2286.9998 655360
989.56482 885.55396 2282.2656 655360
1003.5042 885.91962 2283.208 1377544
1017.2286 886.08826 2283.6426 2429973
1040.131 894.14221 2304.3997 2100239
1048.8661 889.96649 2293.6377 721410
1067.4347 894.13464 2304.3801 851968
1080.8695 893.9516 2303.9082 851968
1100.0339 898.45264 2315.5083 786432
1114.3516 898.93292 2316.7463 851968
1130.7825 901.08551 2322.2939 786432
1141.8181 898.93884 2316.7615 786432
1164.7679 906.11151 2335.2471 1971477
1190.1866 915.01379 2358.1902 5521731
1203.2687 914.33527 2356.4414 3021342
1221.0997 917.23938 2363.926 4468018
1252.2101 929.93945 2396.6567 3744298
1252.9458 920.05023 2371.1702 3678762
1280.808 930.07861 2397.0154 4665146
1300.9025 934.30823 2407.9163 4074034
1318.1479 936.42224 2413.3645 4534328
1330.403 934.98358 2409.6565 4994878
1353.6134 941.19305 2425.6597 5652806
1365.3486 939.37683 2420.979 5981773
1372.7301 934.63422 2408.7561 6047566
1391.2592 937.50092 2416.1443 5323843
1397.6216 932.19415 2402.4678 4467764
1420.4642 937.87585 2417.1106 5060158
1436.4398 938.95514 2419.8923 4994365
1453.8777 940.95972 2425.0583 5520451
1463.2369 937.7475 2416.7798 5060155
1465.6797 930.20795 2397.3489 5125949
1490.6649 936.98273 2414.8088 4665142
1507.8047 938.74402 2419.3481 4007725
1526.2844 941.29858 2425.9319 4073519
1535.7445 938.29486 2418.1904 3481638
1549.1776 937.75146 2416.79 2232086
1526.9681 915.84039 2360.3206 2692384
1488.519 884.67548 2280.0017 918026
1481.925 872.8335 2249.4824 524297
1489.6427 869.55676 2241.0376 327947
1506.5323 871.64478 2246.4187 919829
1501.7914 861.29083 2219.7344 591629
1527.2522 868.28729 2237.7656 7103864
1530.6173 862.70935 2223.3901 6905968
1548.3268 865.24261 2229.9189 7630204
1553.1599 860.59827 2217.9495 4800593
1560.636 857.48395 2209.9233 4865616
1568.3186 854.53412 2202.3208 6839662
1587.8218 858.02057 2211.3062 6971505
1589.4408 851.86475 2195.4412 6116452
1594.4708 847.62219 2184.5073 7037041
1622.259 855.44885 2204.6785 6839662
1616.097 845.39087 2178.7568 7892351
1639.7911 850.98651 2193.178 4011077
1701.491 876.06256 2257.8042 4470861
1697.4836 867.17981 2234.9116 4076359
1714.2892 868.98492 2239.5637 3681858
1724.8677 867.63 2236.0718 7168628
1723.0516 860.10876 2216.6877 8089730
1736.1448 860.0871 2216.6321 5589082
1755.248 863.021 2224.1934 6116194
1764.8506 861.2746 2219.6926 9669014
1816.6107 879.97546 2267.8887 6377821
1913.269 919.99078 2371.0171 2627619
1950.0242 930.82837 2398.9478 4469821
1982.5673 939.51294 2421.3298 4271928
1984.0861 933.47644 2405.7725 3811633
2015.001 941.25775 2425.8267 6706525
2047.0874 949.47217 2446.9968 3877426
2063.1157 950.17542 2448.8093 4074805
2068.1589 945.84491 2437.6487 3416875
2107.0483 956.94623 2466.259 4206647
2119.6953 956.05829 2463.9707 4930373
2094.717 938.32825 2418.2766 3680306
2112.8889 940.03705 2422.6804 3285805
2127.5271 940.16125 2423.0005 3482927
2148.3416 942.99463 2430.3027 2824998
2155.7085 939.92706 2422.397 3877429
2187.8152 947.61554 2442.2119 4206138
2202.8857 947.87262 2442.8745 5258825
2198.5083 939.81281 2422.1025 2627619
2209.6458 938.44678 2418.582 1707798
2222.0837 937.64709 2416.5212 5258831
2270.0593 951.75745 2452.8865 1379090
2280.2119 949.93121 2448.1799 1247505
2289.5261 947.78094 2442.6382 1905179
2290.1006 942.06244 2427.9004 4667715
2310.5295 944.53198 2434.2649 4536129
2338.5925 950.07208 2448.543 5785939
0 0 0 0
0 0 0 0
0 0 0 0
0 0 0 0
0 0 0 0
0 0 0 0
0 0 0 0
0 0 0 0
0 0 0 0
0 0 0 0
-1861.7904 837.15662 2125.0786 3416346
-1866.5303 845.00372 2144.998 3351323
-1826.7252 832.65405 2113.6492 4930098
-1826.3365 838.22473 2127.7898 4469547
-1823.9902 842.9679 2139.8303 4666925
-1811.3395 842.98206 2139.8662 4666670
-1800.546 843.86682 2142.1121 5258806
-1789.7673 844.77112 2144.4077 4074788
-1777.3379 844.90375 2144.7441 4666925
-1764.3866 844.78827 2144.4512 4535340
-1753.1852 845.51508 2146.2961 5785407
-1739.6882 845.13727 2145.3372 5653821
-1725.3268 844.33093 2143.2903 5522492
-1712.5543 844.29602 2143.2017 5456442
-1703.705 846.20917 2148.0581 5983300
-1684.8728 843.1554 2140.3062 6575693
-1694.014 854.1601 2168.241 6378314
-1672.4751 849.74524 2157.0342 6707277
-1663.6693 851.78149 2162.2031 6575691
-1651.3528 852.03809 2162.8542 6641482
-1646.0911 855.96704 2172.8279 6312517
-1635.9847 857.41895 2176.5134 6377539
-1622.0077 856.84924 2175.0671 6443589
-1612.153 858.46539 2179.1699 6377796
-1603.1136 860.54541 2184.45 6049087
-1599.6932 865.7002 2197.5349 5785915
-1593.213 869.27002 2206.5967 6179907
-1577.6256 867.88873 2203.0906 4995889
-1563.8849 867.50897 2202.1265 4732460
-1558.4792 871.78522 2212.9814 4864046
-1538.7887 868.07562 2203.5647 4008480
-1528.1202 869.43555 2207.0171 3284758
-1522.5302 873.7334 2217.9268 3481881
-1505.3093 871.37335 2211.936 4929585
-1504.511 878.56183 2230.1836 4666416
-1476.1624 869.64709 2207.554 2365204
-1450.4579 862.14465 2188.5095 655360
-1419.0642 851.0946 2160.4595 327680
-1405.889 850.86969 2159.8884 2628374
-1400.8175 855.59003 2171.8708 3088665
-1380.9069 851.25043 2160.855 2628114
-1363.3433 848.29004 2153.3401 4141095
-1357.7106 852.76733 2164.7056 2825493
-1338.8506 848.94281 2154.9973 2497298
-1318.766 844.26074 2143.1121 3550243
-1298.1707 839.15747 2130.1575 4208172
-1291.5613 843.08337 2140.1233 5062971
-1267.2482 835.41632 2120.6609 3155231
-1267.1648 843.7287 2141.7615 2298895
-1244.3938 836.95013 2124.5544 1509637
-1237.4954 840.81769 2134.3721 9535093
-1223.5925 839.95685 2132.1868 7692629
-1218.0839 844.90039 2144.7358 7232079
-1208.8618 847.34546 2150.9424 4073763
-1192.9689 845.1167 2145.2849 4863279
-1190.9548 852.77789 2164.7324 3810594
-1178.0242 852.7041 2164.5452 5389624
-1172.8016 858.26965 2178.6729 4139556
-1152.8895 853.08923 2165.5227 5126707
-1146.8905 858.20325 2178.5044 5521464
-1132.6616 857.20544 2175.9714 5192242
-1135.5126 869.25934 2206.5698 5258550
-1122.692 869.4577 2207.0732 5784636
-1103.3827 864.57629 2194.6819 5192757
-1082.6139 858.42126 2179.0576 6574153
-1082.3186 868.54718 2204.762 5522235
-1071.952 870.73987 2210.3279 4864305
-1064.7694 875.60492 2222.6777 4601133
-1051.5935 875.60181 2222.6697 5193270
-1047.8198 883.52655 2242.7861 5193270
-1028.468 878.35052 2229.6472 4732976
-1032.8575 893.57977 2268.3059 5193014
-1015.2395 889.91962 2259.0146 4732719
-997.44214 886.00238 2249.071 4666669
-983.91846 885.82654 2248.6248 4930098
-974.95996 889.81256 2258.7429 5127477
-964.58923 892.6026 2265.8254 5390649
-943.9563 885.841 2248.6614 5521978
-936.3844 891.31824 2262.5649 5653564
-935.23676 903.15851 2292.6208 6114115
-909.13007 890.88959 2261.4768 5258550
-898.83191 893.97668 2269.3132 5126964
-881.85931 890.41827 2260.2805 5061171
-872.02374 894.06763 2269.5442 4402984
-858.96545 894.47522 2270.5789 4337191
-845.01086 893.94775 2269.24 4008483
-836.36853 899.11395 2282.354 5258549
-821.05914 897.16486 2277.4065 5455929
-809.9212 899.7851 2284.0576 4600620
-790.11383 892.69922 2266.0706 4271655
-779.61456 896.06689 2274.6191 4139812
-763.83453 893.37653 2267.79 2758930
-754.11981 897.81091 2279.0464 3153431
-742.20355 899.73834 2283.939 2692880
-727.84253 898.71851 2281.3501 3021845
-708.73181 891.68427 2263.4941 3746338
-698.39423 895.62946 2273.5088 3943718
-682.56641 892.55048 2265.6931 3614497
-669.66846 893.25616 2267.4844 3219998
-657.74365 895.31543 2272.7117 4009258
-641.55286 891.53247 2263.1089 2825757
-625.80402 888.21527 2254.6882 2365980
-609.22021 883.54248 2242.8267 393219
-592.1665 877.96442 2228.667 196619
-577.41718 875.62634 2222.7319 196622
-562.47827 872.88501 2215.7732 262156
-547.55939 870.04437 2208.5625 393227
-533.68439 868.76385 2205.312 393221
-518.46344 865.17316 2196.197 524290
-504.0256 862.73792 2190.0154 524289
-488.76562 858.72949 2179.8403 458754
-475.84518 858.72552 2179.8301 458756
-461.33398 855.77039 2172.3286 458756
-448.60046 856.03772 2173.0073 458756
-435.4335 855.46954 2171.5649 458756
-421.61307 853.5437 2166.6763 458756
-407.77802 851.46637 2161.4031 458755
-394.19452 849.79657 2157.1646 458755
-380.59695 847.98352 2152.562 458755
-365.25574 842.02496 2137.4368 524290
-354.2778 846.05853 2147.6755 524290
-339.14914 840.11072 2132.5774 524288
-324.98322 836.17969 2122.5986 524288
-310.30478 830.56024 2108.334 6904661
-303.06378 845.21155 2145.5256 7759710
-291.56396 848.74847 2154.5039 7890780
-283.51175 863.1051 2190.9475 7561813
-272.78851 870.31805 2209.2571 7956317
-260.61389 873.39417 2217.0657 984322
-248.23433 876.07379 2223.8677 3679774
-236.42911 881.19427 2236.866 5587770
-224.35252 885.85175 2248.6887 4929839
-213.39731 895.80493 2273.9541 5456441
-201.12656 901.20496 2287.6621 6048834
-187.21754 899.51465 2283.3711 5917249
-173.25882 897.30322 2277.7576 5851971
-160.70378 902.60211 2291.2085 4535855
-148.26266 909.578 2308.9165 4009768
-135.86842 918.28912 2331.0293 3746339
-121.13504 911.37341 2313.4741 4008997
-107.43015 911.41797 2313.5872 3482653
-93.773407 911.94373 2314.9219 3745568
-80.259148 914.27295 2320.8342 3548445
-65.940727 906.51025 2301.1292 3285020
-52.491058 909.75671 2309.3701 3811364
-38.992485 914.14655 2320.5134 3811364
-25.079315 908.3042 2305.6831 3416605
-11.520138 916.64252 2326.8494 3877159
2.2775757 919.99829 2335.3679 4074537
16.182531 923.71246 2344.7961 3153436
30.13925 925.58447 2349.5481 1837833
44.333088 931.25433 2363.9407 1838091
58.295315 930.50421 2362.0366 1969678
71.877586 925.15417 2348.4558 1772813
84.970642 916.2644 2325.8896 1641484
98.773605 916.44305 2326.343 720896
113.48002 923.93347 2345.3572 2824473
126.62547 918.4671 2331.481 2692886
140.42551 918.35712 2331.2019 3087387
154.34332 918.96814 2332.7529 4337453
169.77234 927.73676 2355.0115 5193019
183.39659 926.06006 2350.7554 3416351
197.51274 926.92865 2352.9602 2298384
212.27016 930.49365 2362.0098 1049862
223.92587 920.86224 2337.561 720896
231.26744 895.64539 2273.5493 1641485
244.92062 896.30292 2275.2183 4010284
255.91643 887.67426 2253.3149 7628898
268.95438 886.63361 2250.6733 4471095
283.85422 891.53925 2263.126 4076340
292.7933 878.125 2229.0747 8285553
305.85931 877.71191 2228.0261 5323841
319.98618 880.25128 2234.4722 7889254
334.61209 883.9071 2243.7522 2431002
346.70071 880.83722 2235.9595 1114370
356.8067 873.1416 2216.4246 2165779
369.5336 872.17841 2213.9795 458752
386.17996 880.21472 2234.3794 720896
397.06583 875.0238 2221.2024 589824
408.35345 871.02289 2211.0464 1509386
421.21231 870.51813 2209.7651 983040
435.65451 873.21722 2216.6167 1509385
450.63892 876.81354 2225.7456 720896
463.02518 875.29364 2221.8875 720896
471.56638 866.79028 2200.302 1836038
487.19269 871.41724 2212.0474 4729387
498.95178 869.06592 2206.0786 3216918
516.03638 875.8736 2223.3596 7821399
535.97479 887.06549 2251.7698 4073511
566.00043 914.00311 2320.1494 6179659
588.90558 928.43707 2356.7893 5851469
604.18091 930.45215 2361.9045 721414
628.73499 946.34198 2402.24 393223
643.74182 947.4762 2405.1191 262156
659.07861 949.0365 2409.0798 131085
673.57245 949.34253 2409.8567 65552
688.09943 949.68158 2410.7173 16
699.34326 945.56769 2400.2744 15
718.90472 952.63977 2418.2266 14
732.96387 952.28674 2417.3303 16
748.76288 954.16431 2422.0964 14
762.24493 953.07416 2419.3293 14
758.92444 931.4032 2364.3186 14
790.00098 951.96698 2416.5188 14
781.72754 925.22516 2348.636 12
788.54413 916.96667 2327.6724 12
800.73901 915.13879 2323.0322 12
815.91522 916.72229 2327.052 12
828.70886 915.62079 2324.2559 65548
840.6377 913.61542 2319.1653 196619
849.40442 908.29321 2305.655 196616
866.51294 911.9184 2314.8574 393220
875.73254 907.25769 2303.0266 327681
877.68079 895.32257 2272.7297 3286054
885.4209 889.5672 2258.1201 3745831
909.4873 900.14172 2284.9629 3614244
941.72272 918.37231 2331.2405 2166543
940.80023 904.2077 2295.2844 589824
948.28284 898.40985 2280.5667 655360
962.14331 898.73236 2281.3855 524288
976.90863 899.87964 2284.2976 524290
988.87958 898.45654 2280.6853 655360
1001.3209 897.49341 2278.2405 984325
1017.2186 899.61267 2283.6201 1772814
1039.6763 907.40179 2303.3923 4337455
1050.4846 904.95343 2297.1772 786432
1066.8162 907.26489 2303.0449 851968
1080.6838 907.44897 2303.5122 851968
1097.0129 909.66974 2309.1494 851968
1111.6564 910.45514 2311.1431 851968
1128.3948 912.91632 2317.3906 851968
1143.2512 913.81403 2319.6694 786432
1159.0875 915.46417 2323.8584 851968
1190.5709 929.28906 2358.9519 2035216
1196.8846 923.37476 2343.939 1771274
1212.9227 925.01251 2348.0962 4271153
1225.7274 924.17511 2345.9705 2757914
1239.2627 923.90118 2345.2751 4863035
1258.219 927.63007 2354.7407 4863292
1294.0513 943.58252 2395.2351 1969940
1302.0569 939.11847 2383.9036 4731707
1304.6238 930.86987 2362.9648 6113361
1316.7894 929.57257 2359.6716 4863295
1342.7406 937.93188 2380.8914 5981775
1349.16 932.61597 2367.3972 5521222
1363.3848 932.74939 2367.7358 4994878
1376.762 932.30621 2366.6108 4731706
1401.6256 939.57184 2385.0542 4139312
1413.1466 937.8374 2380.6516 6113359
1443.3689 948.42578 2407.5295 3547175
1446.3174 941.06097 2388.8345 5126464
1450.6831 934.75208 2372.8196 5652552
1461.0272 932.37958 2366.7971 4929086
1468.5194 928.24945 2356.313 3811630
1499.6886 939.0224 2383.6594 3285030
1491.4934 925.17651 2348.5125 2692380
1486.3358 913.45337 2318.7539 1114888
1462.2194 890.40027 2260.2349 3088168
1474.6843 889.83923 2258.8108 3286318
1480.5724 885.35559 2247.4292 853004
1487.7471 881.71423 2238.1858 196615
1493.5009 877.30273 2226.9873 591118
1501.7794 874.43848 2219.7168 1642786
1513.3765 873.53949 2217.4346 2432557
1527.9371 874.35193 2219.4968 5786973
1545.7629 877.00287 2226.2263 7694714
1554.4385 874.46167 2219.7754 5918560
1561.7505 871.20215 2211.5015 7037042
1555.7366 860.62524 2184.6523 4010563
1575.1647 864.18115 2193.679 4668493
1569.8882 854.23602 2168.4338 4799566
1582.9314 854.34003 2168.6978 6115681
1594.969 853.90399 2167.5908 5655131
1623.8162 862.40228 2189.1633 8550278
1647.2028 867.88885 2203.0908 8813706
1684.5995 880.61279 2235.3899 3681339
1686.3687 874.65942 2220.2776 4010303
1689.6099 869.55597 2207.3225 6379881
1666.755 851.20355 2160.7361 4735058
1695.7021 859.38452 2181.5029 7037298
1725.7573 867.99884 2203.3699 6115682
1732.9071 865.04974 2195.8838 8681609
1732.4379 858.36957 2178.9265 9011600
1735.0028 853.28046 2166.0081 7891836
1775.4309 866.75055 2200.2012 10853029
1818.0277 881.07532 2236.564 3154987
1939.8066 933.28912 2369.106 4272188
1949.8448 931.37775 2364.2539 3481901
1989.2308 943.41205 2394.8025 2955557
2025.7371 953.91968 2421.4756 3811121
2033.0669 950.63708 2413.1428 3745840
2051.2979 952.46191 2417.7751 4535356
2076.2292 957.35114 2430.186 4009012
2107.3538 965.00873 2449.6245 4666941
2097.9224 954.11725 2421.9771 5127236
2087.5762 942.96063 2393.6565 4272184
2099.5115 941.95105 2391.0938 4074805
2115.4648 942.74579 2393.1113 4074548
2128.5696 942.2688 2391.9004 4732735
2140.6785 941.36029 2389.5942 4732736
2176.5408 950.84052 2413.6594 4140599
2181.449 946.76282 2403.3083 4535356
2192.4971 945.38544 2399.8118 4009014
2203.4424 943.98169 2396.2485 2890276
2229.2271 948.9126 2408.7654 3482670
2224.6067 940.92078 2388.4785 2232603
2224.1086 934.76245 2372.8459 3285548
2240.9326 935.91595 2375.7739 4403772
2273.1692 943.45197 2394.9038 4404029
2292.187 945.44202 2399.9556 4141371
0 0 0 0
0 0 0 0
0 0 0 0
0 0 0 0
0 0 0 0
0 0 0 0
0 0 0 0
0 0 0 0
0 0 0 0
0 0 0 0
-1830.9835 835.68951 2089.915 2101260
-1830.7552 841.27594 2103.8857 3416859
-1814.3894 839.47253 2099.3757 4272169
-1816.6283 846.31158 2116.479 4864306
-1798.2856 843.59082 2109.6748 3482652
-1786.3679 843.867 2110.3655 3350810
-1775.4639 844.62939 2112.272 3350298
-1761.3041 843.84259 2110.3044 3350553
-1745.84 842.41528 2106.7351 3416090
-1752.7006 851.81732 2130.2478 4271398
-1725.269 844.56873 2112.1204 4863793
-1723.1089 849.67572 2124.8921 5127221
-1704.6173 846.74542 2117.564 6377543
-1693.0776 847.25061 2118.8274 6443337
-1682.8931 848.44653 2121.8181 6312521
-1672.3693 849.4881 2124.4229 6378315
-1670.0939 854.76709 2137.6248 6312519
-1654.9032 853.46613 2134.3711 6312519
-1646.2733 855.55463 2139.5942 6246726
-1635.5233 856.56531 2142.1218 6444104
-1627.2815 858.91565 2147.9995 6048577
-1615.957 859.66309 2149.8687 5850941
-1603.1172 859.6098 2149.7356 4469290
-1596.8191 863.09155 2158.4429 4074530
-1583.5918 862.85406 2157.8489 5587769
-1573.9504 864.58246 2162.1714 4864046
-1561.8617 864.98389 2163.175 4995631
-1546.8276 863.74725 2160.0825 4600874
-1537.6659 865.79645 2165.2073 4864046
-1538.5853 873.60413 2184.7329 5785147
-1525.8657 873.7345 2185.0588 5587769
-1514.1787 874.46332 2186.8816 5719355
-1500.3827 873.97638 2185.6638 5456185
-1492.1924 876.77454 2192.6616 4536110
-1477.1714 875.57318 2189.6572 3944490
-1462.7257 874.69464 2187.46 3615525
-1434.698 865.60565 2164.7302 1905683
-1416.5004 862.33716 2156.5562 2826524
-1397.7218 858.65228 2147.3408 2957854
-1383.6825 857.83777 2145.304 3878697
-1369.6329 857.00183 2143.2134 1642506
-1360.7688 859.42517 2149.2739 4602160
-1346.313 858.32941 2146.5334 3483681
-1316.401 847.26477 2118.8628 5852488
-1305.7279 848.48889 2121.9241 1182215
-1294.0582 849.08282 2123.4094 3154976
-1275.5614 845.16504 2113.6116 2826010
-1264.0104 845.8172 2115.2427 3680804
-1258.7273 850.71875 2127.5005 4272169
-1241.6945 847.69794 2119.946 5916994
-1229.5927 848.01617 2120.7419 6442824
-1219.4771 849.72498 2125.0154 5060914
-1206.8528 849.70312 2124.9607 4797742
-1186.1356 843.92285 2110.5051 4666670
-1187.7229 854.05798 2135.8513 5324344
-1178.9424 856.87579 2142.8982 4995379
-1172.0078 861.11127 2153.4905 4534827
-1160.7235 862.20892 2156.2356 5258550
-1150.5237 864.14557 2161.0789 4731948
-1147.5914 871.64587 2179.8357 5324086
-1128.9634 867.2597 2168.8667 5587769
-1105.0968 858.70184 2147.4648 5719099
-1098.2611 863.3324 2159.0452 5521975
-1088.9188 866.07849 2165.9126 5061681
-1075.4591 865.57623 2164.6565 5851198
-1069.6448 871.28949 2178.9443 5719612
-1060.3726 874.29126 2186.4514 5785405
-1060.3888 885.12048 2213.5334 4864046
-1051.1932 888.43555 2221.8237 4798253
-1035.2299 886.04211 2215.8381 5258550
-1024.8481 888.42584 2221.7996 3942434
-1014.7302 891.10339 2228.4956 3416346
-994.25562 884.6366 2212.3232 4534827
-982.91119 886.22919 2216.3059 4995635
-973.46765 889.60193 2224.7407 4798255
-960.51239 889.81415 2225.2715 4798512
-946.7522 889.27618 2223.926 4995891
-935.88678 891.48047 2229.4385 5258550
-921.03149 889.89276 2225.468 5192757
-905.96344 888.05054 2220.8608 5324343
-901.73999 896.9408 2243.094 5455929
-879.25098 887.65692 2219.8765 4271398
-870.61713 892.29114 2231.4658 4600363
-855.45752 890.27686 2226.4285 4666156
-842.914 890.96466 2228.1487 5061425
-827.43835 888.52588 2222.0496 5587769
-821.41193 896.31909 2241.5391 5521719
-806.65485 894.68506 2237.4526 5390390
-793.11774 894.37213 2236.6702 4863793
-777.57556 891.74908 2230.1104 4008483
-762.00024 888.9967 2223.2271 3679775
-754.63995 895.90027 2240.4917 4272169
-744.25824 899.3999 2249.2437 4140583
-726.84241 894.3717 2236.6689 3482653
-711.38177 891.60712 2229.7554 3219480
-696.73889 889.78247 2225.1921 2957079
-683.55811 889.79047 2225.2122 4141097
-670.69513 890.22064 2226.2881 4207147
-655.95288 888.1236 2221.0437 4273198
-643.75244 889.45276 2224.3677 3351841
-630.8374 889.82941 2225.3096 2168082
-615.80585 887.17303 2218.6663 4471612
-603.70471 888.71454 2222.5215 196613
-597.85211 899.72852 2250.0654 196615
-584.54382 899.76855 2250.1655 196619
-561.95496 885.19177 2213.7117 196618
-550.60797 888.04974 2220.8589 196617
-530.30273 876.24542 2191.3384 196615
-516.2962 874.51733 2187.0166 393221
-501.84015 871.91931 2180.5195 393220
-486.86148 868.25189 2171.3479 393220
-474.13254 868.50635 2171.9844 393220
-459.85934 865.86743 2165.3848 393221
-447.05927 865.9303 2165.542 393221
-434.06235 865.60437 2164.7268 393221
-420.57965 864.26025 2161.3655 393220
-406.80954 862.22266 2156.2698 393220
-391.86411 857.4809 2144.4116 458756
-378.80347 856.68396 2142.4185 458756
-365.99857 856.43011 2141.7837 458755
-352.88733 855.41553 2139.2463 458754
-339.56125 853.7851 2135.1689 524289
-326.46771 852.63568 2132.2944 458752
-314.0498 853.22943 2133.7793 5259835
-304.09537 860.84662 2152.8286 6970449
-291.76828 862.1203 2156.0139 7759705
-279.1088 862.4834 2156.9219 7035980
-271.65274 879.73248 2200.0588 5522746
-258.47946 879.27228 2198.908 2232588
-246.35217 882.51038 2207.0059 918274
-232.69067 880.30737 2201.4966 1378051
-219.31334 878.98169 2198.1812 4600618
-209.56931 892.96979 2233.1631 4732460
-196.61115 894.22528 2236.303 5061425
-183.75214 896.14575 2241.1057 5391161
-172.18721 905.1684 2263.6697 5720384
