# .PCD v0.7 - Point Cloud Data file format
VERSION 0.7
FIELDS x y z rgb
SIZE 4 4 4 4
TYPE F F F U
COUNT 1 1 1 1
WIDTH 1280
HEIGHT 1
VIEWPOINT 0 0 0 1 0 0 0
POINTS 1280
DATA ascii
1686.425 941.43488 2812.9458 6112842
1706.6508 943.40027 2818.8181 5455427
1728.6552 946.30133 2827.4863 5587014
1731.3101 938.65607 2804.6428 5587014
1759.7584 945.00757 2823.6206 5784393
1769.1586 941.10657 2811.9648 5652808
1792.3206 944.53088 2822.1963 5981772
1804.5288 942.17255 2815.1499 5126206
1827.9969 945.68268 2825.6379 3153444
1851.9023 949.35327 2836.6052 2560280
1866.5931 948.27637 2833.3877 4073264
1867.2915 940.17365 2809.1772 3875884
1870.0266 933.23059 2788.4319 4665402
1911.9288 945.78418 2825.9412 2430233
1933.1084 947.9577 2832.4355 4402742
1940.7791 943.52649 2819.1953 2758174
1934.0027 932.20715 2785.3738 2166292
1933.444 924.05103 2761.0039 3152677
1951.5032 924.85529 2763.407 3548461
1978.7002 929.94061 2778.6018 1575184
1984.5399 924.98743 2763.802 1377295
1962.4674 907.21216 2710.6904 1049100
1964.8304 900.92981 2691.9192 393226
1976.866 899.14801 2686.5955 131080
1986.0649 896.11493 2677.5327 1314582
1963.813 879.05157 2626.5486 11906741
2025.8168 899.67511 2688.1702 12433599
2029.5 894.27844 2672.0454 12367812
2044.2633 893.80969 2670.645 13025225
2068.4084 897.41888 2681.4287 13156298
2079.8794 895.51581 2675.7427 13551309
2073.8254 886.15314 2647.7676 10588056
2171.1702 920.78204 2751.2366 3548716
2197.6165 925.05115 2763.9922 5323844
2244.4832 937.78906 2802.0522 5323587
2275.3083 943.68658 2819.6738 5323844
2323.8252 956.78241 2858.8032 3811374
2353.1555 961.84619 2873.9333 2165779
2360.573 957.9447 2862.2759 4928572
2381.8792 959.69476 2867.5051 6179154
2403.519 961.55365 2873.0593 5325130
2412.7385 958.45245 2863.7932 5259080
2411.3579 951.21295 2842.1621 5325902
2426.3875 950.50256 2840.0393 2431523
2397.0422 932.53845 2786.3638 852750
2395.1033 925.40912 2765.0618 327691
2395.3572 919.21838 2746.5642 327693
2410.0439 918.6123 2744.7534 196624
2415.9395 914.68604 2733.022 196622
2438.1462 916.94641 2739.7759 920346
2478.0022 925.77051 2766.1416 3354432
2517.7681 934.44519 2792.061 4078154
2523.0764 930.30157 2779.6802 5130842
2522.9402 924.21722 2761.5005 459796
2531.3779 921.33179 2752.8792 657176
2534.8535 916.68909 2739.0068 65806
2541.6748 913.30743 2728.9028 854300
2522.6404 900.73663 2691.342 131088
2571.2678 912.33124 2725.9861 328717
2577.1851 908.72144 2715.2002 6973561
2544.0479 891.47137 2663.658 3881032
0 0 0 0
0 0 0 0
0 0 0 0
0 0 0 0
0 0 0 0
0 0 0 0
0 0 0 0
0 0 0 0
0 0 0 0
-2264.3853 874.41663 2567.2412 10588539
-2231.7737 867.65289 2547.3833 10851709
-2211.8354 865.75781 2541.8193 11114879
-2195.0835 865.09229 2539.8655 10983550
-2167.9871 860.31274 2525.8328 11378052
-2147.3418 858.04449 2519.1733 11509639
-2138.8369 860.62939 2526.7625 11838863
-2122.2834 859.98938 2524.8835 10061940
-2121.9797 865.97186 2542.4478 9930612
-2103.4929 864.56628 2538.321 10456699
-2094.7554 867.17639 2545.9841 10982786
-2076.3779 865.80487 2541.9573 11311750
-2069.467 869.22937 2552.0117 11114112
-2052.9448 868.63776 2550.2747 10983039
-2036.9846 868.27679 2549.2148 10193523
-2011.1577 863.67328 2535.6992 10983041
-1996.5929 863.87335 2536.2866 10785662
-1988.4951 866.89575 2545.1602 11048835
-1972.3717 866.43866 2543.8184 11114629
-1961.4454 868.27533 2549.2107 11443849
-1949.116 869.51447 2552.8486 11641484
-1930.0288 867.73474 2547.6235 12233620
-1933.2288 876.02618 2571.9668 12167314
-1928.9757 881.04541 2586.7029 11838351
-1915.9851 882.12213 2589.864 10390648
-1894.9248 879.47107 2582.0806 9338218
-1891.8086 885.17261 2598.8203 8417629
-1867.6394 881.0365 2586.6768 9009252
-1843.4696 876.83148 2574.3311 9140580
-1843.1777 884.00848 2595.4023 9271911
-1825.5177 882.90625 2592.1663 9864305
-1814.6605 885.10327 2598.6167 8153686
-1793.7277 882.38159 2590.6257 10325111
-1783.3833 884.86652 2597.9214 10522746
-1754.4912 878.11163 2578.0896 9798768
-1744.3057 880.68298 2585.6389 8417115
-1722.0546 877.15411 2575.2781 8219737
-1704.7374 876.09778 2572.1768 7496016
-1697.6117 880.30713 2584.5354 7693138
-1687.225 882.88672 2592.1089 7759187
-1670.5597 882.19824 2590.0874 9469549
-1654.4291 881.7818 2588.865 9272426
-1634.6501 879.39496 2581.8572 9601392
-1620.8198 880.19348 2584.2017 9864308
-1619.0359 887.61139 2605.9802 9798515
-1596.8269 883.86664 2594.9858 9469807
-1589.4637 888.34631 2608.1379 9075306
-1575.3999 889.1322 2610.4453 9075048
-1564.1904 891.56073 2617.5752 8812133
-1540.5695 886.89264 2603.8699 8285532
-1512.1903 879.36316 2581.7639 7496015
-1508.6212 886.25464 2601.9968 6049339
-1488.6956 883.58044 2594.1455 6180414
-1493.7269 895.81757 2630.0732 7364431
-1480.9459 897.5177 2635.0647 7101516
-1478.4224 905.53687 2658.6084 7364689
-1454.4486 900.44885 2643.6704 7496277
-1444.781 904.20355 2654.6941 7299155
-1416.7941 896.44965 2631.929 6049089
-1382.0139 884.177 2595.8972 6049346
-1384.2946 895.60547 2629.4504 6707277
-1384.9888 906.25616 2660.7202 4601901
-1364.7025 903.26562 2651.9402 4667695
-1351.9727 905.26508 2657.8105 4733488
-1328.9464 900.33612 2643.3394 5851197
-1317.7234 903.38141 2652.28 4798252
-1294.9071 898.45636 2637.8203 5061937
-1281.2892 899.87091 2641.9736 4864814
-1262.5745 897.69684 2635.5906 4864557
-1241.4258 893.716 2623.9031 4666668
-1233.0825 898.96985 2639.3281 4206375
-1218.8771 900.03009 2642.4409 4732462
-1208.7941 904.20154 2654.688 4797999
-1188.6339 900.8457 2644.8354 4469033
-1174.9058 902.33997 2649.2227 5060912
-1161.6729 904.26031 2654.8606 4863790
-1139.869 899.46997 2640.7966 5060912
-1117.1759 893.8349 2624.2522 5455413
-1114.3746 904.18048 2654.6262 4666154
-1093.3937 899.86047 2641.9429 4007967
-1077.687 899.81879 2641.8206 4797998
-1069.2628 905.94604 2659.8098 4008482
-1059.1219 910.78046 2674.0034 4074276
-1043.2029 910.71729 2673.8179 4337449
-1025.283 908.87842 2668.4192 4995379
-1002.7485 902.82727 2650.6533 5061172
-991.12305 906.56183 2661.6177 5258551
-975.01569 906.25134 2660.7063 5258550
-957.92499 905.00165 2657.0371 5455929
-941.14062 904.00446 2654.1094 5455672
-922.86005 901.51166 2646.7908 5521722
-905.60327 899.9502 2642.2063 4929585
-884.24371 894.18475 2625.2793 4600874
-857.12628 882.28601 2590.3452 4535084
-815.92871 855.19543 2510.8088 11444121
-778.20105 830.80304 2439.1938 13617859
-779.76483 848.22845 2490.354 13946572
-766.52087 849.90759 2495.2839 13683913
-752.37463 850.63269 2497.4128 13684685
-740.17407 853.6308 2506.2151 13750478
-725.35309 853.66779 2506.3235 13750222
-712.48364 856.05103 2513.3208 13750220
-707.49463 868.2066 2549.0088 13750219
-692.30292 868.09906 2548.6931 13947085
-672.79156 862.4494 2532.106 13682628
-667.26105 874.87286 2568.5806 12300718
-652.86389 875.97949 2571.8296 8945016
-635.54504 873.12518 2563.4495 8944759
-641.74963 903.2395 2651.8635 3154720
-614.19336 886.15564 2601.7063 919044
-605.74091 896.46478 2631.9731 985095
-595.25409 904.22839 2654.7668 4469550
-581.74976 907.70532 2664.9749 3877156
-567.03497 909.435 2670.0532 4205606
-550.80682 908.76703 2668.092 5389624
-536.9632 912.11005 2677.907 4928047
-520.37268 910.84857 2674.2036 4730412
-502.53076 907.24872 2663.6343 4138529
-486.18954 906.21246 2660.592 3743515
-470.94476 907.21887 2663.5469 5322803
-454.17679 905.25916 2657.7932 4796204
-433.56024 895.21204 2628.2954 5519926
-423.1882 906.3573 2661.0171 5387570
-406.36823 904.02087 2654.1577 5848120
-391.85098 906.82538 2662.3914 5914427
-376.86383 908.73212 2667.9895 6178112
-360.45413 907.22546 2663.5662 5717562
-345.70239 909.94482 2671.55 5848378
-330.42337 911.47064 2676.0298 5584949
-314.9494 912.58551 2679.303 4796459
-299.68137 914.44702 2684.7683 5454389
-284.57794 917.04791 2692.4043 5388596
-265.92133 907.82751 2665.3337 5783098
-252.1499 915.17328 2686.9004 5585977
-236.14117 914.84155 2685.9268 4796975
-219.38121 911.34143 2675.6504 4271147
-203.94514 913.22388 2681.1772 4205099
-187.86162 912.28046 2678.4072 4994870
-171.6244 910.34753 2672.7324 5258041
-156.13272 912.37811 2678.6941 5323065
-140.13716 911.59076 2676.3823 5586493
-124.9334 916.41028 2690.5322 5980482
-107.95399 907.70984 2664.9883 5914946
-92.95668 915.54968 2688.0056 4862515
-76.55265 909.91168 2671.4529 4731186
-60.561867 907.52625 2664.4492 4863285
-44.7621 907.33026 2663.8738 4929336
-29.079847 910.60046 2673.4749 4271406
-13.127927 903.14709 2651.5923 4929336
2.5956793 906.53644 2661.5432 4995129
18.427423 909.44189 2670.0735 4994360
34.573639 918.01276 2695.2371 4665649
50.378025 914.95862 2686.2703 4072997
67.289337 928.64771 2726.4607 4664879
83.411652 928.25507 2725.3081 5980995
98.876503 921.86017 2706.533 5914433
116.1007 931.36383 2734.4353 5256506
131.75542 927.49127 2723.0654 5849155
147.61636 925.75708 2717.9741 5323840
164.75714 931.60089 2735.1311 4008495
179.56842 924.40564 2714.0063 5391177
196.14014 926.71106 2720.7747 3943476
210.8712 920.63019 2702.9216 5851728
229.0032 929.20764 2728.1047 5784647
244.61989 927.12061 2721.9773 4994358
263.79276 937.93622 2753.7312 5849409
277.72684 929.94983 2730.2837 4533550
291.7504 923.12585 2710.2488 4862258
307.17587 921.21838 2704.6484 6441804
325.92883 928.98431 2727.449 4994358
341.71838 927.96899 2724.468 6047046
359.82568 933.0553 2739.4014 5848898
374.57507 929.37115 2728.5847 5388603
388.59717 924.26202 2713.5845 3414815
408.17654 932.2514 2737.041 1772044
413.62769 908.59534 2667.5881 851969
422.12802 893.13245 2622.1899 851970
437.01303 891.79657 2618.2678 851970
452.71149 892.1554 2619.321 786434
467.26849 890.31549 2613.9192 720898
481.57016 888.12262 2607.4812 720898
496.55731 887.29114 2605.04 720898
515.15009 892.75836 2621.0916 1311755
524.34119 882.08923 2589.7676 1180682
542.87482 887.29669 2605.0564 851971
555.12561 882.23138 2590.1848 851972
577.2168 892.65643 2620.7922 1050376
603.09589 908.23969 2666.5439 3416875
617.3111 905.9104 2659.7051 8877178
639.3363 914.87286 2686.0186 7561316
666.72211 930.8844 2733.0276 9074042
685.55334 934.47583 2743.5718 5126716
698.95703 930.67389 2732.4097 5389375
715.87433 931.61676 2735.1777 6112584
730.17578 929.18896 2728.0498 4533038
750.39349 934.23212 2742.8562 5717568
754.0733 918.90833 2697.8665 5256248
773.70526 923.25641 2710.6323 4664110
795.38544 929.82214 2729.9087 5848896
819.73407 939.18329 2757.3928 6769997
830.76715 933.22089 2739.8875 6046274
841.42773 927.07678 2721.8486 5914687
864.23663 934.29675 2743.0461 4993330
883.94421 937.95947 2753.7996 5059380
899.08099 936.72705 2750.1814 5256759
914.29602 935.61859 2746.927 5322811
925.73059 930.74817 2732.6277 4665139
942.9071 931.71887 2735.4775 4863031
964.96503 937.3988 2752.1533 4731190
977.59686 933.88519 2741.8376 5849926
994.05261 934.07971 2742.4089 5849926
1010.1069 933.89691 2741.8721 5191739
1008.6356 917.77295 2694.533 5652290
1035.7496 927.75653 2723.8442 6310220
1051.4304 927.34967 2722.6497 7033944
1064.1368 924.3714 2713.9058 6507855
1089.7278 932.50745 2737.7927 6837077
1102.1111 929.26849 2728.2832 8218730
1127.34 936.79742 2750.3879 8744559
1151.7532 943.44379 2769.9014 8547180
1156.984 934.41125 2743.3821 7165271
1164.4498 927.40887 2722.8235 7494494
1172.4579 921.02393 2704.0776 6243657
1202.9656 932.24744 2737.0293 7033430
1213.5348 927.92645 2724.3433 4204074
1234.1854 931.32635 2734.3252 3218207
1251.5066 932.15833 2736.7678 4270894
1266.3375 931.13794 2733.772 6507599
1270.8757 922.67078 2708.9126 10125702
1266.287 907.87103 2665.4614 3153446
1273.2932 901.64679 2647.1873 720902
1243.5474 869.86578 2553.8801 458763
1254.1665 866.745 2544.7175 327695
1267.1868 865.33807 2540.5869 262159
1269.1638 856.5116 2514.6729 5786727
1304.549 870.17413 2554.7854 4405586
1328.306 875.8559 2571.4668 5260894
1345.563 877.17133 2575.3289 5589858
1370.7007 883.53717 2594.0186 6050922
1375.6235 876.87604 2574.4617 6248298
1384.818 873.05402 2563.2405 5394015
1397.6461 871.58087 2558.9155 7433342
1415.5601 873.27698 2563.8953 8617872
1442.6516 880.53864 2585.2151 9012630
1458.387 880.78918 2585.9507 5854307
1488.0719 889.3717 2611.1484 6906992
1507.0527 891.44592 2617.2383 6248804
1529.9967 895.79822 2630.0164 7959161
1613.8556 935.36823 2746.1919 7761268
1637.0121 939.31714 2757.7856 6313821
1658.4508 942.2121 2766.2849 4340544
1682.7974 946.6861 2779.4204 4798525
1706.7151 950.83453 2791.6001 5982285
1705.3951 940.97803 2762.6619 8548210
1746.0144 954.22961 2801.5679 9140091
1748.8444 946.77338 2779.6768 5587527
1758.8666 943.31378 2769.5195 5652806
1779.8303 945.73193 2776.6191 4600119
1801.8966 948.68634 2785.2932 5126720
1832.8374 956.21698 2807.4028 5784649
1844.5552 953.67352 2799.9353 3481380
1855.9575 951.01379 2792.1265 4994875
1878.0031 953.80664 2800.3259 5849929
1882.4985 947.71503 2782.4414 5324097
1908.113 952.2691 2795.812 5389891
1914.929 947.44379 2781.645 4534583
1921.3671 942.51562 2767.176 4666169
1923.772 935.70898 2747.1921 2627612
1937.347 934.40417 2743.3613 2430236
1961.1049 937.99139 2753.8933 2890790
1940.7395 920.5896 2702.8027 393222
1955.1541 919.83551 2700.5886 393223
1962.1116 915.61395 2688.1943 196620
1975.2867 914.33838 2684.4492 65547
2001.5554 919.09558 2698.4163 1841699
1975.5117 899.94641 2642.1953 13157584
2003.7151 905.61652 2658.8423 10128790
2031.1329 910.8457 2674.1951 11116205
2045.6606 910.2583 2672.4705 11445423
2056.6365 908.11163 2666.1677 11708339
2055.1882 900.55365 2643.978 12826818
2067.0015 898.87689 2639.0552 12234936
2091.5601 902.72644 2650.3572 12300216
2152.6855 922.18323 2707.4814 2432031
2195.6152 933.61499 2741.0444 5192260
2249.8135 949.63538 2788.0793 4139569
2276.7659 954.00549 2800.9099 5719115
2315.1309 963.06 2827.4934 5324102
2392.1924 987.9657 2900.6152 5981776
2347.6199 962.6402 2826.261 4535099
2370.6848 965.21173 2833.8108 2166551
2361.2273 954.59888 2802.6519 4798016
2397.0601 962.31635 2825.3101 4337723
2388.467 952.21539 2795.6543 4469308
2380.9805 942.69171 2767.6931 4601407
2385.6365 938.07306 2754.1331 4075835
2364.4504 923.4245 2711.1257 3483698
2408.6963 934.35547 2743.2185 2168352
2416.8848 931.2467 2734.0913 3024173
2440.8467 934.21649 2742.8103 1182484
2484.259 944.54218 2773.126 590602
2485.9084 938.95782 2756.7307 1051667
2519.7788 945.53711 2776.0471 788240
2430.9675 906.29382 2660.8311 131337
2502.0005 926.76428 2720.9312 11
2524.7734 929.21106 2728.1147 1775911
2544.7458 930.6026 2732.2002 986394
2530.9204 919.69489 2700.1755 262927
2550.5671 921.01111 2704.04 1775658
2551.6436 915.64691 2688.291 5196639
2546.2095 908.02753 2665.9209 2828092
0 0 0 0
0 0 0 0
0 0 0 0
0 0 0 0
0 0 0 0
0 0 0 0
0 0 0 0
0 0 0 0
0 0 0 0
-2199.9514 864.31598 2494.1897 10390902
-2205.729 872.44775 2517.6558 10785917
-2185.0166 870.14105 2510.9993 11312260
-2156.6382 864.72906 2495.3816 9667435
-2134.2363 861.65521 2486.5112 10193781
-2128.625 865.36444 2497.2153 9798768
-2117.9839 867.06659 2502.1272 8680031
-2109.2148 869.56464 2509.3359 9074789
-2092.7341 868.8963 2507.4072 9403753
-2072.6816 866.72461 2501.1404 10982528
-2064.3567 869.4613 2509.0376 11048578
-2035.7428 863.63019 2492.2107 10785403
-2029.7881 867.39697 2503.0806 11048575
-2013.4072 866.73108 2501.1589 10983296
-1992.9778 864.29938 2494.1418 11114373
-1974.7622 862.79877 2489.8113 11180935
-1962.6316 863.9541 2493.1453 12759711
-1954.8628 867.06146 2502.1125 14075570
-1933.5183 864.14923 2493.7083 12430488
-1926.4695 867.63031 2503.7539 12035730
-1916.5466 869.86108 2510.1912 12035472
-1906.3796 872.01495 2516.407 12364437
-1897.6533 874.86707 2524.6372 12233108
-1894.1783 880.20477 2540.0405 12167061
-1884.5865 882.76282 2547.4224 12496025
-1861.1492 878.82428 2536.0566 12167059
-1836.9711 874.46906 2523.4888 11246213
-1833.4811 879.97156 2539.3674 10785406
-1801.814 871.92969 2516.1606 11574923
-1780.6829 868.89465 2507.4023 11706768
-1765.0508 868.5144 2506.3052 11706767
-1755.1351 870.96442 2513.3755 11838093
-1768.3879 885.052 2554.0283 11706504
-1744.9092 880.84039 2541.8748 11574917
-1715.3778 873.47339 2520.6155 11179903
-1718.3413 882.6687 2547.1509 10653560
-1691.2679 876.46118 2529.2375 10588025
-1680.5818 878.71094 2535.7297 10982781
-1660.4532 876.01971 2527.9634 10324853
-1653.2444 880.15747 2539.9041 10785407
-1634.1118 877.96509 2533.5774 11048835
-1631.6296 884.76086 2553.1882 11246215
-1627.6045 890.83929 2570.729 10588284
-1606.6525 887.68054 2561.6135 10654076
-1597.9089 891.271 2571.9746 11048834
-1579.2384 889.34015 2566.4028 11114628
-1551.2783 882.0896 2545.4797 9996147
-1556.8862 893.97168 2579.7683 9930098
-1533.5747 889.31903 2566.3418 9930356
-1514.2812 886.92651 2559.4377 9798770
-1498.951 886.83038 2559.1604 9733489
-1483.0265 886.37714 2557.8523 10128248
-1474.3607 890.29767 2569.166 8088154
-1452.0502 885.97461 2556.6909 7891032
-1439.1821 887.38263 2560.7539 7759447
-1422.9752 886.73993 2558.8992 7627605
-1424.0012 896.93793 2588.3281 6443586
-1420.821 904.67981 2610.6689 7496018
-1399.6554 901.01422 2600.0911 7956826
-1376.5852 896.02722 2585.7 7561814
-1359.6345 894.95618 2582.6091 6246727
-1341.2725 892.92108 2576.7363 5786435
-1340.8146 902.89563 2605.5203 6312522
-1321.3021 900.12189 2597.5161 6378315
-1311.9595 904.29254 2609.5515 6246728
-1300.1206 906.82153 2616.8496 7759966
-1283.9934 906.3844 2615.5881 7299415
-1261.5625 901.4325 2601.2981 7233620
-1255.7083 908.34906 2621.2576 6378311
-1240.7362 908.76074 2622.4456 6904911
-1220.2889 905.12177 2611.9443 6838603
-1209.0029 908.27173 2621.0344 6838604
-1195.2405 909.61908 2624.9226 5720123
-1180.9141 910.56708 2627.6582 6377795
-1180.6472 922.52612 2662.1689 4798509
-1154.3667 914.20746 2638.1633 5390390
-1130.1403 907.30945 2618.2576 4797996
-1115.2972 907.85754 2619.8391 5127218
-1093.3838 902.58447 2604.6226 5126963
-1089.2026 912.00793 2631.8162 3877154
-1071.244 910.00159 2626.0264 4140325
-1056.13 910.388 2627.1416 4403755
-1041.0255 910.79462 2628.3147 4469548
-1022.4918 908.16748 2620.7334 4929843
-1012.2114 912.90295 2634.3989 4929842
-993.96716 910.49182 2627.4409 5653053
-978.91553 910.97491 2628.835 4732207
-964.41034 911.9903 2631.7654 4600621
-945.26794 908.58203 2621.9297 5324343
-923.62549 902.61652 2604.7151 5192757
-914.66852 909.05585 2623.2971 4732205
-890.19427 900.02917 2597.2485 5719615
-862.63617 887.51208 2561.1274 2035215
-820.46014 859.23785 2479.5354 10063760
-793.95239 846.64032 2443.1824 1050118
-778.11096 845.16034 2438.9114 4799290
-778.9032 862.03326 2487.6023 12430251
-765.56018 863.61139 2492.1565 12036006
-745.76215 857.82684 2475.4636 12366513
-739.83179 868.08154 2505.0562 13617350
-723.22784 865.97607 2498.9802 13421255
-704.88928 861.66217 2486.5312 13223105
-695.27277 868.05347 2504.9751 13814729
-680.27258 867.85553 2504.4038 13749960
-670.79999 874.85779 2524.6106 13881033
-645.44238 860.98969 2484.5908 13814725
-633.55652 864.86444 2495.7722 12036515
-620.87085 867.80621 2504.2617 11115668
-607.35358 869.70142 2509.7307 11181461
-606.4079 890.14575 2568.7275 13156021
-592.69177 892.41437 2575.2742 12827575
-579.41492 895.48175 2584.126 4666925
-567.4632 900.81934 2599.5288 4271655
-553.76721 903.60864 2607.5779 5455161
-538.88708 904.57031 2610.3533 2888978
-525.63922 908.40979 2621.4329 5652028
-513.06689 913.68616 2636.6589 5586237
-500.43472 919.18402 2652.5244 2494479
-482.24274 914.49518 2638.9937 2890009
-461.52704 904.5459 2610.2827 3217432
-447.76041 907.99817 2620.2451 4861742
-429.29041 901.81818 2602.4111 5190191
-416.29593 907.1087 2617.6782 6308929
-401.29312 908.26331 2621.01 4598310
-387.89197 913.28186 2635.4924 5519926
-372.50974 913.86151 2637.165 6572614
-356.91891 913.95776 2637.4426 6046527
-341.32898 914.06512 2637.7527 5914427
-325.41531 913.27429 2635.4705 4993839
-310.23062 914.55267 2639.1597 4467495
-292.82907 909.08472 2623.3804 4533031
-278.46213 912.9527 2634.5425 5783354
-261.54819 908.43365 2621.5017 2625549
-249.54596 921.48096 2659.1528 4730924
-232.60033 916.80267 2645.6526 4862253
-217.03047 917.2627 2646.98 3283222
-201.83923 919.51929 2653.4919 5191220
-187.94348 928.55768 2679.5745 5322806
-170.54214 920.34619 2655.8782 4072996
-153.65976 913.55023 2636.2668 5388858
-138.87872 919.12299 2652.3484 5717823
-122.93896 917.47076 2647.5806 5389114
-107.95232 923.48883 2664.947 5586493
-91.58989 917.78326 2648.4824 5191736
-75.688446 915.29254 2641.2947 4731698
-60.586678 923.69458 2665.5408 3810340
-44.133793 910.15961 2626.4822 4468525
-28.724249 915.11499 2640.7825 5060662
-13.023266 911.53546 2630.4529 4665905
2.5435748 903.79529 2608.1167 5718079
18.219053 914.8028 2639.8813 5257272
34.08321 920.73669 2657.0049 4796466
49.738136 919.05426 2652.1499 4599345
65.809479 924.02655 2666.4988 3942442
81.193741 919.29419 2652.8423 3679526
97.461754 924.47998 2667.8071 3220006
112.87597 921.24976 2658.4856 4539477
129.40057 926.76337 2674.3965 4080727
145.37675 927.57458 2676.7375 4673380
160.38129 922.6366 2662.4875 4673381
178.87241 936.84406 2703.4866 4606304
192.1272 923.54498 2665.1089 4210516
209.31999 929.75806 2683.0383 2958898
224.5928 927.16791 2675.5637 2891815
240.73375 928.26678 2678.7349 3417643
257.57611 931.76703 2688.8357 5258819
270.10464 920.16351 2655.3511 4929850
283.73801 913.39429 2635.8167 4863544
302.0321 921.55206 2659.3582 4928566
322.22491 934.40698 2696.4539 5257275
340.37524 940.40381 2713.7593 5191225
353.0947 931.53192 2688.1572 3480350
371.27921 937.22156 2704.5759 5125690
385.64514 933.19989 2692.9705 1837328
398.96243 927.06104 2675.2556 720898
408.77219 913.55273 2636.2739 655364
422.43216 909.32678 2624.0791 720900
437.03433 907.35712 2618.3953 720899
451.60611 905.46167 2612.9253 720899
466.57697 904.46552 2610.0508 655363
481.21893 902.9162 2605.5796 655363
495.9563 901.6366 2601.8872 655363
510.0058 899.22125 2594.9172 655362
524.43158 897.59149 2590.2141 720898
540.36017 898.55341 2592.9897 786434
555.98608 898.97253 2594.1995 851970
570.87793 898.21436 2592.0115 851968
577.76959 885.23822 2554.5657 786432
590.41925 881.52173 2543.8408 1707793
623.20306 907.30286 2618.2385 9797765
645.51007 916.94916 2646.0752 7560803
669.12451 927.95111 2677.824 7363167
685.28064 928.33966 2678.9451 8086887
701.34259 928.58575 2679.6555 7033430
726.40253 940.47076 2713.9524 5388347
745.14075 943.83344 2723.6562 4269866
748.03101 927.40521 2676.2488 4993333
768.20947 932.64807 2691.3782 5651519
785.9519 934.78033 2697.5312 4993589
805.06226 938.42206 2708.0405 5256503
817.04297 933.77325 2694.625 5322552
832.08582 932.73505 2691.6292 5651515
851.4386 936.47644 2702.4258 4861742
862.86804 931.52582 2688.1396 5059378
879.92859 932.72375 2691.5964 4928050
897.68872 934.60736 2697.032 4796464
910.69037 931.55737 2688.2307 4599344
931.26367 936.22437 2701.6985 4139308
947.63391 936.57965 2702.7236 4204848
955.05457 928.22479 2678.6138 4205101
968.44983 925.85504 2671.7754 5126203
996.13257 937.00098 2703.9395 4928824
1005.6378 930.96606 2686.5244 3547171
1013.1949 923.34399 2664.5291 3612965
1034.7605 928.52606 2679.4832 4402223
1050.1765 928.11682 2678.3022 4468274
1080.0004 940.26324 2713.3535 5389375
1082.344 928.47974 2679.3494 5718340
1105.7489 934.8429 2697.7119 5981513
1129.1777 941.04468 2715.6086 6244683
1134.3422 932.06464 2689.6946 6179404
1157.4037 937.83545 2706.3477 6441805
1187.4596 949.03851 2738.6768 4072486
1197.5386 944.18884 2724.6819 6375242
1207.4474 939.33575 2710.677 6112327
1227.1542 942.13245 2718.7476 6046535
1241.1073 940.49652 2714.0269 3086367
1252.8984 937.28516 2704.7595 2692895
1256.5973 928.17761 2678.4775 524293
1231.7114 898.44672 2592.6819 720904
1235.7426 890.28149 2569.1194 589834
1240.8743 883.09821 2548.3901 393230
1250.7805 879.44476 2537.8474 393231
1258.2527 874.18707 2522.675 591379
1275.5945 875.82928 2527.4141 1511710
1308.5612 888.03711 2562.6426 5194589
1332.59 893.96881 2579.76 7892101
1343.4644 891.04132 2571.312 4471378
1355.5056 888.94489 2565.2622 1840677
1367.2588 886.70801 2558.8071 2234925
1365.5691 875.89777 2527.6116 5721702
1380.5648 875.9082 2527.6418 4998749
1400.218 878.84186 2536.1074 6840952
1411.3669 876.43201 2529.1533 8616849
1445.9515 888.47308 2563.9006 4472146
1460.6171 888.15155 2562.9729 327948
1475.653 888.05963 2562.7075 2497327
1484.681 884.39081 2552.1204 9998495
1503.9558 886.83807 2559.1826 3156277
1519.2196 886.89502 2559.3469 7827580
1555.7473 899.24164 2594.9761 7827580
1581.7145 905.30225 2612.4651 6576996
1654.814 937.96021 2706.7075 8418941
1699.2655 953.90918 2752.7322 10917530
1675.1323 931.4198 2687.8337 7759466
1700.0565 936.37445 2702.1316 10718348
1726.5071 942.06946 2718.5659 8351342
1767.3453 955.43732 2757.1421 9403774
1802.8676 965.71265 2786.7939 8680051
1805.9521 958.58386 2766.2222 8218986
1839.9672 967.85321 2792.9709 7758436
1835.1488 956.7124 2760.8215 7298142
1838.3336 949.90381 2741.1738 7231835
1846.7388 945.88843 2729.5864 7297884
1859.5939 944.20227 2724.7205 8613744
1882.6434 947.6767 2734.7468 8613745
1902.5244 949.5105 2740.0386 7758435
1918.0428 949.15424 2739.0107 8219244
1926.5854 945.38123 2728.1226 7166815
1938.161 943.14667 2721.6743 6245973
1937.1776 934.88812 2697.8423 4009784
1945.0623 931.00928 2686.6492 393221
1956.9982 929.11707 2681.1887 262154
1972.916 929.13049 2681.2273 524816
1980.4071 925.20697 2669.905 3091516
1971.692 913.83429 2637.0867 11381683
1994.4569 917.11615 2646.5571 10196386
2012.7781 918.31934 2650.0293 9077393
2034.4768 921.0329 2657.8599 7695740
2039.9417 916.41205 2644.5251 9471639
2060.9746 918.80194 2651.4219 11905466
2075.6355 918.33649 2650.0786 11445941
2098.5405 921.49817 2659.2026 12761283
2112.3679 920.65637 2656.7732 10128790
2167.7812 937.81757 2706.2961 6443612
2201.6138 945.45929 2728.3479 7101537
2211.1216 942.61969 2720.1536 6377812
2216.2769 937.97906 2706.762 7035742
2249.3975 945.15564 2727.4717 8088689
2250.8264 939.00861 2709.7329 6707036
2308.856 956.39423 2759.9033 7036001
2335.5251 960.63629 2772.1448 6838623
2320.5398 947.80566 2735.1189 5983314
2340.7197 949.41632 2739.7668 6575451
2346.2847 945.11768 2727.3621 6904417
2364.5991 945.97833 2729.8459 5062213
2360.627 937.97205 2706.7417 4997190
2389.2607 942.94208 2721.084 4404799
2386.3491 935.47925 2699.5481 4536898
2396.5015 933.20282 2692.979 3418417
2417.5554 935.17365 2698.6663 3878967
2472.9438 950.31262 2742.3535 1444369
2490.8289 950.93628 2744.1531 1904922
2513.3115 953.29547 2750.9612 2102561
2511.4304 946.44281 2731.1863 1379610
2531.2708 947.81134 2735.1353 1182739
2598.1589 966.66693 2789.5479 131079
2561.8652 947.13721 2733.1899 3420224
2590.7358 951.79297 2746.6255 5788776
2550.1035 931.01599 2686.6685 6051950
2548.593 924.69122 2668.4167 6249583
0 0 0 0
0 0 0 0
0 0 0 0
0 0 0 0
0 0 0 0
0 0 0 0
0 0 0 0
0 0 0 0
0 0 0 0
-2154.3191 860.86249 2442.4541 9601132
-2152.7756 866.0647 2457.2139 9469546
-2114.866 856.60785 2430.3828 9206631
-2118.4548 863.94537 2451.2009 9469545
-2119.676 870.4118 2469.5476 9732463
-2111.8647 873.23334 2477.553 9600877
-2098.1201 873.6239 2478.6611 9995889
-2080.3774 872.34338 2475.0281 7495757
-2047.5372 864.66913 2453.2544 6245434
-2063.2053 877.51642 2489.7051 11377031
-2056.6909 881.04639 2499.7202 11377288
-2031.7363 876.67084 2487.3059 10259063
-1991.3087 865.50604 2455.6289 8745822
-1960.2889 858.29608 2435.1726 9075047
-1936.698 854.25586 2423.7097 11443594
-1959.0089 870.55334 2469.9492 11246216
-1928.9131 863.63226 2450.3125 11180423
-1935.9751 873.3689 2477.9375 10785664
-1914.0839 870.09302 2468.6431 10522235
-1891.4526 866.42773 2458.2439 10851457
-1898.052 876.19922 2485.9678 10983041
-1885.2673 877.10541 2488.5388 11048577
-1893.1816 887.73181 2518.6882 10851198
-1890.3395 893.44312 2534.8926 11047806
-1873.8112 892.72577 2532.8572 11179135
-1843.7479 885.49615 2512.3452 10455927
-1841.5017 891.61749 2529.7126 10653049
-1815.6511 886.31665 2514.6731 9271395
-1787.4803 879.78601 2496.1443 9600358
-1765.0569 875.99884 2485.3994 9468771
-1750.7903 876.23029 2486.0559 11640197
-1747.0593 881.7832 2501.8108 11377539
-1730.1007 880.69781 2498.7312 11180416
-1724.2882 885.31647 2511.8352 10916988
-1713.3149 887.34265 2517.5842 10785403
-1700.4996 888.44226 2520.7039 10851197
-1673.298 881.97821 2502.364 10851196
-1656.629 881 2499.5886 11180162
-1646.0083 883.24969 2505.9714 9995633
-1626.2933 880.61584 2498.4988 9666925
-1619.6669 885.08606 2511.1816 11245958
-1604.2145 884.7713 2510.2886 11245700
-1607.9889 895.15411 2539.7471 11114625
-1583.8143 890.0271 2525.2007 11312008
-1573.4731 892.65021 2532.6428 11706765
-1562.2007 894.79053 2538.7153 11312006
-1544.5803 893.30096 2534.4893 11048577
-1533.7678 895.75824 2541.4609 10588282
-1521.0243 897.12524 2545.3394 10917505
-1496.2719 891.36572 2528.9983 11114627
-1486.9185 894.75598 2538.6172 10324854
-1474.9495 896.62543 2543.9214 9008993
-1464.5001 899.46692 2551.9834 9600874
-1455.4608 903.2428 2562.6963 10654075
-1444.3151 905.77722 2569.887 10983041
-1425.8217 903.70862 2564.0181 10720128
-1404.8806 900.0274 2553.5735 10588545
-1394.6387 903.19501 2562.5605 7627605
-1384.3234 906.38422 2571.6091 7693656
-1372.0183 908.32727 2577.1221 7298898
-1347.8134 902.34698 2560.1548 8746085
-1329.3149 900.09473 2553.7646 9338478
-1311.3108 898.12909 2548.1875 8680290
-1291.9436 895.1731 2539.8008 7759185
-1296.6869 909.05029 2579.1733 10654589
-1281.3894 909.04132 2579.1479 10588797
-1264.8446 908.13641 2576.5806 11378571
-1251.3113 909.39807 2580.1602 12102299
-1222.3229 899.32001 2551.5664 11970713
-1207.5599 899.58685 2552.3235 10523265
-1201.5602 906.47156 2571.8569 10325373
-1201.0823 917.75238 2603.863 10325373
-1197.6697 927.05524 2630.2573 9601651
-1177.8059 923.70148 2620.7419 7693656
-1157.3293 919.77118 2609.5908 7759449
-1139.4382 917.81689 2604.0461 7232594
-1116.601 911.77014 2586.8901 6114114
-1094.4408 906.1156 2570.8472 6772044
-1082.2371 908.66119 2578.0693 4271652
-1064.6429 906.68878 2572.4731 4469030
-1047.0165 904.63116 2566.6355 4995376
-1037.2627 909.41528 2580.209 2759442
-1020.5911 908.18665 2576.7229 6640459
-1007.8311 910.45422 2583.1567 5719358
-994.45886 912.23035 2588.1958 5982529
-981.70502 914.63806 2595.0271 5851200
-972.76093 920.72852 2612.3071 5851200
-944.60876 908.54126 2577.7292 6311751
-924.6015 903.91595 2564.6062 5851199
-909.72681 904.23779 2565.5193 5851200
-889.54028 899.20093 2551.2285 5456186
-872.24792 896.96606 2544.8879 5588029
-820.22375 858.30817 2435.207 589824
-797.7948 849.78955 2411.0378 1115396
-781.17175 847.25726 2403.8533 1114112
-768.51697 849.01495 2408.8401 1179905
-757.69434 852.90143 2419.8669 786432
-766.19781 879.11206 2494.2322 2035470
-748.12299 875.25891 2483.3 5388342
-732.03052 873.617 2478.6414 9138279
-715.39832 871.25037 2471.9268 7362125
-700.43713 870.86243 2470.8262 7231055
-691.92896 878.65234 2492.9277 6902865
-670.13867 869.54779 2467.0962 12167593
-659.61658 874.98425 2482.5208 10457746
-646.0863 876.58759 2487.0696 11509663
-628.87805 873.159 2477.342 10456974
-615.09436 874.43506 2480.9624 13880006
-598.46881 871.63458 2473.0168 13816265
-586.13562 875.10199 2482.8547 8877680
-570.1347 873.13092 2477.2625 2101261
-566.99329 891.26996 2528.7268 5126452
-554.53888 895.35712 2540.323 5915712
-540.19781 896.54114 2543.6824 5060402
-530.59253 905.87854 2570.1746 4533801
-519.88184 913.82483 2592.72 4928559
-503.60742 912.17773 2588.0466 4533288
-485.7988 907.56085 2574.9475 5125425
-471.0271 908.50201 2577.6179 4599081
-454.2384 905.48566 2569.0598 4928046
-438.26541 903.94244 2564.6814 5190191
-420.80304 899.1062 2550.9597 4400932
-411.18353 911.2912 2585.5315 5848378
-395.95428 911.50568 2586.1399 4861483
-386.24341 924.95245 2624.2913 4729897
-365.39301 911.73206 2586.7822 5519412
-347.76624 905.74976 2569.8091 5322034
-336.48172 916.49426 2600.2935 4927276
-323.97519 924.78186 2623.8074 4861996
-303.25638 909.28137 2579.8291 5257011
-289.08475 912.80841 2589.8359 5585976
-276.03888 920.48492 2611.616 5191217
-261.41415 923.49567 2620.1582 5125168
-243.58003 914.83295 2595.5801 4665131
-230.40834 923.69385 2620.7205 2823187
-215.19472 925.0578 2624.5903 2165514
-199.06766 922.40204 2617.0552 721409
-182.10129 915.07971 2596.2803 4665905
-167.05788 916.96075 2601.6172 5323835
-151.44765 915.79669 2598.3145 5521471
-134.91364 908.151 2576.6218 5718595
-118.54694 899.82361 2552.9954 4928820
-105.33974 916.55017 2600.4521 5191479
-90.09713 918.26471 2605.3167 5783361
-75.355164 926.84613 2629.6641 3678756
-59.134121 916.96704 2601.635 1049091
-43.589622 914.31036 2594.0974 3416097
-27.903522 904.17059 2565.3286 4535092
-12.746938 907.45233 2574.6396 3744806
2.5104764 907.28979 2574.1785 4074283
17.651058 901.43982 2557.5808 5850694
32.831894 902.10114 2559.457 3285538
48.844418 917.97498 2604.4946 4665907
64.403328 919.74756 2609.5239 4797751
79.264832 912.80249 2589.8191 3351594
94.563393 912.32721 2588.4707 4144211
111.19695 923.06659 2618.9407 3883871
127.46017 928.47772 2634.2932 4017000
143.34988 930.284 2639.418 3950436
158.69743 928.56244 2634.5337 3619663
175.66336 935.77075 2654.9851 3026496
192.15065 939.45361 2665.4341 1972777
207.39218 936.94904 2658.3281 3221813
223.19356 937.14868 2658.8945 4207934
237.80086 932.63892 2646.0994 3746354
253.52217 932.78595 2646.5166 3483435
266.80743 924.47498 2622.9368 3812656
283.51459 928.28314 2633.7412 5720906
300.99484 934.09314 2650.2253 6443603
318.42355 939.17468 2664.6428 6113610
334.27478 939.3432 2665.1211 5257789
351.66315 943.62128 2677.2588 2363412
366.47009 940.9021 2669.5439 655364
379.07935 932.99915 2647.1213 589831
391.41336 925.07367 2624.6353 458762
405.815 922.4538 2617.2021 458762
421.1763 922.12805 2616.2778 458761
435.13388 918.86121 2607.009 458761
450.36395 918.41339 2605.7385 458758
465.04315 916.90906 2601.4705 589828
479.69229 915.44391 2597.3135 589828
493.80908 913.08557 2590.6223 655364
508.46304 911.83264 2587.0676 655362
523.49445 911.3103 2585.5854 655362
531.53589 898.99524 2550.645 720898
552.6842 908.91626 2578.7932 720898
567.45813 908.10254 2576.4844 720898
581.9342 906.86713 2572.9792 720896
592.7254 900.09912 2553.7769 851968
602.58136 892.28314 2531.6013 2036759
640.69666 925.67596 2626.3442 8811126
656.2478 925.65747 2626.2915 9732230
678.69775 935.14545 2653.2109 7626340
696.87012 938.44318 2662.5674 4599605
713.01984 938.93146 2663.9526 6375755
735.65283 947.75104 2688.9758 5388603
754.14429 950.97406 2698.1204 5058870
767.07397 947.19562 2687.4001 3743011
784.3349 948.81024 2691.9812 3874853
798.03546 946.13959 2684.4038 5651777
814.27032 946.5191 2685.4807 4401966
827.95245 943.97375 2678.2588 2889240
833.40265 932.315 2645.1804 2363666
850.3175 933.67548 2649.0403 3086362
860.90625 928.1662 2633.4094 3876134
874.3623 925.88934 2626.9495 3810086
897.06042 933.30774 2647.9971 4534065
910.02002 930.51324 2640.0686 4599858
923.2229 928.05768 2633.1016 4270894
948.17059 937.29388 2659.3066 4797494
964.75409 938.09503 2661.5796 2758681
975.76813 933.54193 2648.6614 3875879
1000.0168 941.59442 2671.5083 4336429
1009.549 935.75525 2654.9412 3349791
1021.8865 932.65552 2646.1465 5455167
1040.3524 935.15833 2653.2476 4928824
1059.7847 938.44226 2662.5647 5849669
1073.9459 937.0307 2658.5601 5257531
1089.1251 936.53552 2657.1548 5126202
1110.5233 941.32581 2670.7461 4994617
1124.0776 939.42603 2665.356 5257789
1140.4231 939.87933 2666.6421 5454141
1156.5695 940.15839 2667.4338 5388605
1171.6344 939.56268 2665.7437 4994103
1187.2371 939.4082 2665.3054 5323581
1208.7662 943.88574 2678.0093 4533555
1217.7305 938.56281 2662.907 2692384
1222.1547 929.92163 2638.3899 655369
1224.5466 919.97192 2610.1604 458764
1215.8165 902.01898 2559.2241 393232
1226.2413 898.54449 2549.3662 262160
1235.3755 894.22028 2537.0974 196624
1241.2487 887.66797 2518.5071 196624
1270.9867 898.13538 2548.2056 2564151
1263.8578 882.61115 2504.1597 3418694
1304.9734 900.74744 2555.6165 2103857
1322.1171 902.11102 2559.4854 1905705
1337.8066 902.46289 2560.4836 3222333
1352.8167 902.35358 2560.1733 4604505
1350.5228 890.8327 2527.4861 5327714
1367.725 892.28333 2531.6021 1906991
1385.8024 894.26746 2537.2312 4011600
1392.7063 889.07599 2522.502 5392741
1406.4022 888.28455 2520.2566 5064546
1423.5348 889.65765 2524.1523 8617881
1445.2203 893.81793 2535.9561 5591401
1468.4098 898.81323 2550.1287 5262441
1466.614 888.56909 2521.0637 8091786
1498.4447 898.69904 2549.8047 5391964
1505.1627 893.71576 2535.666 196619
1529.4336 899.15027 2551.085 7891832
1554.4238 904.89728 2567.3904 6970732
1599.7018 922.22852 2616.563 4535109
1613.4276 921.2121 2613.679 1312533
1631.8248 922.85651 2618.3447 6246236
1668.8796 934.92224 2652.5779 7888747
1685.1307 935.21729 2653.4148 7166300
1730.6501 951.59985 2699.8958 6639955
1745.6217 951.03943 2698.3057 7298399
1777.2321 959.47198 2722.2307 9535104
1780.1045 952.37762 2702.1025 8811638
1800.0886 954.48322 2708.0764 6574162
1792.8885 942.26465 2673.4099 6376526
1816.2144 946.16284 2684.4697 7692385
1834.082 947.1745 2687.3401 7428957
1871.1924 958.02069 2718.113 7560287
1889.7759 959.27716 2721.678 7823459
1887.465 949.99585 2695.345 7757923
1922.9169 959.71765 2722.9277 7758179
1920.7289 950.64795 2697.1951 7626852
1929.7269 947.21881 2687.4658 6574420
1942.2946 945.58362 2682.8264 6772317
1944.2729 938.86151 2663.7544 722440
1967.4104 942.38281 2673.7451 262153
1959.395 931.04504 2641.5774 196617
1963.5985 925.64703 2626.262 11775672
1969.4958 921.12598 2613.4348 9538197
1996.8586 926.6366 2629.0696 9801114
2034.7239 936.89771 2658.1826 8484483
2011.5961 919.13245 2607.7786 8289165
2043.9001 926.77271 2629.4558 10525091
2053.626 924.13702 2621.9778 11051184
2065.1465 922.34259 2616.8865 11379891
2117.3044 938.58929 2662.9819 12431550
2117.2993 931.64294 2643.2737 10523289
2154.5186 941.05756 2669.9851 6509144
2166.6072 939.43848 2665.3914 6377301
2183.3499 939.84601 2666.5476 7824489
2228.355 952.32623 2701.9568 7429731
2225.7969 944.44653 2679.6003 7825259
2268.2083 955.62463 2711.3149 3811631
2276.7788 952.4881 2702.416 6114130
2305.9761 957.96429 2717.9531 7496039
2318.7061 956.57117 2714.0005 7956846
2321.7773 951.23993 2698.8745 6641243
2322.8401 945.16437 2681.6367 5983313
2373.2878 959.12946 2721.259 6575707
2390.3542 959.50671 2722.3291 5588298
2408.4033 960.27063 2724.4966 5917520
2383.6511 944.07245 2678.5388 7102052
2389.2131 940.0155 2667.0283 6378586
2394.1228 935.75677 2654.9456 7431275
2489.821 966.80731 2743.0427 7694704
2530.5129 976.23425 2769.7891 7628910
2535.3579 971.7998 2757.2075 6181465
2527.3142 962.51349 2730.8601 5457487
2498.4919 945.4823 2682.5391 4798788
2533.7891 952.77728 2703.2363 3352111
2557.7185 955.73273 2711.6216 1247248
2574.0784 955.84039 2711.9272 853262
2563.1704 945.88428 2683.6794 919312
0 0 0 0
0 0 0 0
0 0 0 0
0 0 0 0
0 0 0 0
0 0 0 0
0 0 0 0
0 0 0 0
0 0 0 0
0 0 0 0
-2120.8582 867.57031 2420.7827 8285529
-2107.5908 868.01459 2422.0225 9140580
-2099.6091 870.65686 2429.395 9075044
-2086.1772 871.05981 2430.5195 10193527
-2106.2014 885.53479 2470.9089 9732719
-2094.4167 886.74506 2474.2859 9272426
-2049.3237 873.77051 2438.0833 4666402
-2020.7274 867.69556 2421.1323 6705986
-2041.2638 882.78204 2463.228 7034952
-2008.7661 874.98511 2441.4722 8350813
-1983.9462 870.44348 2428.7998 7955801
-1951.0846 862.28162 2406.0256 8153695
-1941.3394 864.29095 2411.6323 8482404
-1923.9279 862.89185 2407.7283 10127228
-1910.9257 863.46399 2409.325 13153701
-1907.2373 868.28516 2422.7773 12956323
-1903.3641 873.09467 2436.1973 12627615
-1895.9404 876.33655 2445.2432 13417134
-1885.1915 878.07953 2450.1067 11312010
-1883.1996 883.95996 2466.5149 9666927
-1861.5049 880.61188 2457.1726 9601132
-1847.0349 880.65558 2457.2947 9995889
-1843.8036 886.1012 2472.4895 9863533
-1833.5867 888.24994 2478.4851 9929326
-1820.1851 888.87817 2480.238 8153686
-1792.1195 882.29724 2461.8752 6114104
-1765.1571 876.15582 2444.7388 7297866
-1765.8488 883.75287 2465.9368 8218965
-1746.203 881.21326 2458.8508 9271138
-1739.2362 885.08337 2469.6494 9995116
-1718.441 881.9223 2460.8291 11113853
-1708.0865 884.11121 2466.9368 11377024
-1698.4697 886.72296 2474.2246 11508868
-1681.2502 885.37653 2470.4675 11508869
-1666.5396 885.33929 2470.3635 11113599
-1654.2324 886.58954 2473.8523 10390132
-1645.4713 889.7796 2482.7534 10193268
-1632.5153 890.73846 2485.429 10785405
-1611.8096 887.44794 2476.2473 10719613
-1609.236 894.17194 2495.0093 10390648
-1584.812 888.76691 2479.9275 9600618
-1561.5295 883.90686 2466.3665 9271140
-1560.5792 891.71545 2488.155 8679260
-1569.2446 905.21997 2525.8367 9731945
-1551.0204 903.32397 2520.5461 10455412
-1531.5916 900.68262 2513.176 9732462
-1513.2941 898.66125 2507.5359 10127218
-1503.2906 901.57397 2515.6633 10983040
-1487.3583 900.9538 2513.9326 11245955
-1474.4142 902.14929 2517.2686 11311747
-1459.6763 902.2605 2517.5789 11903885
-1441.8291 900.43225 2512.4775 11048577
-1429.1602 901.83356 2516.3875 11509385
-1413.7889 901.54114 2515.5715 11575179
-1405.8677 906.04376 2528.1353 11903889
-1385.653 902.63525 2518.6245 11443594
-1365.4453 899.15723 2508.9197 11049093
-1346.7694 896.62225 2501.8464 10851716
-1344.136 904.83026 2524.7493 10061944
-1323.5286 900.98737 2514.0264 10654338
-1305.6484 898.93457 2508.2986 10391164
-1290.7571 898.91602 2508.2466 8417118
-1277.629 900.1394 2511.6602 9601394
-1261.3785 899.16583 2508.9436 8811621
-1248.9609 900.93365 2513.8767 9469547
-1234.6577 901.3678 2515.0879 10850427
-1222.2809 903.2359 2520.3005 11639941
-1210.16 905.34192 2526.177 11969162
-1211.4485 917.65802 2560.5425 12298384
-1196.5367 917.8595 2561.1047 12232848
-1176.7402 914.27069 2551.0911 12430228
-1158.8302 912.07349 2544.96 9864560
-1156.0134 921.85431 2572.2515 10653822
-1140.9229 921.97815 2572.5969 9272172
-1122.5082 919.38251 2565.3545 8877415
-1106.1487 918.42218 2562.6748 8548964
-1088.5819 916.41876 2557.0847 7233105
-1074.0635 916.9613 2558.5984 7759192
-1058.4608 916.58026 2557.5354 6574917
-1039.1616 912.94092 2547.3804 7627348
-1027.1637 915.703 2555.0874 10324605
-1005.7153 909.99683 2539.1655 9008743
-994.90833 913.89215 2550.0347 9075305
-982.22742 916.15979 2556.3621 9930358
-960.76215 910.17651 2539.667 9601395
-941.52094 906.14337 2528.4133 9404016
-922.40369 902.10107 2517.134 9338225
-907.10626 901.72296 2516.0791 9009262
-889.35101 898.84808 2508.0574 10325123
-871.81439 896.1004 2500.3904 8417387
-836.56696 874.73859 2440.7844 3483941
-817.83893 870.20221 2428.1265 655360
-798.61536 864.96667 2413.5178 786432
-783.32758 863.88055 2410.4873 2562069
-770.69452 865.73639 2415.6655 2364689
-757.0058 866.45404 2417.668 590338
-746.1825 870.54236 2429.0757 2495505
-734.77625 874.09814 2438.9973 2429194
-716.38196 869.31659 2425.6555 1575426
-704.20898 872.0434 2433.2639 4205602
-688.46124 870.36487 2428.5806 3086356
-677.59845 874.92224 2441.2969 6177859
-673.83136 889.04034 2480.6907 2824985
-652.96643 880.7265 2457.4924 4533805
-638.64868 881.06567 2458.439 9600119
-624.33362 881.42456 2459.4404 5060917
-603.7948 872.80396 2435.3862 7032912
-592.39252 877.29163 2447.9082 3546909
-584.88837 887.92242 2477.5713 8283230
-577.01379 898.52393 2507.1526 8217693
-561.45483 897.40332 2504.0259 7429461
-546.20245 896.72534 2502.134 6508618
-535.94568 904.43994 2523.6602 7034960
-525.48438 912.24231 2545.4309 7033676
-511.38632 914.0058 2550.3518 5191728
-499.16693 919.33679 2565.2268 5191215
-480.16855 912.12531 2545.1047 5191217
-466.4296 914.76099 2552.459 6177857
-449.0394 910.17249 2539.6555 4467239
-434.95328 912.19495 2545.2991 4663848
-417.08072 906.13672 2528.3945 3875358
-403.99451 910.4129 2540.3267 3875358
-388.94019 910.41339 2540.3279 4204067
-373.01385 908.29059 2534.4045 4204323
-361.43442 917.01843 2558.7578 4204579
-346.40515 917.37445 2559.7515 4730924
-333.99649 925.02112 2581.0879 5388855
-315.73761 916.42163 2557.0928 4796461
-301.75064 919.97931 2567.0198 5454134
-286.56235 920.05774 2567.2385 4401447
-269.45844 913.64966 2549.3579 4533032
-254.45764 914.03485 2550.4329 4401702
-241.48439 922.21185 2573.249 5323061
-226.70703 924.1369 2578.6206 4533804
-210.74425 921.15894 2570.311 3876388
-193.66389 912.45129 2546.0142 4336939
-177.08427 904.83093 2524.751 4600368
-162.35291 906.11932 2528.3459 4403501
-148.21022 911.28918 2542.7715 10589326
-132.93449 909.87427 2538.8237 12036517
-116.33558 897.88574 2505.3721 4535345
-103.26257 913.58392 2549.1746 4271917
-87.88739 910.80414 2541.4182 7561310
-72.883003 911.51196 2543.3933 7693155
-57.290337 903.31335 2520.5166 8220012
-42.262642 901.38159 2515.1265 10325387
-27.333162 900.58087 2512.8921 11246488
-12.411558 898.43317 2506.8994 11575707
2.4465508 899.05365 2508.6309 12628652
17.243382 895.42639 2498.5095 10720908
31.399466 877.24921 2447.7898 12957870
46.544086 889.45081 2481.8359 9733754
62.238659 903.77863 2521.8149 3615797
78.084137 914.32495 2551.2424 3090224
94.292328 925.00787 2581.051 3555929
109.91052 927.7287 2588.6428 3819875
125.60542 930.35101 2595.96 3688805
141.13344 931.30005 2598.6079 3951723
156.17551 929.17096 2592.6672 4477808
171.56241 929.29132 2593.0029 4017512
187.4149 931.70636 2599.7417 3357007
202.29308 929.27887 2592.9683 4473681
218.34966 932.22522 2601.1895 4142911
232.3376 926.53351 2585.3079 3352622
246.52057 922.27557 2573.4268 3351852
265.1499 934.17926 2606.6418 3023914
280.35541 933.3736 2604.3938 4536126
295.46255 932.34149 2601.5139 3942700
310.46793 931.10669 2598.0684 4929079
330.42499 944.13727 2634.4275 4205871
343.26474 936.57281 2613.3206 1706251
356.99399 931.9837 2600.5156 656131
376.93753 943.32635 2632.165 1510929
391.34216 940.45673 2624.1577 722697
404.22195 934.28186 2606.9282 196868
419.87451 934.73456 2608.1914 196613
433.33286 930.44379 2596.2188 131079
448.11877 929.19995 2592.748 131080
463.6153 929.46332 2593.4829 131076
478.13965 927.8233 2588.9067 196615
492.26331 925.5318 2582.5129 327688
506.68152 923.91565 2578.0032 393223
521.2616 922.68066 2574.5571 458758
534.76782 919.66913 2566.1541 524292
549.72711 919.25391 2564.9956 524291
564.70898 918.89777 2564.002 524289
573.64203 908.97552 2536.3159 655362
586.72949 905.97491 2527.9431 655360
608.51587 916.22137 2556.5339 720896
614.43036 902.65283 2518.6736 851968
650.17175 932.5069 2601.9753 918019
664.6637 931.20679 2598.3479 7429216
681.38403 933.01709 2603.3989 5192254
706.39832 945.85254 2639.2136 3809316
717.84906 940.36389 2623.8989 5783106
736.52338 944.37024 2635.0776 5520190
764.42169 959.79163 2678.1079 4993589
747.9856 920.05249 2567.2239 4664882
781.4549 942.05981 2628.6309 4730675
802.74835 948.81537 2647.481 3349022
809.56372 938.52753 2618.7749 2691348
813.06476 924.85681 2580.6292 2362897
843.7782 942.07318 2628.6682 1903117
847.59912 929.18439 2592.7046 4271150
871.83734 938.73859 2619.3635 4534321
880.30969 931.27979 2598.5513 5126716
893.31366 928.78912 2591.6016 4665908
906.34137 926.40674 2584.9541 4863544
927.75842 932.53625 2602.0571 4336944
940.01678 929.40985 2593.3337 4863030
956.62183 930.61273 2596.6899 5718339
986.66699 944.64514 2635.8447 5323581
997.91882 940.52765 2624.3557 4336686
1020.9941 947.50897 2643.8357 4073514
1036.3392 947.21387 2643.0125 327937
1049.6776 945.12085 2637.1721 3284255
1066.5172 946.19531 2640.1702 3876135
1078.4028 942.90717 2630.9954 4796724
1095.7942 944.45819 2635.3232 5059640
1100.7578 935.40479 2610.0613 4927797
1137.8521 953.52789 2660.6304 5454657
1153.188 953.1712 2659.635 5454914
1148.6934 936.65411 2613.5474 4533556
1172.4763 943.32758 2632.1685 4402740
1165.3854 925.31201 2581.8994 3942702
1211.1482 949.18518 2648.5129 2233116
1202.5211 930.36713 2596.0049 458762
1200.793 917.29474 2559.5288 393229
1209.7672 912.62201 2546.4907 196626
1220.6433 909.48157 2537.7278 196625
1229.2937 904.7793 2524.6072 131086
1234.7212 897.84668 2505.2629 131082
1242.6694 892.88995 2491.4321 7170168
1266.7765 899.5238 2509.9426 3485768
1283.7418 900.99115 2514.0371 2367281
1316.1665 913.15076 2547.9658 4997980
1342.0841 920.57092 2568.6704 2432054
1349.984 915.60449 2554.8125 1380131
1350.4958 905.79297 2527.4355 328464
1355.3169 899.05524 2508.6353 2695224
1354.7968 888.95911 2480.4639 1971501
1375.9429 893.14337 2492.1394 2103598
1392.106 894.03882 2494.6379 1643303
1412.0022 897.28766 2503.7031 4669528
1429.807 899.15369 2508.9099 5196130
1442.952 898.08112 2505.9172 6249073
1460.9718 900.03357 2511.365 8091534
1480.6927 902.98395 2519.5974 7828103
1513.505 913.77942 2549.72 656913
