# .PCD v0.7 - Point Cloud Data file format
VERSION 0.7
FIELDS x y z rgb
SIZE 4 4 4 4
TYPE F F F U
COUNT 1 1 1 1
WIDTH 1309
HEIGHT 1
VIEWPOINT 0 0 0 1 0 0 0
POINTS 1309
DATA ascii
882.20148 944.52264 1980.5114 5060923
890.39319 940.77679 1972.657 4074285
897.93713 936.45264 1963.5897 3613733
908.84381 935.70093 1962.0137 2166803
915.03809 930.17804 1950.4331 3284258
929.37054 932.96252 1956.2717 3810602
937.0224 929.05469 1948.0775 3810602
950.31799 930.76947 1951.6732 1312008
968.51379 937.18481 1965.1251 2429462
977.8266 934.9541 1960.4478 1509389
993.11389 938.42133 1967.7179 2627099
1010.7994 944.04797 1979.5161 3811631
1028.0294 949.12482 1990.1614 4140082
1035.0206 944.74078 1980.9689 3481639
1046.3971 944.41309 1980.2816 4336948
1049.5007 936.70892 1964.1272 4073518
1066.428 941.37622 1973.9138 3218207
1086.0645 948.30792 1988.4485 3350051
1089.9873 941.51758 1974.2102 4863292
1112.016 950.34497 1992.7197 4730936
1118 945.41888 1982.3906 5257536
1140.5927 954.49408 2001.4198 3020573
1155.7794 957.24872 2007.1958 3810346
1163.8472 954.11108 2000.6168 3547686
1172.2942 951.34467 1994.8159 3876908
1182.9635 950.41876 1992.8746 3351078
1191.9657 948.18506 1988.1908 3614249
1189.9612 937.32513 1965.4194 4140850
1214.1453 947.10437 1985.9248 3219748
1218.5884 941.4447 1974.0574 3680301
1222.6027 935.56433 1961.7273 4470331
1243.0597 942.25873 1975.7643 3023398
1253.3618 941.20227 1973.5492 6115155
1262.6241 939.39203 1969.7532 4864831
1269.8751 936.13196 1962.9175 4995391
1290.5552 942.74109 1976.7756 5127233
1301.1942 941.96222 1975.1426 4863805
1326.4238 951.66565 1995.4891 5324356
1321.5547 939.79352 1970.5952 3613482
1341.9613 945.94623 1983.4963 4074289
1348.3885 942.22357 1975.6906 2890015
1355.0306 938.71387 1968.3312 5521735
1365.5198 937.90637 1966.6381 4468790
1390.2108 946.78461 1985.2543 4534840
1396.6049 943.15741 1977.6487 3942446
1401.028 938.27075 1967.4021 4008496
1436.0908 953.81476 1999.9955 4797755
1441.3881 949.49658 1990.9409 2626842
1442.0688 942.23224 1975.7089 3284516
1455.1393 943.11499 1977.5597 3153444
1462.2939 940.18011 1971.4058 4008755
1466.361 935.3222 1961.2195 4271413
1490.0148 942.9361 1977.1846 4798013
1512.1594 949.48334 1990.9132 3810606
1525.7943 950.6275 1993.3123 3547434
1525.9014 943.39038 1978.1372 4534328
1549.3201 950.56628 1993.1838 5060674
1563.3254 951.90173 1995.984 4600379
1563.6631 944.95746 1981.4231 5192004
1584.2104 950.23895 1992.4974 4205366
1584.7311 943.51862 1978.4061 3614259
1601.7399 946.64172 1984.9547 2693416
1616.8137 948.58405 1989.0275 196616
1608.1478 936.6709 1964.0475 393230
1613.5289 933.052 1956.4592 262163
1621.4016 930.9151 1951.9786 196628
1627.1987 927.62543 1945.0806 196627
1626.4966 920.70306 1930.5656 262163
1631.3302 916.98889 1922.7776 196627
1633.7225 911.96368 1912.2404 196626
1639.0504 908.63495 1905.2606 18
1636.608 901.07379 1889.4061 18
1641.8583 897.82184 1882.5874 15
1630.7701 885.73981 1857.2533 4868707
1653.0381 891.81543 1869.9928 5000293
1662.0754 890.71954 1867.6951 4540002
1676.5247 892.51941 1871.469 7499403
1696.5565 897.24811 1881.3844 3222851
1715.1835 901.17694 1889.6223 1314343
1727.0354 901.51807 1890.3378 656667
1722.6733 893.44562 1873.4111 3880021
1711.9122 882.17908 1849.787 3814739
1725.0049 883.26996 1852.0743 5196650
1735.3512 882.94965 1851.4027 7039110
1751.2968 885.46442 1856.6758 986154
1744.6613 876.60193 1838.0927 4143705
1785.2388 891.42432 1869.1729 3683155
0 0 0 0
0 0 0 0
0 0 0 0
0 0 0 0
0 0 0 0
0 0 0 0
0 0 0 0
0 0 0 0
0 0 0 0
0 0 0 0
0 0 0 0
0 0 0 0
-1646.1924 919.6842 1904.76 6248014
-1633.989 919.16931 1903.6935 7037017
-1623.4526 919.59143 1904.5679 6839383
-1591.1899 907.62671 1879.7876 6115914
-1566.5902 899.89502 1863.7745 9668991
-1582.3521 915.40308 1895.8933 9799806
-1566.5248 912.72766 1890.3524 7891809
-1594.0648 935.46356 1937.4407 5918529
-1594.8615 942.72107 1952.4718 6641739
-1584.3633 943.35992 1953.7948 6641229
-1574.6356 944.47003 1956.094 6378310
-1571.3405 949.48352 1966.4774 5851709
-1553.51 945.72333 1958.6898 4798764
-1546.5519 948.57513 1964.5962 4732971
-1544.2799 954.36627 1976.5901 6048830
-1527.1006 950.96265 1969.5409 5851452
-1533.9784 962.60297 1993.6492 4075041
-1531.0807 968.24213 2005.3284 5982784
-1515.2102 965.70135 2000.0662 4206371
-1504.5981 966.49835 2001.7168 4667437
-1488.2549 963.59729 1995.7084 2693649
-1474.0337 962.03467 1992.4722 4075302
-1458.7614 959.75531 1987.7513 2167821
-1447.9009 960.36499 1989.0142 4930352
-1440.994 963.62872 1995.7737 5259061
-1446.3097 975.18762 2019.7133 5654589
-1426.603 969.927 2008.8181 6049348
-1411.9434 968.03821 2004.9061 5654334
-1396.6777 965.6983 2000.0599 5654591
-1377.6254 960.67767 1989.6617 5128247
-1353.8241 952.23022 1972.1663 5457212
-1349.064 957.14508 1982.3455 4930868
-1338.7695 958.18536 1984.4999 4930868
-1323.2277 955.45502 1978.8451 4601133
-1314.6061 957.71753 1983.5309 4337961
-1306.1033 960.10803 1988.4818 4601132
-1298.3778 963.11865 1994.7172 5719097
-1309.4192 980.23352 2030.1638 5719353
-1287.6393 972.86798 2014.9091 6312003
-1276.5383 973.50842 2016.2355 6245953
-1271.6022 978.9068 2027.4161 6838347
-1249.53 971.0907 2011.2281 6575175
-1256.9032 986.22821 2042.5795 5983038
-1244.9819 986.37366 2042.8806 5456693
-1239.5463 991.71075 2053.9343 5719865
-1222.8342 988.04236 2046.3368 5456694
-1206.6897 984.76373 2039.5465 4798253
-1198.1436 987.6825 2045.5914 5653560
-1187.5592 988.96362 2048.2446 3943200
-1145.8593 964.09125 1996.7317 1312775
-1101.4166 936.36835 1939.3146 590595
-1088.9761 935.55414 1937.6283 7891045
-1072.8943 931.56091 1929.3579 6641235
-1060.0176 930.29456 1926.7351 4010029
-1047.0187 928.89227 1923.8308 4338737
-1035.2904 928.59869 1923.2229 4404531
-1024.042 928.73389 1923.5029 7101788
-1011.7067 927.87524 1921.7245 6181968
-999.30194 926.93262 1919.7722 7233629
-988.83136 927.78302 1921.5336 6246477
-977.38995 927.73181 1921.4275 5127996
-975.99408 937.3269 1941.2998 2497045
-959.94208 932.90753 1932.147 2825497
-953.90283 938.22974 1943.1697 8286053
-943.30194 939.14044 1945.0558 6773329
-928.36084 935.69916 1937.9286 9010292
-923.42682 942.38409 1951.7739 9140851
-913.06494 943.62927 1954.3527 6706509
-903.56995 945.81372 1958.8768 6903888
-894.23956 948.22955 1963.8805 7364439
-878.29803 943.60651 1954.3055 5851200
-868.52008 945.57019 1958.3726 7561817
-856.4895 945.10138 1957.4016 7364438
-845.21674 945.46741 1958.1597 6574922
-846.50391 960.08887 1988.4421 6838094
-824.29822 948.10181 1963.6157 5916734
-816.66791 952.77612 1973.2966 7890781
-809.15369 957.72357 1983.5433 7825242
-800.38452 961.30957 1990.9703 8220257
-788.75928 961.52124 1991.4088 8023390
-779.40491 964.54974 1997.6812 6904907
-771.62177 969.64606 2008.2361 6443329
-757.06714 966.25946 2001.2222 3745818
-747.46265 969.18365 2007.2784 2364944
-735.73236 969.40137 2007.7292 5455672
-724.74109 970.61603 2010.2451 2429706
-710.88934 967.97638 2004.778 4271651
-695.10248 962.5672 1993.5751 6179392
-684.75897 964.63928 1997.8665 5456182
-678.9856 973.33551 2015.8773 6048063
-665.65399 971.31439 2011.6914 5982784
-653.17639 970.48846 2009.9808 6048320
-636.68921 963.56372 1995.639 6048320
-627.67383 967.89886 2004.6174 7101265
-618.22052 971.71265 2012.5162 6048577
-608.77911 975.69562 2020.7655 6311492
-595.81409 974.07806 2017.4152 6508614
-583.34882 973.22772 2015.6542 5982525
-570.04303 970.91022 2010.8544 5916732
-558.59631 971.72803 2012.5481 5587767
-543.72742 966.49835 2001.7168 5258290
-536.31653 974.58789 2018.4712 4797738
-522.04779 970.30017 2009.5908 3811101
-510.26755 970.54565 2010.0994 5521974
-502.15878 977.95306 2025.4407 3942686
-489.55267 976.75006 2022.9491 6179133
-476.33838 974.2428 2017.7565 5586994
-463.06253 971.47736 2012.0289 7495246
-447.52463 963.69452 1995.9099 3942682
-437.94766 968.67389 2006.2228 6903882
-427.35779 971.6283 2012.3416 6904140
-415.7359 972.3385 2013.8125 6838604
-403.11713 970.69031 2010.3988 7496022
-391.30582 970.94519 2010.9269 6443332
-381.1911 975.55811 2020.4807 7364433
-371.11829 980.58105 2030.8835 7429971
-355.70004 971.34332 2011.7513 8285791
-344.59323 973.64685 2016.5221 7232846
-329.99493 965.8963 2000.4698 8351326
-318.69443 967.58032 2003.9578 7628118
-307.65518 970.21881 2009.4222 8023136
-294.51462 966.17609 2001.0496 8219746
-280.85648 960.02496 1988.3099 7693403
-268.42889 957.72577 1983.548 7759198
-257.41272 960.4823 1989.2571 9865086
-246.21716 962.80194 1994.0613 3352350
-234.38551 962.74268 1993.9386 7429456
-222.16367 960.98938 1990.3073 8745321
-209.72708 958.05859 1984.2372 9008493
-197.5499 956.03479 1980.0458 9140594
-185.2144 952.94092 1973.6381 7298390
-174.61938 958.98853 1986.1632 7429720
-162.41626 956.44037 1980.8857 8087650
-150.14572 953.06738 1973.9 7231828
-139.16771 958.02197 1984.1615 8679274
-128.25388 964.37372 1997.3165 7693150
-116.21996 962.73865 1993.9302 8877422
-104.53199 963.92328 1996.3838 8087392
-92.826233 965.22571 1999.0811 8482406
-81.082146 966.45203 2001.621 8087390
-68.683342 958.9577 1986.0995 6771530
-56.931423 959.26318 1986.7321 8217949
-45.336685 963.06689 1994.61 7297875
-33.597614 965.40613 1999.4548 6968911
-21.698879 963.20728 1994.9006 6442567
-9.9561062 970.95386 2010.9447 5849405
1.965189 972.93829 2015.0547 6112577
13.842237 968.41907 2005.6948 5586488
25.627623 964.62537 1997.8378 5717817
37.584152 967.6355 2004.072 6112832
49.561996 969.617 2008.1759 5651767
61.3661 968.09033 2005.014 5586488
72.80957 962.2926 1993.0063 6047041
84.400276 959.78772 1987.8185 6902352
96.684692 964.81891 1998.2386 6902097
108.4772 964.37909 1997.3276 5980996
119.66777 959.20087 1986.603 8086371
132.52361 967.10272 2002.9686 6309959
144.19272 965.75708 2000.1816 6441289
156.26465 967.10883 2002.9813 6506824
168.9062 971.54639 2012.1718 5519416
180.28491 968.61365 2006.0979 4861229
191.19096 963.66156 1995.8416 4926765
202.43436 960.88757 1990.0964 4400679
212.10933 951.38428 1970.4141 3743262
223.76295 951.28442 1970.2074 3087389
235.19055 950.28125 1968.1296 917504
244.45993 941.0647 1949.0413 851968
254.94974 937.16608 1940.9667 917504
265.18375 932.70422 1931.7257 983040
272.13034 917.52765 1900.2936 917504
282.42169 914.38635 1893.7877 3219748
292.59329 911.11249 1887.0071 3218208
305.62723 916.66461 1898.5061 2954523
317.55661 918.6272 1902.5708 2954521
329.65109 920.91638 1907.312 4863545
341.29498 921.83673 1909.2181 2625812
351.98743 920.21063 1905.8503 983040
363.63937 921.11615 1907.7257 1048576
373.69925 918.05579 1901.3875 6964555
383.26605 913.99884 1892.985 1310720
396.50842 918.6886 1902.6981 3017230
408.97363 921.36816 1908.2478 8018262
422.51141 926.25507 1918.3689 11309699
434.10507 926.73529 1919.3635 9797484
449.7562 935.63196 1937.7893 12826783
462.34686 937.8772 1942.4397 13683122
474.95572 940.04956 1946.9387 13551281
488.36502 943.66559 1954.4279 12694952
511.66898 965.79034 2000.2506 1051659
522.70569 964.28296 1997.1285 327937
536.22742 967.32483 2003.4287 590342
551.28961 972.95386 2015.0869 2957866
558.66687 965.06885 1998.7561 5589843
564.58759 955.04724 1978.0005 6576736
579.76709 960.77686 1989.8672 4799558
589.57379 957.55182 1983.1876 3614511
602.52808 959.46503 1987.1503 3153961
613.10516 957.59216 1983.2712 8088946
621.25793 952.0744 1971.8434 3285798
630.62097 948.58081 1964.6078 4994877
638.87402 943.57452 1954.2394 5521221
659.19836 956.25763 1980.5073 1640716
667.65948 951.58881 1970.8376 2034959
683.35309 957.21143 1982.4827 2891038
688.39984 947.98236 1963.3684 1378055
696.89044 943.72382 1954.5485 918276
710.03137 945.79889 1958.8463 1771526
721.37384 945.4502 1958.124 4139561
741.41815 956.33685 1980.6714 4469037
752.91901 956.03589 1980.048 2626832
765.93341 957.63641 1983.363 3744804
777.50586 957.41315 1982.9005 786945
789.73096 957.98822 1984.0914 2495507
799.70526 955.85596 1979.6754 2232591
812.34607 956.92657 1981.8927 2035471
821.14215 953.50226 1974.8005 2495766
831.52966 951.99603 1971.6812 2166288
835.80792 943.63416 1954.3628 2627097
849.97766 946.51599 1960.3313 3153440
861.37964 946.27924 1959.8411 3219233
876.34607 949.9126 1967.3662 2824731
881.16125 942.59174 1952.2037 3021597
889.60718 939.29395 1945.3739 3482147
900.03705 938.14862 1943.0017 2495512
906.1084 932.54651 1931.3992 1837836
913.52747 928.4538 1922.9229 3810599
931.87756 935.43488 1937.3813 3745063
944.02106 936.09149 1938.7412 3416100
958.58228 939.10089 1944.974 3087392
981.28265 949.91779 1967.377 2955807
985.27557 942.58374 1952.1873 2955808
1003.9576 949.30957 1966.1172 3547945
1016.9505 950.56329 1968.7137 3284772
1033.506 955.08075 1978.0699 3679529
1047.1104 956.80035 1981.6313 3218465
1048.0111 947.00256 1961.3392 3152415
1063.9462 950.85602 1969.3201 5125949
1069.0913 945.0874 1957.3727 3875881
1082.7954 946.92773 1961.1842 4270639
1091.4823 944.38782 1955.9237 3941675
1110.0988 950.40234 1968.3805 3810090
1131.7461 958.8598 1985.8967 3941676
1136.4557 952.94043 1973.6371 4731704
1142.6862 948.40405 1964.2417 3810601
1164.8918 957.08447 1982.2198 4666423
1175.2546 955.95856 1979.8879 3876908
1189.4983 957.98035 1984.0752 2956062
1180.6666 941.56036 1950.0677 2232852
1195.3083 943.99689 1955.1141 4666937
1208.6029 945.33295 1957.8812 5193538
1213.974 940.50513 1947.8822 3482919
1229.7386 943.74445 1954.5913 3877421
1245.5349 946.94751 1961.225 3220006
1247.8217 939.91522 1946.6605 4009009
1268.5497 946.77545 1960.8687 3351080
1279.3955 946.20251 1959.6821 4995904
1291.967 946.90472 1961.1364 6047822
1297.3214 942.35187 1951.707 5521992
1311.1722 943.99677 1955.1138 4337207
1320.848 942.63312 1952.2896 4074035
1327.1344 938.89545 1944.5483 3416105
1344.5773 943.04681 1953.1464 3218981
1375.7703 956.68909 1981.4009 4600633
1388.6199 957.45264 1982.9822 4600633
1383.2352 945.73633 1958.7167 4337461
1400.4906 949.56555 1966.6473 4074032
1403.2717 943.59869 1954.2894 4534840
1418.8148 946.24078 1959.7614 4337461
1440.9755 953.21741 1974.2108 2759199
1444.0089 947.53094 1962.4333 4403768
1454.733 946.94135 1961.2124 4403254
1448.446 935.37573 1937.2588 4205875
1474.0419 944.41937 1955.9891 4600633
1490.7159 947.65039 1962.6808 4271669
1500.1597 946.27051 1959.8229 6771549
1528.4109 956.68414 1981.3906 4139572
1524.1559 946.74719 1960.8103 2955299
1542.6709 950.99768 1969.6134 4995396
1546.8894 946.43719 1960.1681 4008503
1552.657 942.88531 1952.8119 3614001
1558.6643 939.53058 1945.8639 4272445
1583.9146 947.7392 1962.8647 3351346
1584.8188 941.36682 1949.667 525067
1594.7871 940.43164 1947.7301 393229
1605.0935 939.70795 1946.2312 262161
1612.6937 937.42139 1941.4955 196628
1617.3125 933.44647 1933.2631 196627
1623.4639 930.40594 1926.9658 196626
1624.5439 924.52179 1914.7791 196627
1630.0636 921.22827 1907.9579 65554
1631.3151 915.58441 1896.2689 18
1635.6929 911.76062 1888.3495 65553
1621.2804 897.586 1858.9924 65801
1602.1378 881.00171 1824.6445 6578548
1617.2903 883.3717 1829.5532 5788779
1630.4402 884.62372 1832.1461 6644344
1669.7216 899.94342 1863.8749 1052448
1695.4448 907.80237 1880.1515 5130595
1707.9723 908.53925 1881.6776 6051956
1711.6217 904.57458 1873.4666 3683152
1722.4749 904.44354 1873.1952 2827330
1733.1104 904.20081 1872.6923 1774641
1733.4314 898.61414 1861.1217 1775154
1734.5522 893.50989 1850.5504 262669
1750.5801 896.10059 1855.9159 1906743
1745.3763 887.8587 1838.8461 2169656
1746.5081 882.92181 1828.6212 918816
0 0 0 0
0 0 0 0
0 0 0 0
0 0 0 0
0 0 0 0
0 0 0 0
0 0 0 0
0 0 0 0
0 0 0 0
0 0 0 0
0 0 0 0
-1628.431 914.6557 1871.3766 6116686
-1633.4922 923.78979 1890.0648 6379860
-1619.6609 922.29205 1887.0005 6708568
-1605.6049 920.64453 1883.6296 9537665
-1600.2139 923.97717 1890.4482 10458512
-1592.1698 925.81415 1894.2067 9998987
-1567.7842 918.10748 1878.4388 9603457
-1565.6318 923.40375 1889.2749 8550767
-1569.3564 932.26721 1907.4097 5589565
-1579.7307 945.2384 1933.9485 6313032
-1567.5814 944.82349 1933.0996 6180933
-1566.5776 951.16974 1946.084 6641482
-1552.6318 949.69391 1943.0643 6246724
-1547.8127 953.82013 1951.5066 5720380
-1534.2526 952.58136 1948.9722 6378566
-1527.7395 955.73254 1955.4193 5654844
-1514.3113 954.57257 1953.0461 5720380
-1503.697 955.18231 1954.2937 5654587
-1499.7703 960.08258 1964.3195 5654586
-1501.9126 968.97504 1982.5134 5654589
-1492.0604 970.20831 1985.0367 2496527
-1476.1647 967.50012 1979.4958 2035976
-1460.2274 964.72113 1973.8099 4733488
-1441.8015 960.23981 1964.6412 5456440
-1427.4067 958.39221 1960.8611 5391672
-1419.5118 960.91418 1966.0209 4865074
-1416.3169 966.68573 1977.8296 6115142
-1408.2924 969.22974 1983.0347 5259834
-1396.8591 969.45087 1983.4871 5062710
-1377.8257 964.35638 1973.0637 4996918
-1360.6982 960.52008 1965.2146 5588798
-1353.2886 963.5365 1971.3862 5654591
-1330.069 955.25085 1954.4338 5457209
-1321.0784 957.1286 1958.2758 5917504
-1311.4652 958.58459 1961.2546 6443335
-1295.8748 955.65863 1955.2682 5851198
-1284.2203 955.60876 1955.166 4140580
-1276.9171 958.8252 1961.7468 3416600
-1275.2729 966.3891 1977.2225 5061425
-1257.2581 961.57275 1967.3683 4600618
-1264.1562 975.8985 1996.6787 4601385
-1248.5364 972.94727 1990.6405 5061679
-1244.85 979.32782 2003.6952 5588280
-1235.3318 981.19922 2007.5239 5456694
-1228.3291 985.12451 2015.5551 5983037
-1209.9578 979.91962 2004.906 3811358
-1202.2455 983.32977 2011.8831 4535079
-1188.047 981.44983 2008.0367 3877407
-1168.3508 974.94421 1994.7263 5128505
-1155.5042 974.07983 1992.9576 787973
-1108.3248 943.95642 1931.3256 327680
-1094.6287 942.01953 1927.3627 722182
-1075.2853 935.13049 1913.2679 2957347
-1067.5647 938.31042 1919.7739 5983307
-1052.3007 934.85706 1912.7085 4601652
-1046.4617 939.79297 1922.8073 4206894
-1035.036 939.76508 1922.7502 5062203
-1014.6466 931.50745 1905.8551 7693924
-1006.6741 934.59161 1912.1652 6312270
-991.26862 930.76654 1904.3392 7037017
-985.50122 936.00751 1915.0623 5194557
-974.32361 936.1723 1915.3994 4799285
-959.60114 932.89478 1908.6935 3680802
-958.61322 943.0506 1929.4723 6641743
-943.59979 939.48718 1922.1816 5127477
-932.97577 940.2605 1923.7637 8811882
-921.59961 940.28528 1923.8146 8614248
-908.59515 938.62885 1920.4254 3943203
-903.62299 945.33344 1934.1428 4930098
-898.78412 952.35138 1948.5016 5258807
-886.54755 951.61139 1946.9877 5982787
-868.80841 944.86774 1933.1901 6903378
-862.59253 950.64331 1945.0068 6838097
-846.32898 945.35205 1934.181 6969682
-839.19312 950.25104 1944.2043 8614506
-832.48566 955.77844 1955.5133 6114629
-822.09698 957.17578 1958.3722 5917247
-814.52289 961.93707 1968.1138 7232594
-802.97681 962.07764 1968.4015 7167312
-793.33319 964.53546 1973.4301 7167312
-784.69232 968.30414 1981.1407 7956827
-774.3808 970.09454 1984.8038 7364433
-765.25897 973.45349 1991.6763 5850937
-753.5448 973.5683 1991.9113 5521974
-740.24738 971.60889 1987.9021 5982271
-734.91382 980.20789 2005.4957 2496013
-715.60364 970.14148 1984.9 1247235
-703.6076 969.82025 1984.2428 4667183
-693.03589 971.48468 1987.6482 5587512
-686.24524 978.59845 2002.2029 5521719
-673.90607 977.91113 2000.7965 3613465
-656.83051 970.20294 1985.0258 5258804
-644.32996 969.09467 1982.7582 6179649
-634.20581 971.58588 1987.8552 4601131
-621.5495 970.21869 1985.0579 7232594
-610.66559 971.61865 1987.9224 6114370
-603.02399 978.33417 2001.6621 6114113
-591.01361 978.08911 2001.1606 5916734
-581.73022 982.43939 2010.0613 5982271
-563.13824 970.92242 1986.4977 3153430
-544.1452 958.20721 1960.4824 5982271
-538.5979 969.13104 1982.8326 4074276
-529.14545 973.35858 1991.4822 4798253
-518.38647 975.32098 1995.4971 6245445
-503.48074 969.39081 1983.364 4206631
-494.50058 974.85883 1994.5515 4996406
-486.26172 982.0918 2009.3502 10193281
-465.86948 964.52594 1973.4105 8614505
-457.1091 970.75781 1986.1609 7429974
-446.50467 973.29938 1991.361 6640713
-432.04437 967.34576 1979.1799 4732718
-421.38446 969.8064 1984.2144 4272164
-402.54855 953.05109 1949.9332 6640202
-394.23776 960.96075 1966.1163 6113855
-388.11591 974.85016 1994.5338 6640454
-377.65543 978.37225 2001.74 6245440
-366.36835 979.91193 2004.8903 5784889
-353.63501 977.55701 2000.072 6772298
-338.38104 967.82916 1980.1689 5324339
-325.38626 964.09625 1972.5315 4402726
-315.2952 969.00922 1982.5834 4666412
-301.63364 962.90448 1970.0931 5258806
-289.71762 962.1048 1968.4569 7035731
-277.03558 958.58728 1961.2603 7232595
-266.72952 963.3432 1970.9906 8153182
-256.09033 967.27637 1979.0378 10259067
-245.11897 970.27216 1985.1672 8679784
-234.09961 973.37042 1991.5063 3284762
-221.36827 969.30164 1983.1815 3088154
-209.28172 967.75812 1980.0236 1050631
-196.30466 961.66864 1967.5646 5980733
-184.24985 959.61346 1963.3597 7363158
-172.07248 956.59991 1957.194 8153186
-159.61671 951.49115 1946.7415 3877157
-148.10649 951.66187 1947.0909 8350821
-136.92194 954.13104 1952.1428 9140337
-125.53524 955.51727 1954.9789 11903385
-114.38978 959.20819 1962.5305 9468786
-103.40878 965.26984 1974.9326 9534835
-91.836472 966.65454 1977.7657 9074285
-79.612808 960.58557 1965.3485 8942699
-67.532005 954.45544 1952.8065 8679527
-56.355179 961.20837 1966.6229 8613221
-44.870739 964.86798 1974.1104 8087133
-33.028625 960.70526 1965.5935 7626326
-21.354738 959.56561 1963.2617 7231823
-9.8156586 969.00604 1982.5769 7494742
1.9282 966.34247 1977.1272 5850174
13.547256 959.41473 1962.9532 5323830
25.258589 962.40399 1969.0691 6837070
37.381744 974.23694 1993.2793 7494744
49.195957 974.2688 1993.3445 6442826
60.977356 973.7644 1992.3125 6968656
72.236717 966.43945 1977.3257 7495000
83.068718 956.23981 1956.4572 6507849
95.033646 959.98285 1964.1155 10850446
107.26116 965.27216 1974.9374 5127483
118.21542 959.18964 1962.4926 8415586
130.3676 963.04596 1970.3826 7165265
141.54654 959.66974 1963.4749 6309960
154.65401 968.88843 1982.3363 6244427
168.58182 981.58215 2008.3074 851971
179.86595 978.22369 2001.436 655367
190.79974 973.49323 1991.7576 524296
200.60768 963.90424 1972.1387 524296
212.85419 966.44324 1977.3334 524294
223.33812 961.13208 1966.4667 458756
234.68272 959.86774 1963.88 524291
243.43053 948.60376 1940.834 720897
254.07916 945.42914 1934.3389 851968
263.19141 937.05859 1917.2126 917504
273.15012 932.26971 1907.4147 917504
281.99777 924.22015 1890.9453 1378570
294.79568 929.23755 1901.2109 851968
306.15765 929.526 1901.801 851968
317.88864 930.87457 1904.5602 1969168
329.65869 932.24103 1907.356 2035988
340.46161 930.87256 1904.5562 1969938
351.8114 931.03931 1904.8972 786432
363.59796 932.31555 1907.5084 851968
372.38098 926.04553 1894.6802 720896
384.16144 927.37848 1897.4073 851968
396.84879 930.7627 1904.3313 917506
407.37845 929.03912 1900.8048 2165524
416.85651 925.07446 1892.6932 917504
427.57831 924.00543 1890.506 6506314
440.6897 928.02307 1898.726 5520440
458.34445 941.17004 1925.6246 10193538
467.21289 936.07465 1915.1995 13746602
483.86615 946.44812 1936.4235 13089955
511.56613 977.44788 1999.8488 13550254
519.23102 969.62952 1983.8525 985094
530.99792 969.64813 1983.8905 2036495
545.96564 975.38422 1995.6266 4009264
554.8562 970.25031 1985.1226 5587268
560.65497 960.03534 1964.2228 4534835
569.28906 954.99213 1953.9045 5652549
585.76276 963.039 1970.3683 6376274
595.18658 959.40723 1962.9379 1642000
602.55292 952.6618 1949.1368 4599864
617.39386 957.76562 1959.579 5521475
627.28448 955.14313 1954.2135 6113611
638.82385 955.08075 1954.0858 4995130
650.72754 955.5556 1955.0573 4995388
662.15143 955.32147 1954.5785 3021853
674.89783 956.97083 1957.953 4075053
688.10242 959.20306 1962.5201 2891290
700.75928 960.61029 1965.3992 1904139
706.41473 952.53082 1948.8687 3416608
697.33899 925.16724 1892.8831 2956314
715.6662 934.45032 1911.8761 4272175
749.44812 963.30872 1970.9202 786432
757.45697 958.66229 1961.4136 3021594
765.03693 953.62158 1951.1005 3087643
782.82715 961.26874 1966.7465 2495506
796.09088 963.21484 1970.728 3679523
801.54962 955.79755 1955.5524 3877161
813.53687 956.26562 1956.5101 3087902
821.27252 951.79333 1947.3599 3679782
828.362 946.70648 1936.9521 3877161
837.41058 943.96704 1931.3473 3087903
860.4433 956.85248 1957.7108 3417382
868.97473 953.48352 1950.8179 4271921
877.30402 949.98413 1943.6581 2955547
885.88062 946.83978 1937.2249 2429459
891.88416 941.06079 1925.4012 3350050
898.10474 935.65417 1914.3392 2823704
918.61816 945.08691 1933.6385 3350561
929.79047 944.79541 1933.0422 3086876
939.90564 943.45001 1930.2894 3415843
953.18854 945.27826 1934.03 4007981
959.13995 939.87878 1922.9828 4599864
969.10071 938.48895 1920.139 1575438
981.5448 939.50824 1922.2246 2823709
1004.3507 950.30847 1944.3218 2824221
1010.3369 945.12964 1933.7258 918277
1017.7256 941.36407 1926.0216 1574923
1030.2148 942.34747 1928.0337 3547175
1042.3534 942.99219 1929.3528 3415331
1060.193 948.72449 1941.0811 1902859
1071.5801 948.6217 1940.8707 4993848
1090.0618 954.73492 1953.3783 4928311
1097.7583 951.37262 1946.499 4731446
1102.4658 945.51678 1934.5179 3152159
1107.2454 939.84259 1922.9087 4073774
1130.7327 950.00171 1943.6941 3942188
1145.0974 952.36865 1948.5369 3481893
1166.8781 960.79456 1965.7762 4271409
1148.5011 936.31549 1915.6923 3679529
1162.6074 938.53827 1920.2401 3943214
1183.4486 946.10217 1935.7157 3285540
1191.4395 943.34631 1930.0771 4403512
1207.2097 946.74384 1937.0286 3613995
1215.4095 944.19623 1931.8162 4403768
1228.9984 945.84357 1935.1866 4996162
1241.4192 946.5697 1936.6724 4930112
1256.1741 949.04608 1941.739 1378058
1265.2957 947.26007 1938.0848 2430235
1274.8129 945.79993 1935.0973 4402744
1282.6647 943.14111 1929.6573 4994880
1295.5801 944.21948 1931.8638 4600633
1296.4064 936.54578 1916.1635 4929599
1320.8762 945.93744 1935.3787 5324101
1336.3805 948.802 1941.2396 4732219
1354.9467 953.77319 1951.4105 5455685
1362.2747 950.81628 1945.3607 5390149
1373.7437 950.77496 1945.2762 4534840
1383.8105 949.77203 1943.2242 5192514
1376.9806 937.28442 1917.6747 5324356
1388.1201 937.13245 1917.3638 5126977
1408.7704 943.35168 1930.0881 4666426
1433.5414 952.20782 1948.2079 3811117
1437.2994 947.07648 1937.7091 3284773
1452.3025 949.37732 1942.4167 4863805
1460.527 947.24573 1938.0554 3613481
1477.5573 950.81396 1945.356 4863291
1488.0255 950.1369 1943.9707 4468534
1511.1681 957.50085 1959.0374 5389892
1520.7915 956.25189 1956.4821 5192516
1518.7343 947.73291 1939.0521 4665915
1534.2538 950.22784 1944.1567 4534588
1535.7019 944.0354 1931.4871 3942452
1552.7021 947.42426 1938.4207 1970201
1571.4138 951.79987 1947.3732 3219756
1566.6436 941.99249 1927.3074 1904923
1587.6847 947.73462 1939.0558 262154
1597.0341 946.46533 1936.4587 327695
1601.2201 942.17584 1927.6825 196627
1606.0797 938.34076 1919.8361 131093
1609.3738 933.65137 1910.2415 65557
1610.0601 927.52515 1897.7074 65557
1613.8828 923.27838 1889.0184 20
1619.6573 920.19897 1882.718 19
1629.4335 919.41949 1881.1233 18
1620.3512 908.08197 1857.9269 65553
1621.7031 902.70563 1846.9269 3814735
1623.1744 897.46747 1836.2096 7105154
1625.0508 892.52142 1826.0901 5986671
1641.8555 895.78564 1832.7687 5460329
1679.1628 910.11969 1862.0958 7170438
1693.2297 911.75208 1865.4358 3617362
1702.9886 911.05872 1864.0172 1380398
1714.7246 911.42523 1864.767 3551568
1727.694 912.43829 1866.8398 2762052
1722.6276 903.974 1849.5219 657443
1728.8729 901.5152 1844.4912 196886
1729.9806 896.42511 1834.077 2104119
1730.0745 890.87659 1822.7247 1380652
1740.3718 890.61847 1822.1965 3419980
0 0 0 0
0 0 0 0
0 0 0 0
0 0 0 0
0 0 0 0
0 0 0 0
0 0 0 0
0 0 0 0
0 0 0 0
0 0 0 0
0 0 0 0
0 0 0 0
-1589.8555 910.01355 1839.5741 7234396
-1591.4812 917.23383 1854.1696 6905686
-1590.6957 923.15472 1866.1387 5129532
-1591.5586 930.12213 1880.2231 6905433
-1588.762 935.03406 1890.1525 9405820
-1574.4032 933.16266 1886.3695 7432029
-1567.858 935.92889 1891.9613 9471097
-1560.5653 938.2854 1896.725 5062965
-1556.6632 942.72949 1905.7086 6247496
-1552.8093 947.26807 1914.8832 5983554
-1542.0303 947.61761 1915.5898 5917759
-1536.0148 950.92145 1922.2686 6641225
-1527.0004 952.4043 1925.2661 6115138
-1531.2946 962.27258 1945.2146 5983552
-1525.5472 965.93268 1952.6133 5325622
-1514.6896 966.38812 1953.5342 5128243
-1506.6937 968.69055 1958.1884 5325365
-1493.4426 967.62378 1956.0319 4865072
-1486.9133 970.92957 1962.7145 4996659
-1476.3364 971.6236 1964.1174 3680542
-1462.0569 969.8725 1960.5776 4338728
-1450.6011 969.98145 1960.798 4338731
-1434.7063 967.10004 1954.9731 4403498
-1418.5449 963.99042 1948.6873 3877924
-1414.6025 969.2016 1959.2216 5916737
-1408.1487 972.7641 1966.423 4337705
-1397.3424 973.35425 1967.616 4206376
-1380.1615 969.47644 1959.7771 3746339
-1358.8569 962.61176 1945.9001 4141353
-1349.6013 964.23804 1949.1876 5128247
-1341.7849 966.92944 1954.6283 5391162
-1325.0513 963.18585 1947.0607 5391419
-1315.1769 964.40631 1949.5278 6048578
-1301.1261 962.55872 1945.793 5390647
-1288.7007 961.89117 1944.4436 5193011
-1261.4159 950.02051 1920.4473 5456440
-1269.3696 964.71484 1950.1515 4666923
-1271.7384 975.39563 1971.7426 4206373
-1248.8563 966.72797 1954.2211 4206373
-1241.7948 970.25934 1961.3597 4666665
-1232.0955 971.77692 1964.4275 6246210
-1235.1799 983.50238 1988.1302 5982783
-1216.4445 977.91248 1976.8304 5851709
-1202.3999 976.02167 1973.0081 5588280
-1190.2043 975.60931 1972.1746 5456695
-1179.9799 976.82043 1974.6228 4930097
-1171.0428 979.13239 1979.2964 3811878
-1142.8085 965.19281 1951.1178 262144
-1125.7196 960.47784 1941.5865 2958113
-1102.172 950.09802 1920.604 3089185
-1085.3909 945.3952 1911.0972 4404017
-1077.3925 948.32373 1917.0173 4667443
-1060.704 943.58417 1907.4363 3746342
-1051.5774 945.54193 1911.3939 4996152
-1041.1515 946.36127 1913.0502 4338480
-1034.9673 951.09668 1922.6227 5851716
-1014.269 942.45105 1905.1458 6640463
-1004.5469 943.92462 1908.1246 4666670
-983.07831 934.26843 1888.6049 4798258
-966.36621 928.96228 1877.8784 4995637
-967.71893 941.10046 1902.4155 5061685
-952.22675 936.95007 1894.0255 4798513
-948.66229 944.57703 1909.4432 4337705
-937.28607 944.51605 1909.3202 4666927
-928.86633 947.46936 1915.2902 5522236
-913.4765 943.29803 1906.8579 8088163
-898.10828 939.0448 1898.2601 3745570
-902.0354 955.11444 1930.7446 3284764
-891.30292 955.87549 1932.283 3547935
-883.35681 959.68329 1939.9803 5324856
-863.24567 950.20117 1920.8124 8943988
-852.67322 951.10535 1922.6403 10391689
-844.60059 954.86035 1930.2308 9536125
-826.18561 946.86536 1914.0692 9010034
-825.94354 959.76514 1940.1458 5588284
-816.49884 962.18445 1945.0364 5259062
-807.54681 965.26208 1951.2577 6245701
-795.94312 965.21338 1951.1593 5916990
-782.87201 963.35754 1947.4078 6903887
-775.11011 968.07709 1956.9482 7232849
-767.44385 973.06146 1967.0239 7167311
-763.94556 983.56555 1988.2579 7233361
-746.77179 976.51611 1974.0076 6509895
-733.67462 974.65784 1970.2511 6575691
-721.32477 973.74829 1968.4126 2299920
-714.61731 980.55115 1982.1643 4009503
-699.32544 975.60547 1972.1666 4337700
-682.90985 968.89734 1958.6063 5456181
-673.86084 972.58936 1966.0698 6969420
-663.65637 974.71448 1970.3656 6311489
-647.59747 968.16321 1957.1223 6641223
-633.4649 964.30536 1949.3239 6377539
-623.1402 966.2085 1953.171 5916991
-614.62482 971.04224 1962.9423 6377541
-605.26953 974.70996 1970.3564 6377542
-599.69318 984.72711 1990.606 5851199
-579.09393 969.98285 1960.8008 5785150
-568.28687 971.37262 1963.6102 2758675
-559.19214 975.80872 1972.5775 3087900
-543.89062 969.3717 1959.5653 6245449
-530.68756 966.47546 1953.7107 4666413
-509.12473 947.88605 1916.1324 5127991
0 0 0 0
-447.62564 872.29852 1763.3337 5456698
0 0 0 0
-431.00385 881.04333 1781.0114 10785667
-420.93674 882.06506 1783.0767 10720635
-408.67508 878.42224 1775.7128 9930601
-399.02838 880.35608 1779.6221 7429965
-394.90811 894.91864 1809.0601 9799284
-382.93469 892.00104 1803.1621 10259323
-371.96054 891.31036 1801.7659 10522753
-362.31436 893.8551 1806.9099 3615520
-349.07434 887.41846 1793.8986 4732973
-368.78992 966.98907 1954.7489 4601133
-357.84579 968.72205 1958.2521 4206887
-346.67749 969.94385 1960.7219 5982531
-335.20251 970.36267 1961.5685 3350815
-323.22632 969.30859 1959.4376 3021849
-311.87418 970.117 1961.0719 2495249
-297.97885 962.77094 1946.222 5126966
-286.10693 961.63428 1943.9243 4797743
-273.70828 958.55756 1937.7048 4797997
-263.61127 963.62494 1947.9484 5324598
-252.90164 966.81445 1954.3959 7101009
-241.0535 965.74884 1952.2418 6311235
-229.62518 966.34265 1953.4421 6969680
-218.72032 969.31934 1959.4594 5784899
-206.46881 966.32684 1953.4103 720896
-194.27051 963.24298 1947.1763 589824
-182.82306 963.72766 1948.1559 1509897
-170.45262 959.08429 1938.7694 4336936
-158.08296 953.77429 1928.0354 2693138
-146.25452 951.15668 1922.744 5389623
-136.05586 959.59149 1939.7948 9205870
-125.51186 966.92279 1954.6149 9403507
-113.56242 963.81665 1948.3358 8612964
-102.39326 967.37939 1955.5378 9270894
-90.89798 968.37714 1957.5548 9205101
-78.984138 964.5553 1949.829 9204844
-66.73835 954.67517 1929.8566 8152413
-56.038265 967.39215 1955.5637 8086621
-44.430843 966.9931 1954.757 8613221
-32.963974 970.45038 1961.7458 7824476
-21.300541 968.73541 1958.2791 7692891
-9.6785526 967.05597 1954.884 8021856
1.9030997 965.32745 1951.3899 6376517
13.487274 966.74823 1954.2621 7626070
24.893198 959.98218 1940.5846 8152415
36.500401 962.80157 1946.2839 8020317
48.308605 968.29584 1957.3904 9007469
59.87809 967.80408 1956.3962 6441542
71.621178 969.82257 1960.4767 7823196
82.857964 965.37866 1951.4934 6572873
94.546432 966.6413 1954.0459 7954783
106.63065 971.23309 1963.3281 6967888
118.38843 972.24054 1965.3646 8151905
129.67085 969.51337 1959.8518 7362902
141.25851 969.32928 1959.4796 6837071
152.68257 968.13574 1957.0669 7429978
166.6687 982.20947 1985.5166 3878189
177.16621 975.22369 1971.395 1314064
187.49892 968.25122 1957.3002 524806
199.26054 969.04022 1958.8951 196613
210.44041 967.06903 1954.9104 262153
220.89104 962.12714 1944.9204 327688
231.70332 959.17242 1938.9476 393225
242.49507 956.41608 1933.3757 393222
253.06155 953.06 1926.5916 524292
262.95251 947.55945 1915.4723 720896
270.85397 935.64154 1891.3805 851968
282.81934 938.15149 1896.4542 1442822
294.97147 941.06537 1902.3446 1640459
306.97473 943.30731 1906.8767 720896
318.15195 942.94171 1906.1376 1179907
329.64941 943.51788 1907.3022 589824
341.07303 943.85138 1907.9766 720896
352.53134 944.25653 1908.7954 786432
363.75372 944.02411 1908.3256 917504
374.8093 943.38593 1907.0355 917504
385.79572 942.61609 1905.4792 917504
396.90814 942.18903 1904.6161 1048576
407.4541 940.47827 1901.1578 983040
418.7565 940.55853 1901.3201 917504
428.8656 938.02454 1896.1978 983040
437.08582 931.59406 1883.1986 1442821
448.11539 931.32245 1882.6495 1510411
459.89905 932.59338 1885.2186 13549990
479.29398 948.87213 1918.1257 13748901
491.54132 950.57416 1921.5664 13617831
510.4104 964.71466 1950.1511 3155230
525.56439 971.36273 1963.5901 2101775
538.83978 974.32587 1969.58 4995127
547.45953 968.92352 1958.6593 5719365
557.9198 966.93542 1954.6404 3284254
568.03461 964.44159 1949.5991 8218729
578.07794 961.92822 1944.5184 5981510
588.77301 960.57635 1941.7858 7034968
601.35107 962.28961 1945.249 1245958
608.03931 954.69073 1929.8879 5850438
618.79437 953.63995 1927.7638 6574160
634.27789 959.78217 1940.1803 6179650
643.60864 956.56128 1933.6693 5982529
655.81293 957.64905 1935.8682 2890775
672.11145 964.57526 1949.8695 6771784
682.68536 963.19061 1947.0703 3942687
687.46558 953.81354 1928.1149 3744540
697.57208 952.01227 1924.4735 5060660
706.70325 948.95905 1918.3016 4271401
723.12225 955.63391 1931.7947 4469294
739.85144 962.50409 1945.6825 4864053
755.41388 967.66895 1956.1232 1771784
764.03674 963.92236 1948.5497 2692885
773.38617 961.19055 1943.0273 3218972
783.61475 959.61548 1939.8433 4008232
794.30212 958.63971 1937.8707 4600113
802.60004 954.84888 1930.2076 4863541
814.54358 955.44086 1931.4044 3745317
826.34009 955.84644 1932.2242 4929592
839.09015 957.3288 1935.2208 4140332
849.76758 956.43848 1933.421 3021339
851.53821 945.6803 1911.6736 3416355
865.85144 948.95081 1918.2849 4140334
878.29987 950.11957 1920.6475 4205869
879.3833 939.12115 1898.4144 3481635
896.64142 945.45593 1911.22 3482405
907.57825 945.05035 1910.4003 5060669
918.80573 944.95367 1910.2048 4863034
933.02441 947.89825 1916.1572 4731704
942.1676 945.6778 1911.6685 4666424
954.44202 946.61542 1913.564 4929852
961.86847 942.77942 1905.8094 4140596
975.4021 944.94885 1910.1951 4732734
998.94092 956.65015 1933.849 1246732
1000.9401 947.69226 1915.7407 3022375
990.31848 927.11993 1874.1542 3352366
1019.1644 943.54297 1907.353 7233640
1032.905 945.77466 1911.8644 9602957
1023.1998 926.72272 1873.3512 7430760
1045.9642 937.17218 1894.4746 5653579
1070.4707 948.94397 1918.2711 3547945
1090.5443 956.5802 1933.7074 4731190
1102.6104 957.10657 1934.7716 5454914
1109.1923 952.91083 1926.2899 4270896
1121.353 953.54437 1927.5707 4271153
0 0 0 0
0 0 0 0
1140.1344 940.76453 1901.7365 3877165
1149.9414 939.56915 1899.3201 4206387
0 0 0 0
1180.4092 945.94501 1912.2087 4206388
1185.8344 941.25629 1902.7306 3680045
1194.3724 939.10358 1898.3789 4206388
1214.5712 946.07391 1912.4694 5390665
1232.7126 951.3277 1923.0897 3811633
1248.9347 955.01758 1930.5487 3679790
1250.9647 947.88678 1916.1339 5324616
1270.6626 954.15118 1928.7974 3482671
1277.4254 950.67737 1921.7751 4732739
1287.032 949.36279 1919.1177 1970200
1290.8241 943.81976 1907.9126 3416620
1306.3564 946.88257 1914.104 4798273
1316.7043 946.16736 1912.6581 4403000
1333.0984 949.77167 1919.9442 4798012
1341.5734 947.72101 1915.7988 4929598
1357.7935 951.13 1922.6901 4732219
1375.1226 955.25281 1931.0242 4468790
1367.1542 941.87909 1903.9896 5324100
1384.3176 945.89697 1912.1116 4797755
1394.0076 944.7843 1909.8624 4534586
1412.2028 949.40771 1919.2084 4995136
1432.213 955.16748 1930.8518 4863552
1437.2013 950.89709 1922.2194 3942448
1453.0127 953.79846 1928.0842 2626335
1461.2821 951.74243 1923.9281 2364444
1486.2556 960.51343 1941.6584 4534586
1497.0813 960.07672 1940.7756 4534585
1503.7633 957.00952 1934.5754 5192514
1513.2798 955.77911 1932.0881 5061184
1533.5819 961.32806 1943.3053 5455687
1540.3389 958.36682 1937.3191 4863805
1537.0002 949.2146 1918.8181 4535355
1542.9703 945.90344 1912.1246 4535355
1571.433 956.32898 1933.1996 4403770
1577.2231 952.90546 1926.2791 3548980
1581.6727 948.72711 1917.8326 656397
1598.2321 951.82019 1924.0853 262159
1592.015 941.40118 1903.0236 196625
1597.083 937.75507 1895.653 20
1600.4441 933.16467 1886.3735 65557
1601.1863 927.12152 1874.1573 18
1605.6603 923.30743 1866.4474 19
1613.0376 921.2038 1862.1949 15
1617.8 917.64551 1855.0018 2697530
1630.3624 918.52954 1856.7888 3749192
1625.863 909.85382 1839.2511 3091264
1622.4977 901.92401 1823.2212 6381692
1606.302 887.01404 1793.0809 10329014
1642.417 900.99683 1821.3468 9276328
1681.8613 916.61127 1852.9111 6250109
1694.4089 917.45966 1854.6262 3881562
1694.7644 911.7381 1843.0602 3420495
1695.104 906.08124 1831.625 8881313
1705.2559 905.70807 1830.8706 1973551
1720.4231 907.98651 1835.4763 1709874
1728.6707 906.6073 1832.6882 1446450
1734.7837 904.13281 1827.6862 3222861
1748.6556 905.7077 1830.8698 591900
0 0 0 0
0 0 0 0
0 0 0 0
0 0 0 0
0 0 0 0
0 0 0 0
0 0 0 0
0 0 0 0
0 0 0 0
0 0 0 0
0 0 0 0
0 0 0 0
-1582.8942 916.88306 1831.5195 5918537
-1586.9504 925.57941 1848.8909 7695202
-1571.6101 923.00494 1843.7483 4866102
-1556.1493 920.32343 1838.3917 5655871
-1572.2422 936.39661 1870.4987 8748398
-1561.1304 936.38049 1870.4666 7563612
-1555.0157 939.38306 1876.4642 6378825
-1555.2108 946.26782 1890.2169 6181446
-1556.0067 953.62085 1904.905 6576204
-1542 951.94293 1901.5533 5983294
-1532.5153 953.05261 1903.7699 5917244
-1526.1359 956.12415 1909.9055 5193267
-1515.7852 956.73499 1911.1257 4535339
-1504.6056 956.82794 1911.3114 2758928
-1494.5486 957.6416 1912.9368 4995889
-1496.0616 965.93793 1929.509 4995632
-1488.9022 968.71954 1935.0654 5653562
-1477.9196 969.03754 1935.7007 5127475
-1469.4563 971.02533 1939.6713 4733488
-1463.0004 974.38141 1946.3752 5259830
-1446.3938 970.97662 1939.574 5523003
-1433.6146 970.10706 1937.837 4930868
-1419.4039 968.24713 1934.1217 4864562
-1398.8469 961.99249 1921.6278 4930612
-1402.6066 972.495 1942.6071 3614498
-1394.3572 974.77606 1947.1637 3680548
-1385.4666 976.64325 1950.8934 3417376
-1365.9232 970.96918 1939.5592 3351327
-1354.552 971.05737 1939.7354 1707788
-1340.2787 969.04883 1935.7233 4601905
-1318.1791 961.29816 1920.2408 5785921
-1318.2744 969.7395 1937.1028 5588541
-1300.4441 965.02667 1927.6888 6180934
-1290.5314 966.15814 1929.9489 5391416
-1280.29 967.0614 1931.7533 5456953
-1271.9984 969.4671 1936.5587 5456440
-1249.8325 961.24597 1920.1365 5127475
-1236.2449 959.5318 1916.7124 5193011
-1245.0485 975.32629 1948.2627 3745564
-1230.5266 972.97302 1943.562 4271907
-1209.9624 965.75262 1929.1389 3153684
-1191.6919 960.24274 1918.1326 6246209
-1201.756 977.67804 1952.9604 5587767
-1181.151 970.25928 1938.1411 4469544
-1155.687 958.664 1914.979 4206374
-1137.9637 953.32373 1904.3115 4667953
-1126.2543 952.96478 1903.5945 5128762
-1119.0537 956.45245 1910.5613 4865336
-1102.449 951.89154 1901.4507 4273456
-1087.7676 948.91412 1895.5032 3352356
-1077.1934 949.495 1896.6635 4536116
-1062.1226 946.08282 1889.8474 4536116
-1055.4801 950.1853 1898.0424 4733238
-1044.6973 950.60889 1898.8884 3614757
-1035.9653 952.92798 1903.5209 4272687
-1025.1505 953.36121 1904.3865 4733235
-1009.6378 949.3866 1896.4469 4733237
-993.86395 945.07397 1887.8323 5127994
-984.48041 946.8092 1891.2985 5193787
-970.07971 943.70343 1885.0946 7364954
-956.75323 941.5827 1880.8582 4865075
-953.26447 949.2077 1896.0896 4404524
-942.72247 949.90765 1897.4877 4206890
-937.61053 956.16199 1909.9811 4141097
-923.72729 953.51495 1904.6935 4272425
-911.4212 952.45062 1902.5675 4601134
-899.61371 951.88727 1901.442 4798513
-894.97693 958.99316 1915.6365 4667185
-884.83185 960.30359 1918.2542 4140842
-875.66595 962.72455 1923.0902 5259578
-858.48145 956.2774 1910.2115 7759711
-845.53162 954.43805 1906.5374 10983567
-831.85248 951.71429 1901.0967 9075056
-820.17236 951.23438 1900.1379 7166804
-814.04675 957.27301 1912.2003 6377288
-807.38452 962.84198 1923.3246 4666413
-792.11829 958.1629 1913.978 5653308
-786.95361 965.74438 1929.1224 5455929
-775.52118 965.74438 1929.1224 5785405
-765.59009 967.64191 1932.9127 5653819
-756.68628 970.9151 1939.4513 5390390
-746.50708 972.62769 1942.8722 5588025
-739.89307 979.11182 1955.8245 6772554
-722.29993 971.04218 1939.705 5982782
-711.40283 971.85907 1941.3368 6246467
-702.46741 975.42682 1948.4635 6180417
-687.92706 971.20087 1940.0221 6903883
-671.56549 964.21655 1926.0704 6837834
-658.05353 961.15259 1919.9501 7759449
-652.07959 969.18469 1935.9946 6904140
-635.52509 961.49701 1920.6379 7168082
-632.15997 973.84729 1945.3083 6115138
-608.95508 955.52533 1908.7092 6707277
-598.69849 957.21179 1912.078 6838863
-594.9649 969.59357 1936.8114 6641484
-585.15631 972.36761 1942.3527 6246213
-564.88422 957.51672 1912.6871 6574920
-562.41467 972.85187 1943.3199 7890522
0 0 0 0
0 0 0 0
-482.33508 888.94043 1775.7026 5916732
-471.16348 887.71875 1773.2623 7167055
-463.04852 892.33167 1782.4769 4600873
-451.19739 889.79205 1777.4038 5521718
-440.18774 888.83014 1775.4824 4402471
-430.12906 889.78833 1777.3965 9534318
-414.32083 878.60229 1755.0519 8745562
-405.51398 882.06946 1761.9775 10259051
-398.43649 889.58112 1776.9824 10060900
-385.78308 884.71326 1767.2587 10455401
-375.62521 885.45642 1768.7433 10323814
-370.39398 898.18921 1794.1775 11244657
-363.31686 907.0661 1811.9097 11310196
-348.85379 897.48212 1792.7651 10126183
-339.22421 900.12158 1798.0377 10653300
-330.67072 905.88019 1809.5408 8154202
0 0 0 0
-322.9852 946.19635 1890.0742 8548965
-313.59512 951.69196 1901.052 7562330
-303.38559 955.01776 1907.6954 5786433
-292.40228 956.07086 1909.7992 4667699
-280.13971 952.85779 1903.3807 3417633
-270.28107 957.89447 1913.4419 4666930
-262.31287 970.36566 1938.3536 3811619
-249.84984 966.59021 1930.8119 1903624
-237.77432 964.02338 1925.6846 5785664
-226.2621 963.59656 1924.832 5983045
-215.91412 968.34601 1934.3193 7233627
-205.07945 971.32294 1940.2657 458752
-192.83426 967.57581 1932.7808 589824
-180.52245 963.00018 1923.6407 589824
-168.15862 957.51154 1912.6768 3285792
-155.15804 947.34155 1892.3619 4404525
-144.97398 954.1236 1905.9093 6442823
-134.31615 958.66998 1914.991 7100240
-123.39293 961.98676 1921.6163 8152414
-112.2886 964.4223 1926.4816 8941930
-101.27967 968.32141 1934.2701 7428177
-89.015106 959.67847 1917.0055 7296591
-78.148155 965.77893 1929.1915 8809573
-66.854355 967.7912 1933.2111 8678501
-55.192352 964.20325 1926.0438 7955291
-43.683167 962.11005 1921.8627 8087390
-32.506229 968.43878 1934.5046 6705738
-21.118135 971.94556 1941.5095 8087392
-9.5445948 965.09595 1927.8271 8153185
1.8895482 969.93555 1937.4945 9074544
13.245196 960.7699 1919.1857 8021086
24.759544 966.26654 1930.1654 8021599
36.010677 961.26306 1920.1708 8021344
47.836346 970.31641 1938.2552 8350308
58.86203 962.77887 1923.1986 7494487
70.45121 965.40839 1928.4513 5849660
82.089737 967.8858 1933.4 8810090
92.833755 960.50128 1918.649 8349538
104.6538 964.64661 1926.9294 6967373
115.82388 962.57465 1922.7906 7493973
127.74902 966.58679 1930.8052 2956830
140.59929 976.36383 1950.3352 9468280
152.28833 977.20392 1952.0134 8614511
162.27615 967.77991 1933.1884 8089195
173.76022 967.93341 1933.4951 7234146
186.53374 974.80664 1947.2246 2497564
195.2659 960.98962 1919.6245 2826790
206.92728 962.31628 1922.2747 196611
220.09779 970.15656 1937.936 196614
230.2939 964.75873 1927.1534 196613
241.07899 962.22174 1922.0857 393221
251.56606 958.77777 1915.2062 393221
262.26279 956.39569 1910.448 458755
272.80176 953.65936 1904.9819 589824
282.39621 947.96991 1893.6171 589824
295.59082 954.33875 1906.3391 2364953
307.63303 956.65497 1910.9659 3483946
318.88327 956.43127 1910.519 1773841
329.74219 955.08966 1907.839 1247498
340.78818 954.36072 1906.3829 2037527
352.05347 954.27313 1906.2079 721926
363.86478 955.62482 1908.9082 458754
374.35605 953.53278 1904.7292 655362
384.78964 951.42065 1900.5101 786434
395.4834 950.05365 1897.7794 851970
406.48105 949.47205 1896.6177 851968
417.47348 948.90991 1895.4946 851968
428.41489 948.26422 1894.205 851968
437.60672 943.87787 1885.443 786432
447.92612 942.08142 1881.8544 1377283
463.92505 952.02728 1901.7218 6180932
474.19943 950.03265 1897.7374 13615768
488.89124 956.77539 1911.2064 13615507
505.44025 966.7652 1931.1615 3089436
521.0351 974.52789 1946.6678 4995631
533.36676 975.98303 1949.5747 5125682
542.30548 971.29974 1940.2195 6967888
552.07507 968.26807 1934.1636 7297622
561.74158 965.18262 1928.0002 5653055
569.40729 958.85095 1915.3524 7232089
584.53503 965.08685 1927.809 5718851
598.67737 969.48785 1936.6002 3745320
605.75995 962.50592 1922.6534 4666161
619.08179 965.51245 1928.6591 6113861
631.18933 966.55048 1930.7327 8942189
639.59265 961.98035 1921.6035 7231060
652.07733 963.60126 1924.8413 5850177
661.88171 961.27356 1920.1918 6442314
671.70184 959.04712 1915.7444 6573897
681.69604 957.13928 1911.9332 6771532
689.95544 952.89771 1903.4604 6047551
700.00464 951.22473 1900.1187 5389108
714.26379 955.23511 1908.1295 4863279
727.80133 958.17035 1913.9928 4337450
738.54022 957.38751 1912.4292 4337451
755.12103 964.08704 1925.8116 4074279
762.10565 958.5177 1914.6866 3613215
777.62531 963.68896 1925.0165 4205352
781.58325 954.58972 1906.8403 4796205
797.79913 960.50769 1918.6619 4994867
807.58325 958.62469 1914.9005 5916225
814.71124 953.68475 1905.0327 5587260
827.24188 955.11749 1907.8948 5455161
835.60791 951.76825 1901.2043 5323833
843.70154 948.2019 1894.0804 5850689
847.67609 940.16064 1878.0177 4600369
872.80518 955.48639 1908.6316 4600626
878.32593 949.22882 1896.1317 4468529
890.01849 949.71509 1897.1031 5060922
893.16339 941.18195 1880.0577 7495263
911.71533 948.89441 1895.4637 6310733
918.25751 944.07178 1885.8303 5060665
932.24603 946.92889 1891.5375 4600629
944.70526 948.18298 1894.0427 6376272
954.99658 947.25739 1892.1937 4205618
946.41632 927.85193 1853.4303 4008495
0 0 0 0
890.53503 853.26129 1704.4319 458753
0 0 0 0
0 0 0 0
0 0 0 0
912.56616 836.42212 1670.7948 7823726
914.46191 829.16315 1656.2947 9798028
920.50787 825.78149 1649.5396 9009282
930.43439 825.91553 1649.8073 6245718
0 0 0 0
0 0 0 0
0 0 0 0
1122.5704 956.27374 1910.2043 4929599
0 0 0 0
0 0 0 0
0 0 0 0
0 0 0 0
