# .PCD v0.7 - Point Cloud Data file format
VERSION 0.7
FIELDS x y z rgb
SIZE 4 4 4 4
TYPE F F F U
COUNT 1 1 1 1
WIDTH 1288
HEIGHT 1
VIEWPOINT 0 0 0 1 0 0 0
POINTS 1288
DATA ascii
-139.07828 981.58759 2165.8865 7888215
-127.07873 988.08752 2180.2288 8019545
-113.56973 982.99384 2168.9895 8151387
-100.41738 980.08093 2162.562 6901319
-87.677139 980.92627 2164.4272 8217178
-75.039108 983.40082 2169.8875 9137764
-62.199184 983.70599 2170.5608 7624526
-49.554047 988.05402 2180.1548 7229512
-36.488808 984.13855 2171.5151 6770243
-23.804613 991.83282 2188.4927 7231313
-10.851639 993.34314 2191.8252 1839120
2.105016 978.20819 2158.4297 524290
14.93799 980.94385 2164.4661 2891043
27.483757 971.00476 2142.5354 4863550
40.08374 968.65735 2137.3557 2889244
53.132912 975.68573 2152.864 4008237
64.900536 961.01587 2120.4946 6113612
77.175636 957.40088 2112.5181 3349791
89.464027 954.93683 2107.0813 4600116
102.10632 956.3913 2110.2905 6574163
113.90372 950.47809 2097.2429 6113612
125.90254 947.24371 2090.1062 10915730
138.31001 947.38794 2090.4246 6572621
151.06709 949.7063 2095.54 7493980
163.96263 952.47681 2101.6531 9335928
174.93756 944.48669 2084.0229 10322820
187.29256 944.51025 2084.0747 8020065
199.74802 945.00592 2085.1685 6770256
210.40663 937.43829 2068.4705 6375242
222.08556 934.99957 2063.0894 5455167
234.52394 935.84576 2064.9565 10718862
246.16179 933.57208 2059.9397 7757150
261.68927 945.56781 2086.4082 4402219
271.35928 936.27106 2065.8948 3218460
283.37384 935.51703 2064.2312 2824473
294.53705 932.1311 2056.76 2166801
305.87549 929.54694 2051.0581 1247241
316.3801 924.72308 2040.4142 2035473
327.54947 922.12592 2034.6835 2298646
339.52322 921.89728 2034.179 2101265
347.11725 910.19989 2008.3685 3153952
371.63196 942.17603 2078.9243 10257280
399.82684 981.1308 2164.8787 9138025
412.15622 979.94177 2162.2549 9203560
429.01627 989.27155 2182.8413 8085333
444.54883 995.0838 2195.666 9993330
457.5643 995.09137 2195.6829 8216918
471.40048 996.83405 2199.5281 8085334
486.81531 1001.7313 2210.334 7033166
498.98007 999.8595 2206.2036 8809060
508.3121 992.55194 2190.0793 9533044
521.61438 993.1676 2191.438 9598323
536.36353 996.44153 2198.6619 8744038
546.77142 991.68622 2188.1692 9270125
559.22742 990.77991 2186.1694 8217438
571.22003 989.11212 2182.4895 5717561
585.21759 990.91321 2186.4636 6046786
597.97009 990.57379 2185.7146 6902865
612.48798 993.11108 2191.3132 4073768
624.43079 991.45435 2187.6577 11248805
639.91138 995.36816 2196.2935 6640471
645.74414 984.41791 2172.1316 9470339
658.6084 984.40558 2172.1045 3484716
682.34698 1000.3357 2207.2544 7498350
689.28717 991.50299 2187.7649 2628128
703.38171 993.0976 2191.2834 2496800
712.67596 987.97968 2179.9907 4668231
719.38025 979.51752 2161.3188 4931659
723.57953 968.00024 2135.9058 4076863
734.22705 965.35718 2130.0737 7497324
746.21991 964.54224 2128.2756 4142394
766.60089 974.41638 2150.0632 11840170
785.17401 981.70752 2166.1511 7957874
803.20312 988.09467 2180.2444 10392213
813.75482 985.22662 2173.916 11247004
828.34924 987.2663 2178.4165 2298647
849.27856 996.67773 2199.1831 6836822
853.85614 986.90497 2177.6194 7428189
869.4303 989.94409 2184.3252 4928055
878.77417 985.90417 2175.4111 6178120
892.96655 987.34204 2178.5837 7427931
907.29517 988.88739 2181.9937 6835794
918.55609 987.09277 2178.0337 6112071
929.64923 985.1701 2173.7913 5914948
946.53619 989.35571 2183.0271 4730931
957.94189 987.77679 2179.543 5388606
965.5423 982.3681 2167.6086 4402483
977.84387 981.82166 2166.4031 4336433
997.52686 988.60498 2181.3704 4599348
1004.8851 983.15637 2169.3479 4534325
1017.6616 983.07953 2169.1785 4731448
1032.5524 985.02155 2173.4636 2626328
1047.4346 986.90765 2177.6252 4271153
1060.5437 987.09766 2178.0444 3679272
1071.025 984.86652 2173.1216 4929853
1086.8119 987.50934 2178.9529 4666682
1095.792 983.97778 2171.1604 5062212
1104.0251 979.86517 2162.0859 4864319
1116.3344 979.42322 2161.1108 6378583
1119.2701 970.86078 2142.2175 6773854
1137.2446 975.38867 2152.2085 2825758
1143.5773 969.94196 2140.1902 6181713
1163.3611 975.89832 2153.333 7694957
1178.7596 978.08679 2158.1619 5984850
1185.3319 972.98309 2146.9006 4405303
1197.1071 972.21332 2145.2021 11050393
1200.7738 964.94391 2129.1619 6970198
1212.6292 964.3374 2127.8237 7167836
1235.4315 972.35956 2145.5247 8878968
1249.7166 973.58276 2148.2236 6707285
1257.5038 969.77032 2139.8115 7299163
1271.1787 970.52917 2141.4858 6969683
1265.415 956.57861 2110.7039 8812401
1285.3656 962.14935 2122.9956 6377036
1306.0852 968.18213 2136.3071 4995898
1304.1688 957.48041 2112.6936 7431526
1317.3386 957.95276 2113.7358 2430744
1331.5063 959.13513 2116.3447 10195344
1334.0443 951.99603 2100.5923 9668229
1347.8566 952.96021 2102.7197 2891807
1361.217 953.59021 2104.1099 8352112
1370.6683 951.49512 2099.4871 11115160
1388.5083 955.20856 2107.6807 9536382
1397.4368 952.77979 2102.3218 12364710
1417.8138 958.13092 2114.1289 9600639
1431.3025 958.7738 2115.5476 7100249
1469.351 975.71454 2152.9275 5126975
1494.3572 983.7774 2170.7183 4534581
1506.5083 983.31201 2169.6914 4140082
1522.0961 985.07861 2173.5894 5191746
1530.8265 982.41486 2167.7119 3679018
1554.6627 989.409 2183.1445 3744811
1576.984 995.33148 2196.2126 4534327
1568.1562 981.6579 2166.0415 5521222
1579.4031 980.6709 2163.8638 4402742
1598.8215 984.73285 2172.8264 4665915
1619.5265 989.51593 2183.3804 4731707
1635.7926 991.53253 2187.8301 3876400
1638.6409 985.44812 2174.4048 4863294
1662.7516 992.14581 2189.1833 4336693
1674.2614 991.27917 2187.271 4863293
1680.8672 987.54462 2179.0308 4797501
1707.2385 995.39111 2196.3442 5126466
1706.8059 987.60938 2179.1736 5126466
1712.058 983.20917 2169.4644 4336693
1728.0533 984.99811 2173.4119 3875629
1747.8881 988.93304 2182.0942 3875630
1743.9254 979.4447 2161.1582 3283495
1772.1704 988.05157 2180.1494 4007475
1794.0647 993.01886 2191.1099 4534588
1814.9674 997.36993 2200.7104 4271416
1811.0917 988.13959 2180.3435 4272186
1824.6692 988.49512 2181.1282 4929860
1868.4884 1005.1135 2217.7969 4074294
1875.8783 1002.0404 2211.0159 5389897
1859.5624 986.43469 2176.5815 5324104
1892.6306 997.06012 2200.0269 5192261
1897.3518 992.7088 2190.4255 4995138
1914.5156 994.88239 2195.2217 4994881
1923.8755 992.99878 2191.0654 5061700
1954.4962 1002.0405 2211.0161 5061702
1933.2499 984.54736 2172.4172 4403772
1963.4845 993.33008 2191.7964 4272443
1967.5243 988.83228 2181.8721 4469310
1967.4108 982.31964 2167.5017 3811639
1989.6409 986.97516 2177.7742 3745843
2010.2557 990.7746 2186.1577 3877172
2015.514 987.00519 2177.8403 4469310
2010.1564 978.11804 2158.231 4863553
2070.5234 1001.1221 2208.9895 5521484
2068.8037 994.00598 2193.2878 5521484
2080.7061 993.48291 2192.1335 4206138
2095.0574 994.12836 2193.5579 4535104
0 0 0 0
0 0 0 0
0 0 0 0
0 0 0 0
0 0 0 0
0 0 0 0
0 0 0 0
0 0 0 0
0 0 0 0
0 0 0 0
-1824.9233 956.36646 2082.9978 5653301
-1815.3134 957.8092 2086.1401 5784887
-1812.6283 962.95038 2097.3379 5719351
-1806.5985 966.3736 2104.7937 5390130
-1795.4611 967.0932 2106.3611 4929578
-1782.3228 966.73767 2105.5867 5521971
-1766.8347 965.09363 2102.0059 4403235
-1762.281 969.44128 2111.4751 5258802
-1733.7861 960.58655 2092.1895 4732971
-1737.0295 969.31543 2111.2012 4732460
-1716.7915 964.97253 2101.7422 4732717
-1712.7954 969.76202 2112.1738 4666923
-1717.4729 979.56909 2133.5339 4469547
-1688.1156 969.9657 2112.6174 4798512
-1664.296 963.42456 2098.3706 2364433
-1661.1022 968.81445 2110.1101 1904397
-1640.8219 964.24524 2100.1582 3088930
-1625.9979 962.83716 2097.0913 1642513
-1616.496 964.58307 2100.8938 984325
-1595.0679 959.18427 2089.1353 1444876
-1576.2767 955.29926 2080.6736 853254
-1551.8668 947.92084 2064.603 1379341
-1531.8448 943.12677 2054.1614 459267
-1530.8104 950.03973 2069.218 919303
-1508.8464 943.9704 2055.9988 2169111
-1497.3679 944.41553 2056.9683 2760992
-1486.8508 945.47925 2059.2852 2234389
-1471.0145 943.15033 2054.2126 4010287
-1455.9028 941.25079 2050.0754 5391168
-1446.968 943.3465 2054.6399 2627862
-1437.4669 945.10535 2058.4707 2166540
-1433.0775 950.28387 2069.7498 5718589
-1424.7812 952.93878 2075.5322 4534569
-1408.2299 950.07062 2069.2852 5060653
-1407.9784 958.24542 2087.0903 4731688
-1394.7069 957.62549 2085.74 5323309
-1392.2812 964.50793 2100.7302 5784630
-1368.9211 956.88129 2084.1191 6245181
-1367.7043 964.73492 2101.2246 3219221
-1359.8108 967.9801 2108.2927 5587767
-1345.0574 966.35687 2104.7573 4864301
-1333.699 967.16541 2106.5183 4929837
-1319.5671 965.95886 2103.8904 5061679
-1299.0977 960.04572 2091.0115 5785146
-1287.8242 960.88019 2092.8289 5324594
-1273.7045 959.58655 2090.0112 4995889
-1270.9927 966.94641 2106.0413 5193269
-1256.8893 965.69971 2103.3259 4995634
-1239.934 962.21497 2095.7361 4995892
-1222.3097 958.13525 2086.8503 5193274
-1193.0533 944.76099 2057.7207 2562073
-1160.6957 928.62921 2022.5851 851968
-1136.6675 918.89435 2001.3823 917504
-1124.6694 918.78204 2001.1378 5191740
-1113.7026 919.51886 2002.7424 8874858
-1113.5745 929.31665 2024.0825 11375759
-1107.9553 934.69562 2035.798 11573396
-1092.3773 931.69897 2029.2712 10850700
-1093.0122 942.61761 2053.0525 10719115
-1081.3096 943.02258 2053.9343 11509146
-1070.6619 944.36707 2056.8628 11443868
-1063.0454 948.44702 2065.749 9535359
-1046.6422 944.69128 2057.5688 10984345
-1034.1732 944.4397 2057.021 10655121
-1022.1747 944.617 2057.4072 8549230
-1020.8716 954.80176 2079.5898 6312012
-1018.1531 963.89551 2099.3965 7101784
-1014.9221 972.7229 2118.6228 6378060
-1002.509 972.86102 2118.9236 9206903
-988.33447 971.27173 2115.4619 5193528
-979.34998 974.80743 2123.1628 6574667
-966.77679 974.81659 2123.1829 9996161
-950.12488 970.65912 2114.1277 4929587
-946.27209 979.64099 2133.6907 5850943
-941.04602 987.42529 2150.645 6047809
-931.88177 991.23425 2158.9412 4600363
-919.07281 991.21863 2158.907 4469034
-906.46637 991.42383 2159.354 4403241
-885.00891 981.81586 2138.4275 5127217
-867.63922 976.52948 2126.9136 5193268
-862.36377 984.89996 2145.1448 4995632
-847.71613 982.65692 2140.2593 5061171
-834.44946 981.97076 2138.7649 4995893
-825.85895 986.85126 2149.3948 4601653
-813.05859 986.77527 2149.2292 1379596
-795.21686 980.48108 2135.5203 919561
-785.0191 983.56036 2142.2271 262145
-767.25415 977.10413 2128.1653 262145
-751.40259 972.90955 2119.0293 196609
-739.65338 973.97437 2121.3484 985099
-723.87354 969.67676 2111.988 196611
-709.60132 967.28271 2106.7739 262145
-695.01154 964.36267 2100.4138 919820
-682.34125 964.04773 2099.728 393218
-667.0705 959.97906 2090.8662 458755
-653.38861 958.08606 2086.7432 524290
-639.28296 955.48657 2081.0815 655364
-625.84705 953.80566 2077.4204 524290
-612.91846 952.84589 2075.3301 524288
-601.51898 954.27277 2078.4377 1773329
-585.77924 948.72968 2066.3647 1050378
-571.96405 946.13354 2060.7102 525317
-563.61469 952.66278 2074.9312 327682
-550.13989 950.62665 2070.4963 1314066
-536.50586 948.21637 2065.2466 1380371
-522.11719 944.32837 2056.7786 1445907
-508.86313 942.3559 2052.4824 2103582
-492.73648 934.83679 2036.1055 262145
-483.18912 939.7359 2046.776 327681
-469.0274 935.68213 2037.9467 983559
-456.134 934.01105 2034.3069 2036245
-444.38751 934.66144 2035.7235 3022369
-432.48611 935.01312 2036.4896 1311752
-419.65219 933.31128 2032.7828 655360
-404.63669 926.51343 2017.9771 720896
-390.879 922.26941 2008.7334 3416614
-379.24274 922.92151 2010.1536 4205614
-368.07748 924.79919 2014.2433 983298
-354.78326 921.27441 2006.5662 2889753
-343.13013 921.91443 2007.9602 590338
-333.66388 928.68713 2022.7114 5782585
-324.15115 935.83057 2038.2699 5650742
-313.18997 939.18323 2045.5723 5454129
-301.39673 940.21039 2047.8093 8283999
-294.18289 956.2085 2082.6538 8810854
-284.14194 964.01617 2099.6592 7099209
-274.16577 972.7688 2118.7227 3217168
-265.38519 986.80731 2149.2991 2495759
-254.84317 995.38141 2167.9736 6045754
-241.19162 992.07581 2160.7739 7822421
-229.42117 996.57056 2170.5637 6308926
-217.41621 1000.5201 2179.166 7230284
-202.45715 990.51581 2157.3762 4862250
-189.82747 991.32721 2159.1436 7099212
-177.26836 992.65118 2162.0271 6901576
-164.61147 993.59125 2164.0747 5979963
-150.34813 984.17438 2143.5645 6638149
-137.23875 981.27045 2137.2395 6637893
-124.97758 984.45715 2144.1804 7361871
-112.40147 985.6037 2146.6775 7296078
-100.34918 992.22235 2161.0933 8151388
-87.451324 991.19373 2158.8528 7427920
-74.531647 989.52277 2155.2134 8020057
-61.184204 980.30695 2135.1411 7887958
-48.329548 976.23975 2126.2825 9730421
-36.155567 987.90204 2151.6833 7560025
-23.286572 982.93555 2140.8662 6771540
-10.623417 985.16815 2145.7288 786947
2.0944674 986.03339 2147.6133 1839381
14.749194 981.211 2137.1101 4272955
27.274311 976.20538 2126.2078 6180951
39.957664 978.23724 2130.6331 2562081
52.316605 973.25818 2119.7886 2759971
64.710907 970.73773 2114.2988 4536123
76.624741 962.99658 2097.4385 6706010
88.443649 956.38995 2083.0491 6048080
101.39789 962.17499 2095.6489 4008242
113.37328 958.42255 2087.4761 3022115
124.90495 952.02655 2073.5454 9403779
136.80922 949.36176 2067.7415 7429474
148.61792 946.52655 2061.5662 9666691
160.96654 947.29956 2063.2498 9666433
173.04128 946.46521 2061.4326 8284267
183.80168 939.02618 2045.2302 7296601
197.04907 944.42737 2056.9941 6837078
209.46352 945.43951 2059.1987 6968921
220.87355 942.05652 2051.8303 7297885
233.0347 942.06281 2051.844 11508377
245.0065 941.341 2050.272 3088415
257.89835 944.0553 2056.1838 4008233
266.59412 931.85767 2029.6169 1706763
280.12549 936.88586 2040.5685 2561816
291.55853 934.77051 2035.9612 2430486
304.04932 936.07971 2038.8126 589824
314.13541 930.16846 2025.9377 458752
324.70667 926.07611 2017.0244 1246984
335.46054 922.77667 2009.8383 720896
346.91727 921.57068 2007.2115 851968
364.49371 936.16241 2038.9928 8217695
399.99704 994.38348 2165.8003 8809316
412.56152 993.73199 2164.3811 9006693
424.9642 992.74176 2162.2244 9467246
439.36844 996.34833 2170.0796 8217436
455.72025 1004.0406 2186.8337 9796211
462.72525 991.28418 2159.0498 8480866
476.36078 993.03638 2162.8662 7428437
489.84531 994.39026 2165.8149 8481125
502.59229 994.216 2165.4353 9006955
512.85828 989.26471 2154.6514 9269614
526.97351 991.79852 2160.1702 9137767
537.60016 987.80212 2151.4658 10190198
550.09058 987.3363 2150.4512 8216922
568.81165 997.82123 2173.2878 7230800
581.06439 996.74646 2170.9468 7560280
591.66174 992.93988 2162.656 6243909
606.82532 996.79553 2171.0537 6309703
618.07458 994.19476 2165.3892 6836820
627.15118 988.27606 2152.498 8021351
642.27881 991.93854 2160.4751 8416623
660.06061 999.47687 2176.8938 9008760
669.99744 995.07489 2167.3062 5456963
683.30994 995.75781 2168.7935 6707548
697.55518 997.74957 2173.1316 1773588
711.05066 998.61609 2175.019 1773588
718.65625 991.32721 2159.1436 131072
719.72552 975.43481 2124.5293 2169126
732.17871 975.25201 2124.1311 6509142
749.68707 981.69501 2138.1643 5259583
760.09021 978.77429 2131.803 2102806
779.29456 987.09729 2149.9307 11510179
788.00903 982.07928 2139.0012 10391186
808.72937 991.94586 2160.491 8614518
816.41016 985.76038 2147.0188 4271665
830.42719 987.29803 2150.3679 5850181
849.66376 994.90112 2166.9275 8087143
856.24475 987.67926 2151.1982 7692128
871.50519 990.53442 2157.4167 8218473
882.11926 988.10223 2152.1194 7165785
894.16718 987.32257 2150.4214 7692128
905.56818 985.86066 2147.2373 6573648
922.19452 990.04913 2156.3599 6902356
942.81708 998.35468 2174.4497 6113097
950.75598 993.18658 2163.1934 6902614
967.13446 996.85492 2171.1831 6771284
976.3562 993.14703 2163.1072 4994617
982.27936 986.22357 2148.0276 6178891
1001.0621 992.22321 2161.095 5850439
1015.8952 994.20587 2165.4133 6113611
1024.113 989.74585 2155.6992 6376269
1035.5593 988.47748 2152.9368 4994616
1047.3132 987.53003 2150.873 4205358
1060.7687 988.19031 2152.3113 4665910
1067.9713 983.07922 2141.1792 4732217
1076.8005 979.56793 2133.5315 9207165
1085.459 975.98462 2125.7268 3352102
1103.2021 980.55817 2135.6882 7958124
1117.457 981.96271 2138.7473 7826797
1130.1364 981.9668 2138.7561 9865866
1133.7146 974.15057 2121.7322 8813946
1142.787 971.17493 2115.2512 10985114
1153.6901 969.80267 2112.2625 11446179
1179.2858 980.67816 2135.9497 10787734
1186.5751 976.26105 2126.3289 10260620
1183.384 963.40448 2098.3269 11115156
1206.554 972.05298 2117.1636 10851468
1213.2031 967.35052 2106.9214 7890526
1220.6573 963.37909 2098.2717 8350564
1230.7733 961.56757 2094.3259 6508615
1251.9257 968.32831 2109.0513 7429972
1261.3159 965.94788 2103.8665 10127227
1270.7571 963.65253 2098.8672 10259070
1293.1014 971.0918 2115.0701 7825503
1299.6396 966.63202 2105.3567 5917514
1311.092 965.87738 2103.7129 5918028
1323.9647 966.1734 2104.3577 6707545
1323.9969 957.18097 2084.7717 11313566
1335.5651 956.61737 2083.5444 12629681
1339.3695 950.55432 2070.3389 8615028
1367.0023 961.35895 2093.8716 9865094
1377.3964 959.9549 2090.8135 11641249
1390.299 960.30847 2091.5837 12693679
1406.6035 962.98492 2097.4131 12100256
1424.8058 966.90234 2105.9453 7363416
1448.765 974.62445 2122.7644 5126975
1478.9142 986.3421 2148.2856 5455939
1487.1838 983.39185 2141.8601 3942701
1501.9296 984.73767 2144.7913 3481380
1521.0199 988.88556 2153.8254 4468532
1529.8364 986.34033 2148.282 4731450
1543.0232 986.63171 2148.9165 4468534
1572.4736 997.2323 2172.0051 4534327
1577.3429 992.19849 2161.0413 4994622
1593.1622 994.07819 2165.1353 4139569
1604.4435 993.11896 2163.0461 4534327
1609.6599 988.45062 2152.8782 4600120
1622.2264 988.33368 2152.6235 4929085
1633.088 987.18793 2150.1282 4665916
1660.6737 996.09125 2169.5198 4797501
1661.8844 989.15942 2154.4221 4600122
1682.3828 993.72577 2164.3677 5060673
1695.2094 993.72577 2164.3677 5060673
1706.0155 992.55023 2161.8074 5258052
1710.0187 987.46399 2150.7292 3284519
1728.786 990.91553 2158.2468 3547434
1740.8075 990.47809 2157.2942 3349800
1741.6956 983.75861 2142.6589 3349801
1755.8103 984.55322 2144.3894 3744559
1766.9938 983.70435 2142.5408 3941938
1794.3911 991.82977 2160.238 3810609
1790.4589 982.64563 2140.2346 3745072
1840.4001 1002.9496 2184.4575 5258309
1851.7623 1002.0928 2182.5913 5389894
1848.0305 993.13629 2163.0837 4863551
1861.6531 993.56512 2164.0178 5455687
1868.9083 990.61328 2157.5886 5126723
1877.8608 988.59497 2153.1926 5323846
1902.7982 994.96222 2167.0608 4469819
1904.6903 989.27484 2154.6733 4930115
1916.4475 988.75287 2153.5364 4930116
1939.3573 993.95355 2164.8638 4535358
1945.7662 990.68451 2157.7437 3942709
1954.807 988.78943 2153.6162 3153453
1976.651 993.35315 2163.5562 2824485
1962.6007 979.93585 2134.3328 3021866
1992.1875 988.33905 2152.6353 3285036
1996.8293 984.33875 2143.9224 5258826
2019.3544 989.14868 2154.3987 4600896
2014.3988 980.52191 2135.6091 5324362
2052.9089 993.02795 2162.8479 5455691
2082.595 1001.1368 2180.5093 5653070
0 0 0 0
0 0 0 0
0 0 0 0
0 0 0 0
0 0 0 0
0 0 0 0
0 0 0 0
0 0 0 0
0 0 0 0
0 0 0 0
0 0 0 0
-1811.0463 967.89154 2081.2363 5324593
-1798.2151 967.62396 2080.6609 5850936
-1783.9709 966.58704 2078.4314 6048316
-1781.0288 971.7019 2089.4297 5982779
-1765.3047 969.86603 2085.4819 5917245
-1748.9198 967.63855 2080.6924 5785403
-1731.3202 964.7027 2074.3794 5390644
-1714.6233 962.23138 2069.0654 4140323
-1714.8907 969.31329 2084.2935 4995633
-1693.2281 964.01245 2072.8953 4403754
-1693.6342 971.29034 2088.5447 4403754
-1687.4966 974.89502 2096.2959 3877153
-1665.2061 969.15216 2083.947 3417374
-1642.5261 963.09521 2070.9229 3154460
-1619.9078 956.98346 2057.7808 3022877
-1605.5265 955.68188 2054.9822 3023647
-1593.881 956.00134 2055.6692 2891547
-1595.7397 964.48804 2073.918 2497302
-1575.4464 959.6134 2063.436 4340018
-1568.7557 963.01288 2070.7458 4339766
-1545.6053 956.28217 2056.2729 2366233
-1544.8425 963.40588 2071.5908 2497562
-1521.8799 956.68842 2057.1465 2300184
-1506.9458 954.95026 2053.4089 2892321
-1493.458 954.10767 2051.5972 919303
-1485.3159 956.69446 2057.1594 2102547
-1472.6637 956.39508 2056.5156 3417636
-1459.4561 955.72687 2055.0789 3943722
-1442.4032 952.50824 2048.158 4271914
-1438.873 958.2406 2060.4841 4140072
-1423.8868 956.37653 2056.4758 3350554
-1408.2861 954.06396 2051.5032 5126703
-1406.5481 961.18439 2066.814 5784375
-1402.7844 967.03345 2079.3911 5390130
-1380.0295 959.77826 2063.7905 5258544
-1374.0353 964.15417 2073.2 5653046
-1356.0505 960.11945 2064.5242 4863531
-1343.7338 960.06091 2064.3982 4600102
-1349.6182 973.12506 2092.4897 4337187
-1336.156 972.35242 2090.8284 5324083
-1308.4795 961.12445 2066.6853 3745562
-1293.264 958.92389 2061.9534 5258802
-1278.0013 956.64594 2057.0552 4929581
-1267.8705 958.20258 2060.4023 4995632
-1256.9872 959.21527 2062.5801 5390390
-1248.2394 961.89349 2068.3389 5324342
-1253.1346 975.24237 2097.0427 5192758
-1231.7161 968.17517 2081.8462 4337965
-1219.3267 968.13397 2081.7576 3943465
-1195.4319 958.86322 2061.823 3810598
-1154.8381 935.86853 2012.3779 851968
-1115.5109 913.43097 1964.1309 589824
-1124.0148 930.09955 1999.9729 9402997
-1105.7317 924.72137 1988.4084 9008494
-1095.9637 926.42548 1992.0726 9666682
-1093.6361 934.52435 2009.4875 10259077
-1078.8865 932.06989 2004.2098 9272438
-1070.4817 935.10327 2010.7325 10916750
-1064.8633 940.66644 2022.6947 10455943
-1065.0406 951.5343 2046.0637 7758686
-1057.8842 956.02478 2055.7195 10587786
-1045.4067 955.75531 2055.1401 8548461
-1032.0693 954.6839 2052.8362 5719362
-1031.0057 965.07587 2075.1819 4535087
-1011.788 958.52045 2061.0859 5390395
-1001.3286 960.20331 2064.7046 5324345
-993.44446 964.42804 2073.7888 6311239
-985.66327 968.85968 2083.3181 6048066
-970.98242 966.53577 2078.321 6640717
-968.84216 976.79559 2100.3826 7233111
-956.84845 977.25885 2101.3787 9798781
-938.11688 970.76208 2087.4087 4469805
-934.60449 980.05078 2107.3821 6311751
-929.97693 988.40594 2125.3481 5587772
-921.47931 992.8208 2134.8413 4797743
-909.04974 993.06323 2135.3625 4732206
-891.95917 988.14893 2124.7954 4666156
-878.58539 987.27057 2122.9065 5061171
-862.2002 982.93341 2113.5806 3942690
-851.80878 985.40222 2118.8892 4403241
-839.25177 985.40222 2118.8892 4929586
-827.33472 986.16492 2120.5293 4732719
-811.27625 981.93872 2111.4417 4009514
-797.38812 980.24799 2107.8062 4141103
-786.0744 981.71869 2110.9685 2694172
-774.33691 982.6991 2113.0767 3023396
-759.61493 979.86194 2106.9761 1905172
-745.58044 977.83167 2102.6104 2826531
-729.31964 972.76282 2091.7109 3089702
-719.54382 976.31799 2099.3555 2431513
-703.98102 972.00787 2090.0876 3550764
-692.62805 973.46014 2093.2104 2694942
-681.25793 974.94098 2096.3945 1182989
-666.99268 972.25659 2090.6223 1576978
-652.89764 969.72339 2085.1753 788489
-637.64288 965.33673 2075.7427 327681
-624.20996 963.58978 2071.9863 262146
-611.10645 962.29144 2069.1946 1182223
-596.56482 958.62915 2061.3196 1511700
-586.21625 961.69226 2067.9062 853772
-573.8642 961.52948 2067.5562 196610
-560.26465 959.22375 2062.5981 196610
-548.82056 960.58771 2065.531 196609
-533.95093 955.88153 2055.4114 722441
-521.78882 955.91577 2055.4851 656647
-507.18445 951.37048 2045.7114 788235
-491.68234 944.8775 2031.7496 262145
-479.84961 945.28687 2032.63 327681
-466.43533 942.52161 2026.6838 327681
-451.73889 936.95081 2014.7051 2498338
-442.70822 943.14795 2028.0308 919050
-428.25732 937.82147 2016.5773 393219
-414.62643 934.03632 2008.4382 655364
-401.64679 931.53802 2003.0662 720898
-390.20972 932.5741 2005.2939 1640975
-378.81647 933.7832 2007.894 721925
-366.9046 933.7511 2007.825 983299
-354.64099 932.7915 2005.7615 917504
-342.70682 932.66199 2005.483 786432
-329.59326 929.19818 1998.0349 6179142
-318.4057 931.1084 2002.1423 4993581
-305.40366 927.65497 1994.7166 5782583
-294.10773 929.31451 1998.2849 4138013
-288.78635 950.78339 2044.4491 5322802
-276.18134 949.10242 2040.8344 5454388
-264.93332 952.14429 2047.3754 10784389
-253.41937 954.47656 2052.3904 6048060
-249.31715 986.36682 2120.9634 8021079
-239.01219 995.80066 2141.2488 4599590
-225.60872 992.6593 2134.4939 3809564
-211.76305 987.0835 2122.5044 4730154
-199.25389 987.42676 2123.2424 7032650
-187.87924 993.81726 2136.9839 5980218
-175.61508 996.08643 2141.8633 5322031
-161.46188 987.15991 2122.6687 4598310
-147.91093 980.7179 2108.8167 5979963
-135.72215 982.95239 2113.6213 5584950
-123.61885 986.32312 2120.8694 6045500
-111.17598 987.44092 2123.2729 4600108
-98.534081 986.85065 2122.0037 7230287
-85.324226 979.56732 2106.3425 6440771
-73.39743 987.04218 2122.4155 6308927
-60.855579 987.62708 2123.6731 7163722
-48.629047 994.96832 2139.459 6966600
-35.805538 990.96582 2130.8525 8151643
-23.102224 987.74097 2123.918 7034450
-10.562193 992.13318 2133.3625 1181962
2.0753589 989.64856 2128.02 5456970
14.665382 988.22827 2124.9661 1313810
27.151075 984.33789 2116.6006 2759975
39.521984 980.05981 2107.4016 5194317
51.772545 975.56848 2097.7439 4075577
64.106499 974.08362 2094.551 4272954
75.423004 960.12842 2064.5435 5588812
87.335587 956.59778 2056.9517 4799297
99.827545 959.50079 2063.1938 5589582
111.75467 956.93353 2057.6736 4865603
123.19061 951.07947 2045.0856 5522249
134.95473 948.58069 2039.7126 6771288
147.04913 948.62347 2039.8046 8218986
158.94885 947.49927 2037.3872 8218470
171.07137 947.76807 2037.9653 5060666
182.26082 943.17297 2028.0845 7099993
195.48987 949.04816 2040.7178 6705494
206.44514 943.84326 2029.5258 6771548
218.66251 944.66388 2031.2904 9139832
231.36955 947.40405 2037.1825 10521220
242.75894 944.74457 2031.4639 5916228
255.27106 946.49921 2035.2368 1181445
266.29208 942.81616 2027.3174 2364950
278.69913 944.14667 2030.1783 853252
289.81216 941.16467 2023.7661 524288
301.07623 938.89081 2018.8766 589824
312.85773 938.34253 2017.6976 655360
323.70135 935.12524 2010.7797 720896
335.69623 935.34406 2011.2502 851968
346.63611 932.70929 2005.5847 917504
358.20926 931.89667 2003.8373 5257526
389.64621 981.15454 2109.7554 9532525
403.11801 983.51849 2114.8386 8085078
420.44385 994.85944 2139.2249 8414040
429.20813 985.87097 2119.897 7559246
447.41348 998.46277 2146.9729 7098181
458.99384 995.98224 2141.6392 7954006
471.79837 996.22034 2142.1511 7295818
481.60822 990.28809 2129.3953 8809059
493.832 989.49573 2127.6914 8217178
510.62726 997.67468 2145.2783 8875109
520.03503 991.37299 2131.728 8150874
532.89124 991.78833 2132.6211 8413789
541.76917 984.95172 2117.9204 6834245
556.45935 988.75226 2126.0928 6440257
575.03839 999.1416 2148.4326 6176572
589.05615 1001.3271 2153.1321 7295823
601.62396 1001.0073 2152.4446 6703688
609.7406 993.44873 2136.1914 7954013
621.29803 991.68964 2132.4089 8085598
632.6568 989.68994 2128.1089 8677992
649.67578 996.44977 2142.6445 8612199
661.10535 994.54193 2138.542 7756893
677.36542 999.836 2149.9258 6901327
686.43793 994.52118 2138.4976 5388603
697.11566 991.6825 2132.3936 6243658
720.36548 1006.5109 2164.2788 4072746
717.9621 985.60443 2119.324 5520446
729.11212 983.7027 2115.2346 7495518
745.04742 988.21234 2124.9316 7956581
756.34711 986.5257 2121.3049 5982020
769.51715 987.29376 2122.9565 8942194
785.263 991.28888 2131.5471 5520703
796.68878 989.79041 2128.325 9402234
807.53174 987.62567 2123.6702 7757920
824.35138 992.72479 2134.6348 8021089
831.38947 986.06848 2120.3218 8744294
845.18237 987.50262 2123.4055 8217954
854.79199 984.07855 2116.043 8679019
869.50531 986.54431 2121.345 8678254
877.20477 981.09528 2109.6279 8283495
896.68335 988.78833 2126.1702 7363164
905.90936 985.11914 2118.2805 7955302
928.8631 996.27423 2142.2671 9007990
934.54456 988.85266 2126.3086 8218988
954.99054 997.04315 2143.9204 8547439
964.38269 993.62946 2136.5801 7955301
972.68317 989.19409 2127.0427 8941936
989.73419 993.65741 2136.6401 8875882
999.0448 990.33502 2129.4961 7099470
1009.7504 988.46106 2125.4666 7099213
1018.3809 984.6272 2117.2227 7428437
1028.3635 982.1778 2111.9558 8020578
1043.386 984.54309 2117.0417 8021094
1051.798 980.68854 2108.7534 5192509
1067.3632 983.51562 2114.8325 8614001
1082.4379 985.83057 2119.8103 7561827
1094.6332 985.50012 2119.0996 9208705
1098.3051 977.59033 2102.0916 10919064
1110.8104 977.63257 2102.1824 10129292
1124.1313 978.38373 2103.7974 10655894
1128.109 971.0755 2088.0828 11708842
1139.3213 970.086 2085.9551 13550788
1141.3356 961.37012 2067.2134 13287615
1158.4209 965.39911 2075.877 13747394
1166.0417 961.53894 2067.5764 13284529
1182.7845 965.20282 2075.4548 12231581
1194.0392 964.35889 2073.6401 10192510
1226.7062 980.64948 2108.6694 9798778
1236.616 978.6026 2104.2681 8680039
1244.9933 975.39587 2097.3728 9140844
1260.3663 977.67926 2102.2827 9206380
1269.1234 974.83606 2096.1689 10390916
1271.5294 967.21692 2079.7856 7759455
1294.7782 975.44629 2097.4812 9667965
1305.269 973.99927 2094.3696 7168606
1305.3539 964.88751 2074.7769 5984079
1317.0533 964.45093 2073.8381 11970726
1326.9767 962.73401 2070.1462 11444379
1337.4945 961.47577 2067.4407 10457487
1359.1199 968.15265 2081.7979 11115162
1364.1678 963.00696 2070.7332 11706783
1376.1499 962.80444 2070.2976 12824749
1398.2286 969.60699 2084.925 12363686
1416.9514 973.98358 2094.3359 8613229
1448.5518 987.05908 2122.4519 2364183
1455.3365 983.14551 2114.0366 6968153
1467.6537 983.00403 2113.7324 3679274
1481.632 983.96826 2115.8057 4007726
1496.1166 985.24969 2118.5613 4205362
1513.5575 988.44049 2125.4224 4731962
1535.7272 994.6413 2138.7556 5060670
1548.0159 994.39331 2138.2224 4731449
1556.329 991.61633 2132.2512 4994365
1564.8562 989.01935 2126.667 5126207
1577.0297 988.74988 2126.0876 4600120
1592.3789 990.46014 2129.7651 4863294
1604.278 990.0144 2128.8066 4994880
1619.2693 991.46899 2131.9343 5192259
1625.4565 987.55206 2123.512 4665915
1643.8065 991.02802 2130.9863 4929087
1665.6289 996.52856 2142.814 4074035
1663.6947 987.84003 2124.1311 4337207
1686.8611 994.07385 2137.5356 4995137
1709.3429 999.81439 2149.8794 4929088
1721.1603 999.27838 2148.7268 4468793
1710.8055 985.97198 2120.1143 6245206
1724.5421 986.64264 2121.5564 4007988
1734.3929 985.09662 2118.2322 4074037
1764.1477 994.79663 2139.0898 3547693
1778.5944 995.78754 2141.2205 2823970
1773.621 985.96881 2120.1074 3745072
1800.3566 993.79126 2136.928 4008243
1825.4381 1000.598 2151.5642 4271157
1814.9712 987.95966 2124.3884 4337206
1847.0862 998.51495 2147.0852 5389895
1855.2301 996.05597 2141.7976 5718860
1859.1595 991.38287 2131.7493 4797501
1880.3011 995.8894 2141.4395 4995907
1901.4077 1000.3169 2150.96 5061700
1899.834 992.83307 2134.8674 4601151
1903.2573 988.04224 2124.5659 3614256
1932.2354 996.49359 2142.7388 2561568
1927.4138 987.51721 2123.437 2626851
1937.6707 986.33264 2120.8899 4074552
1956.425 989.461 2127.6167 2824485
1962.8608 986.35913 2120.9468 3614001
1975.0339 986.16125 2120.5212 3680049
1979.4165 982.10077 2111.79 4074807
2007.9148 989.98114 2128.7351 4798273
2025.3716 992.35321 2133.8357 4732738
2046.1835 996.32959 2142.386 4403517
0 0 0 0
0 0 0 0
0 0 0 0
0 0 0 0
0 0 0 0
0 0 0 0
0 0 0 0
0 0 0 0
0 0 0 0
0 0 0 0
0 0 0 0
-1780.6704 963.78448 2046.3287 5456179
-1782.5514 971.41827 2062.5369 5258800
-1764.2206 968.06677 2055.4209 6377281
-1755.0493 969.72968 2058.9517 6114111
-1740.923 968.65881 2056.678 5324594
-1728.374 968.45685 2056.249 3021842
-1708.6434 964.19916 2047.2091 4271654
-1699.7318 966.02972 2051.0957 4666413
-1685.8262 965.02759 2048.968 4798255
-1669.4133 962.56555 2043.7405 4272168
-1667.2671 968.35345 2056.0295 4075047
-1651.506 966.2608 2051.5864 4010280
-1633.6042 962.87537 2044.3983 4141611
-1613.043 957.86017 2033.7499 4075305
-1610.2681 963.41089 2045.5353 3286300
-1601.4332 965.39252 2049.7429 4272940
-1584.2269 962.31952 2043.2181 3746854
-1575.1162 964.15454 2047.1144 3616037
-1571.6932 969.52661 2058.5205 1774351
-1568.1392 974.90125 2069.9319 4273457
-1549.608 970.97607 2061.5979 4405302
-1525.2565 963.31256 2045.3265 2694942
-1518.4512 966.69666 2052.512 2826528
-1506.7007 966.96185 2053.075 3945009
-1493.7084 966.42786 2051.9412 2695197
-1474.9871 962.14801 2042.854 1970445
-1459.0673 959.63995 2037.5288 3746854
-1454.5336 964.64111 2048.1475 4009510
-1440.1221 963.12048 2044.9188 4798512
-1434.5715 967.55042 2054.3245 4008995
-1413.6292 961.58618 2041.6611 4601387
-1403.4774 962.9223 2044.4982 4995632
-1391.5425 963.04779 2044.7644 4535081
-1388.0356 969.05951 2057.5286 5324595
-1373.2642 967.24353 2053.6731 5653047
-1362.9531 968.565 2056.4788 5784633
-1348.448 966.90289 2052.9497 5586997
-1339.1799 968.99982 2057.4021 4600359
-1333.1052 973.46729 2066.8875 4600615
-1317.7614 971.18634 2062.0444 5521719
-1307.4786 972.62762 2065.1045 5127215
-1288.1449 967.29938 2053.7915 5061423
-1271.7162 964.07184 2046.9387 5456180
-1256.5201 961.72559 2041.9572 5653819
-1244.2407 961.58783 2041.6646 1839633
-1239.0476 966.97742 2053.1079 262146
-1219.9733 961.53345 2041.5492 327686
-1198.8667 954.36273 2026.3241 393224
-1175.8033 945.47333 2007.4501 524297
-1154.9915 938.2312 1992.0734 524295
-1144.7469 939.51233 1994.7935 655362
-1121.3308 929.89722 1974.3784 786432
-1107.043 927.72894 1969.7748 4271921
-1100.7806 932.31189 1979.5052 8219237
-1086.6816 930.28461 1975.201 8088164
-1075.0864 930.38 1975.4036 8285542
-1062.1918 929.34064 1973.1967 9403254
-1058.889 936.76373 1988.9575 9008497
-1050.5636 939.86047 1995.5327 9206130
-1038.3713 939.52905 1994.829 9074546
-1033.553 945.93884 2008.4382 4271404
-1014.7242 939.52576 1994.8219 4995382
-1008.9724 945.21204 2006.8953 5718850
-999.76233 947.75574 2012.2961 6245448
-993.02917 952.73718 2022.8728 5851203
-983.9552 955.56714 2028.8815 4667185
-977.27673 960.8222 2040.0392 5917252
-968.21954 963.84106 2046.4489 6245960
-957.56335 965.32446 2049.5984 8548714
-948.13885 968.1037 2055.4993 8877166
-940.49438 972.79645 2065.4629 9271154
-930.79761 975.46204 2071.1226 4402727
-926.76678 984.21606 2089.7095 4665898
-917.21143 987.2608 2096.1741 5719098
-901.56 983.73743 2088.6931 5258288
-893.78259 988.82727 2099.5 5653559
-877.78467 984.83783 2091.0295 5456181
-860.85358 979.67212 2080.0615 5193011
-849.39923 980.6795 2082.2004 4863790
-835.54785 978.9082 2078.4397 4074276
-825.36511 981.44647 2083.8289 4469291
-817.07556 986.34717 2094.2341 4666670
-805.07837 986.85425 2095.3108 3811107
-795.09198 989.88068 2101.7366 3087640
-782.24719 989.38806 2100.6907 4403245
-767.66815 986.65063 2094.8784 4338478
-755.22809 986.61743 2094.8081 4141612
-741.49042 984.85968 2091.0759 3812648
-724.1626 978.19269 2076.9204 3418405
-707.8783 972.729 2065.3198 3155749
-696.27429 973.61774 2067.2068 1774353
-681.58783 970.15082 2059.8457 3681836
-667.74469 967.77948 2054.811 2958114
-661.81262 976.99902 2074.386 1642255
-651.28497 979.65479 2080.0249 1774099
-636.38208 975.70477 2071.6382 1708564
-623.2182 974.31836 2068.6943 1314577
-610.4549 973.51495 2066.9885 262145
-596.08057 970.05682 2059.6462 1446165
-583.45795 969.3645 2058.1763 262146
-570.96063 968.85522 2057.095 590599
-557.70258 967.00464 2053.1658 919823
-546.69916 969.06812 2057.5469 262146
-531.88812 964.32239 2047.4707 919310
-519.55493 963.95227 2046.6849 1510934
-504.6882 958.75177 2035.6431 327684
-491.43726 956.44098 2030.7367 393221
-478.24814 954.13757 2025.8461 393220
-464.82211 951.23083 2019.6744 853259
-453.28882 952.146 2021.6176 1115919
-440.08859 949.51447 2016.0303 524292
-425.92163 944.5921 2005.5789 589830
-412.21393 940.43488 1996.7521 655365
-400.4451 940.58606 1997.0732 984328
-389.01028 941.55481 1999.13 655618
-377.95312 943.52734 2003.3181 720896
-365.90219 943.06628 2002.3392 851968
-354.25714 943.65558 2003.5905 851968
-341.69681 941.76324 1999.5726 917504
-331.30283 945.92004 2008.3983 1246469
-319.3255 945.69751 2007.926 8020832
-305.22888 938.9386 1993.5752 4072736
-293.62875 939.62396 1995.0305 1836804
-283.50684 945.29572 2007.073 5585461
-271.66245 945.46973 2007.4423 983040
-259.50089 944.50507 2005.3942 4270631
-250.21167 954.40411 2026.412 8151386
-238.8569 957.02521 2031.9772 7099211
-230.74127 973.59186 2067.1519 6309441
-221.28638 986.04852 2093.6001 6572613
-207.34589 978.80994 2078.231 4533032
-196.38309 985.60156 2092.6511 5454647
-185.11995 991.69983 2105.5991 5191475
-172.49495 990.85675 2103.8091 4006944
-159.87134 989.89087 2101.7583 5323061
-146.56436 984.1731 2089.6182 4730924
-134.10101 983.58759 2088.375 4993839
-121.96156 985.50031 2092.436 4665131
-109.65446 986.33783 2094.2144 5387827
-97.327866 987.19159 2096.0271 5782585
-85.488991 993.96558 2110.4099 6374721
-72.73909 990.65405 2103.3787 4335652
-60.551361 995.21234 2113.0569 3085332
-48.092796 996.53552 2115.8665 918275
-35.692123 1000.4149 2124.103 2823187
-23.003214 996.04053 2114.8154 7362903
-10.376471 987.10834 2095.8503 2102034
2.0558317 992.82935 2107.9973 5522762
14.547444 992.77277 2107.8772 2234142
26.923857 988.53876 2098.8875 2826283
38.935917 977.83038 2076.1511 2826798
50.855804 970.50568 2060.5991 1313559
63.478142 976.82697 2074.0208 2891563
75.126457 968.54028 2056.4263 4734535
87.149231 966.72058 2052.5625 3286316
99.020241 963.86932 2046.5087 5259591
110.97366 962.35498 2043.2935 1444110
122.45125 957.41815 2032.8115 4206385
134.17561 955.12231 2027.937 8482928
145.58394 951.13934 2019.4802 7692893
157.63774 951.65808 2020.5817 4402222
169.58818 951.52362 2020.2961 5257788
180.89983 948.05908 2012.9402 8350062
192.74498 947.64642 2012.0638 5455170
204.39301 946.36896 2009.3516 8481645
217.95103 953.58881 2024.681 10060418
228.43985 947.32751 2011.3868 9336950
242.90147 957.34521 2032.6566 5126710
252.95483 949.86279 2016.7698 6508621
264.48898 948.36523 2013.5902 2299671
276.98892 950.31042 2017.7202 7036255
289.35895 951.66736 2020.6013 524288
300.21661 948.1402 2013.1123 655360
311.72253 946.85156 2010.3763 655360
323.35724 946.03473 2008.642 655360
335.24182 945.98096 2008.5277 720896
345.71503 942.08484 2000.2555 917504
358.34177 944.12085 2004.5785 4862252
386.75577 986.28632 2094.105 6506563
398.03961 983.50342 2088.1963 7492941
413.7207 991.42584 2105.0173 8084823
426.37628 991.84631 2105.9102 7427662
439.6571 993.65613 2109.7527 8019545
456.2562 1002.6579 2128.8655 7954267
470.48392 1006.1042 2136.1829 7954523
477.89996 995.1853 2112.9995 8415072
489.98807 994.30457 2111.1296 8020058
504.25287 997.77484 2118.4978 6703685
516.16815 996.54053 2115.877 9006184
527.92505 995.06604 2112.7463 7427410
537.23431 989.15332 2100.1924 6506051
553.16412 995.42212 2113.5024 7230030
571.53003 1005.7001 2135.3247 6967115
584.07782 1005.5165 2134.9351 6178113
590.21307 994.53552 2111.6199 6112322
603.48401 995.78455 2114.272 8678249
612.34637 989.85638 2101.6851 8415077
627.21527 993.68066 2109.8049 8020063
642.86957 998.57526 2120.1973 7625049
653.34436 995.39124 2113.4368 7493721
667.99323 998.56665 2120.179 7361879
680.29102 998.17517 2119.3477 6835794
690.13177 994.258 2111.0308 7098965
707.18634 1000.688 2124.6831 6836050
715.67615 994.9859 2112.5762 6243912
725.19476 990.88538 2103.8699 7034199
737.79755 991.06647 2104.2544 7890021
754.99493 997.31073 2117.5125 7034456
764.94006 993.92773 2110.3293 6376523
775.82861 991.85956 2105.9382 5653057
793.2218 998.04108 2119.063 8349284
805.69043 997.9303 2118.8279 8743528
813.00793 991.54065 2105.2612 8940650
825.85217 991.98273 2106.1997 8348512
837.36871 990.84064 2103.7749 8808808
850.00623 991.03888 2104.1958 8414564
867.78876 997.14337 2117.157 8020065
875.82141 992.0304 2106.301 9402232
887.70691 991.36383 2104.8857 7626591
899.80804 990.95325 2104.0139 8021350
911.12372 989.70056 2101.3542 9074039
926.66388 993.00867 2108.3782 10126213
933.89185 987.43988 2096.5544 8481131
951.16907 992.50348 2107.3054 8809840
964.13379 992.99414 2108.3472 9138548
979.47119 995.88464 2114.4844 9138547
985.90594 989.76465 2101.4902 9532791
993.57251 985.01862 2091.4133 8480617
1001.9582 981.09351 2083.0796 8349032
1015.5629 982.31213 2085.667 5783362
1021.9574 976.61121 2073.5627 7363676
1030.5367 973.10895 2066.1265 13747646
1056.6812 986.08038 2093.6677 5389886
1071.369 988.18353 2098.1333 11049112
1085.1254 989.38928 2100.6934 10654609
1097.4022 989.23407 2100.3638 11247004
1109.6708 989.07483 2100.0256 9470593
1119.937 987.15405 2095.9475 12299948
1126.4165 981.97449 2084.95 12629428
1134.3728 978.18073 2076.895 11576227
1132.9751 966.48901 2052.0708 14009025
1157.2487 976.71191 2073.7764 11901083
1165.5267 973.36163 2066.6631 10519166
1171.6637 968.31165 2055.9409 9665657
1188.1693 971.8465 2063.446 12101023
1215.6885 984.22595 2089.7305 10193283
1231.2307 986.7569 2095.1042 10127489
1237.8634 982.16815 2085.3613 13416360
1241.1984 975.07959 2070.3105 13087141
1264.1368 983.37933 2087.9329 8876905
1273.1261 980.77216 2082.3972 11245964
1284.6516 980.15021 2081.0767 8746864
1297.4005 980.4646 2081.7441 9536382
1302.4562 975.01385 2070.1711 8484468
1313.9462 974.43671 2068.9456 13222333
1316.579 967.36237 2053.9253 12101798
1329.9191 968.21271 2055.7307 9667715
1346.5443 971.41772 2062.5356 13418687
1358.2687 971.06116 2061.7786 12298408
1376.2405 975.13763 2070.4338 11771806
1383.6615 971.73236 2063.2039 11837858
1418.02 987.13904 2095.9155 6902872
1419.1117 979.3208 2079.3157 4204848
1445.4979 988.94257 2099.7449 6310736
1459.743 990.16467 2102.3396 7889768
1476.2864 992.91168 2108.1721 5455428
1499.2024 999.86285 2122.9309 4008496
1494.8451 988.66016 2099.1453 8021612
1511.3872 991.35083 2104.8582 6639704
1521.4503 989.78253 2101.5283 4863292
1540.3129 993.91772 2110.3081 5125694
1546.5317 989.89337 2101.7637 5323074
1553.7085 986.5415 2094.647 4073006
1584.2749 997.97681 2118.9265 3744555
1594.5297 996.53778 2115.8711 5060415
1596.9626 990.27106 2102.5654 4929601
1599.5813 984.21552 2089.7083 5324102
1617.4967 987.59277 2096.8789 5455688
1630.7128 988.07117 2097.8945 5126722
1649.3359 991.79364 2105.7983 5192517
1658.6304 989.89301 2101.7627 4073780
1673.4774 991.30957 2104.7705 4995139
1691.7109 994.69647 2111.9617 4534329
1705.0582 995.18176 2112.9919 4205878
1717.8586 995.34308 2113.3345 4732223
1719.3997 989.02533 2099.9207 4601151
1725.5366 985.42322 2092.2725 3284265
1750.6521 992.63342 2107.5813 3810865
1766.5607 994.55804 2111.6677 3942451
1780.8638 995.55811 2113.791 3745072
1801.8887 1000.2756 2123.8074 3745585
1813.6445 999.81793 2122.8357 3153447
1818.9696 995.84589 2114.4021 4666688
1831.3575 995.76825 2114.2373 1838615
1849.1593 998.61554 2120.2827 4996165
1866.3125 1001.0766 2125.5081 7561833
1859.3202 990.63977 2103.3484 4601403
1893.4449 1002.1033 2127.688 4337979
1889.5631 993.43323 2109.2795 4601407
1898.8663 991.76355 2105.7344 4601151
1933.6353 1003.3294 2130.2913 4008758
1938.9144 999.54272 2122.2512 3087657
1948.2168 997.86548 2118.6902 3877173
1954.4103 994.62756 2111.8154 3745587
1964.63 993.46698 2109.3511 3745587
1967.7565 988.75665 2099.3501 4403517
1985.6348 991.47156 2105.1145 3152936
1985.8513 985.38861 2092.199 4140346
2005.274 988.85229 2099.5532 4271675
0 0 0 0
0 0 0 0
0 0 0 0
0 0 0 0
0 0 0 0
0 0 0 0
0 0 0 0
0 0 0 0
0 0 0 0
0 0 0 0
0 0 0 0
-1759.2177 964.15417 2021.6754 5061421
-1757.7714 969.96729 2033.8646 5521715
-1741.7041 967.73694 2029.1879 5785146
-1731.9673 969.01733 2031.8728 5851452
-1716.5436 967.11169 2027.877 6180417
-1699.7031 964.37537 2022.1393 3022099
-1692.9578 967.36859 2028.4155 3811613
-1690.3427 972.78143 2039.7655 4732719
-1675.3312 971.08698 2036.2125 3745825
-1661.2289 969.89862 2033.7207 2824980
-1647.8046 969.09167 2032.0287 2759446
-1624.8397 962.62073 2018.4602 2956568
-1608.6118 960.07471 2013.1215 3811878
-1603.35 964.08423 2021.5288 3219997
-1589.9469 963.22217 2019.7212 3154717
-1585.9773 968.10529 2029.9602 3286303
-1577.2838 970.15747 2034.2635 3812647
-1564.8473 969.92126 2033.7682 4142127
-1565.6512 977.95184 2050.6069 3352610
-1550.3276 975.95544 2046.4209 4076333
-1531.2838 971.5672 2037.2195 3681574
-1525.1549 975.36865 2045.1904 3747370
-1505.1926 970.31323 2034.5901 3878956
-1505.4454 978.31305 2051.3645 3549991
-1482.7737 971.42444 2036.9199 2497302
-1461.7126 965.48633 2024.4689 3812647
-1442.2716 960.52905 2014.0742 4010024
-1440.715 967.49902 2028.6892 4141096
-1425.0917 965.06067 2023.5763 4535340
-1415.3475 966.59595 2026.7954 4271910
-1409.3398 970.73102 2035.4661 4666669
-1396.1531 969.95007 2033.8285 5061425
-1369.4073 959.65356 2012.2385 5061424
-1362.6395 963.29938 2019.8832 4206114
-1348.2537 961.5766 2016.2708 5521717
-1350.1183 971.51648 2037.1129 5982012
-1337.0502 970.79346 2035.597 4534566
-1325.5543 971.20929 2036.469 4732459
-1320.1356 976.12622 2046.7789 5127217
-1308.0565 976.16388 2046.858 5127474
-1295.448 975.80359 2046.1025 5456440
-1283.8101 976.17444 2046.8801 4864306
-1269.0995 974.19379 2042.7269 4930874
-1248.9403 967.95203 2029.639 262145
-1229.8062 962.39117 2017.9788 393224
-1207.5114 954.22339 2000.8522 131084
-1188.1771 948.25641 1988.3405 196621
-1178.1343 949.65936 1991.2822 262156
-1165.2318 948.76227 1989.4011 262155
-1151.8599 947.46075 1986.672 327691
-1136.262 944.28247 1980.0077 458759
-1118.2291 938.99323 1968.917 655361
-1098.6027 932.24017 1954.757 327680
-1070.0248 917.66626 1924.1978 8285033
-1070.9497 928.35278 1946.6058 7035477
-1067.4331 935.38007 1961.3409 7035992
-1052.8549 932.76227 1955.8517 9009011
-1044.7327 935.86945 1962.3669 8087653
-1036.2175 938.69061 1968.2825 8153701
-1021.8823 936.24365 1963.1516 9009010
-1018.6238 944.00568 1979.4274 7627355
-998.79712 936.41522 1963.5114 9337716
-991.92169 940.93127 1972.9807 7496284
-986.50684 946.95691 1985.6157 6772816
-969.81213 942.16992 1975.578 7496539
-958.9613 943.01245 1977.3448 6903631
-957.83942 953.56152 1999.4644 8745318
-939.7326 947.25391 1986.2383 9468527
-927.35193 946.63129 1984.9329 8151384
-925.21588 956.58478 2005.8037 9862261
-916.49316 959.89874 2012.7526 9270126
-918.35815 974.53546 2043.4435 1904910
-909.84247 978.40057 2051.5479 4469035
-897.87012 978.60278 2051.9719 4205605
-889.39276 982.67206 2060.5046 5258549
-882.04584 988.12115 2071.9304 4929839
-866.45477 984.35809 2064.0398 5324597
-854.08624 984.20068 2063.7097 5916734
-842.18585 984.586 2064.5176 4995632
-830.75397 985.53845 2066.5149 4666411
-816.80164 983.48474 2062.2085 4929585
-811.65906 992.13715 2080.3513 4469548
-797.17682 989.46399 2074.7461 4403755
-782.02753 985.86621 2067.2021 3877414
-778.11298 996.54248 2089.5886 3745828
-759.52051 988.46173 2072.6445 4470065
-745.3501 985.9649 2067.4092 4733493
-720.18268 968.59454 2030.9862 3943721
-718.52386 982.78827 2060.7483 3812394
-705.87311 982.17847 2059.4695 3615016
-696.60425 986.33557 2068.1863 2562586
-679.24518 978.98132 2052.7656 2891036
-666.48035 978.10132 2050.9204 4338739
-658.20105 983.89362 2063.0659 2299926
-647.24023 985.82086 2067.1069 1642253
-635.06146 985.9317 2067.3394 2629150
-619.53516 980.74738 2056.4688 1708818
-610.26605 985.45941 2066.3491 2629409
-594.0459 978.90997 2052.616 1643283
-579.90295 975.58112 2045.636 131074
-568.28979 976.45685 2047.4723 262403
-555.65155 975.57111 2045.6149 327941
-544.50067 977.31555 2049.2727 196611
-530.27563 973.49579 2041.2634 1050895
-518.40198 973.91547 2042.1433 262404
-502.59155 966.78223 2027.1862 393221
-488.7186 963.11792 2019.5026 393221
-476.09198 961.78735 2016.7128 393221
-462.66461 958.72906 2010.2999 327686
-449.48758 956.04144 2004.6644 393222
-438.52945 958.0556 2008.8878 393223
-424.19644 952.60339 1997.4554 393220
-411.32693 950.21906 1992.4557 327681
-399.85315 951.01324 1994.121 3154983
-390.573 957.23206 2007.161 1313291
-378.18353 955.98181 2004.5393 393216
-365.85876 954.81915 2002.1016 589824
-354.17368 955.3042 2003.1185 655360
-341.93335 954.27319 2000.9568 786432
-329.02353 951.2326 1994.5811 983297
-315.92206 947.39062 1986.525 4534319
-303.37885 944.99017 1981.4917 6441800
-292.45016 947.62799 1987.0228 2298384
-280.41626 946.75562 1985.1936 4204324
-269.97076 951.40454 1994.9417 6177860
-258.06689 951.10443 1994.3124 2034183
-246.64047 952.61969 1997.4896 6769471
-235.26237 954.48376 2001.3982 7163974
-227.45486 971.80109 2037.7098 2692368
-216.7084 977.79956 2050.2876 4466977
-205.56439 982.61035 2060.375 4993838
-193.17612 981.70544 2058.4778 4862253
-182.10239 987.80939 2071.2766 5717820
-168.54073 980.32446 2055.582 4994095
-157.23129 985.79401 2067.0508 5388597
-144.17596 980.31677 2055.5659 5257011
-131.9198 979.76392 2054.4065 5059632
-120.85557 988.85107 2073.4609 4729897
-109.29223 995.44934 2087.2964 4729896
-96.915039 995.37305 2087.1365 5453362
-84.008499 989.04242 2073.8621 6375233
-72.029022 993.32678 2082.8457 6177854
-59.547142 991.02185 2078.0127 6441542
-47.479248 996.20123 2088.873 5717823
