# .PCD v0.7 - Point Cloud Data file format
VERSION 0.7
FIELDS x y z rgb
SIZE 4 4 4 4
TYPE F F F U
COUNT 1 1 1 1
WIDTH 1280
HEIGHT 1
VIEWPOINT 0 0 0 1 0 0 0
POINTS 1280
DATA ascii
-2443.8591 739.17816 4539.8716 393216
-2386.6731 729.91711 4482.9922 655360
-2350.0835 726.81738 4463.9546 655360
-2319.458 725.5127 4455.9414 5124901
-2336.4626 739.24792 4540.3003 7099433
-2307.6565 738.63995 4536.5664 7690283
-2286.3459 740.44513 4547.6533 7953713
-2253.9893 738.67346 4536.772 7691057
-2234.478 741.11938 4551.7944 8546371
-2200.9402 738.91608 4538.2622 6637868
-2209.0645 750.81836 4611.3633 6177833
-2164.7607 744.97632 4575.4829 6243887
-2140.6768 746.03271 4581.9712 6967615
-2087.7139 736.92261 4526.0186 6770497
-2091.9226 748.01855 4594.1675 5784116
-2047.7628 741.88354 4556.4878 6310462
-1983.7277 728.28778 4472.9854 6441795
-1988.5338 739.93988 4544.5498 6376004
-1965.3347 741.34796 4553.1982 6244162
-1930.8502 738.479 4535.5776 5915198
-1902.3776 737.86084 4531.7808 6244163
-1857.9963 730.96619 4489.4355 5717563
-1826.4821 729.0069 4477.4019 3350816
-1768.1305 716.1203 4398.2554 918017
-1791.5674 736.46924 4523.2344 9534839
-1741.3339 726.69238 4463.187 10324863
-1700.7396 720.69867 4426.3745 9666677
-1681.16 723.56158 4443.958 10061179
-1668.6298 729.59808 4481.0327 9600629
-1642.0929 729.60632 4481.0835 6376260
-1599.9609 722.57184 4437.8794 6243906
-1557.374 715.09338 4391.9482 3809564
-1438.3337 671.65924 4125.1851 3809821
-1341.8624 637.44434 3915.0447 7691853
-1300.744 628.7832 3861.8499 9336927
-1266.4858 623.1875 3827.4822 8547921
-1264.0096 633.31146 3889.6616 8942426
-1235.7318 630.64398 3873.2786 8350799
-1220.9585 634.89795 3899.4053 7232578
-1206.95 639.72125 3929.0291 8548454
-1185.8557 640.90485 3936.2986 4732721
-1166.9641 643.35034 3951.3181 4931132
-1144.355 643.8045 3954.1074 7363678
-1195.1232 686.422 4215.855 5192505
-1209.1406 709.30096 4356.3726 5982023
-1194.2764 715.86603 4396.6938 4402991
-1186.0709 726.80444 4463.875 4863282
-1186.3384 743.55237 4566.7373 6178629
-1125.8745 722.12952 4435.1626 5191733
-1083.8068 711.76379 4371.4985 5783869
-1067.8784 718.47705 4412.73 5191732
-1034.8534 713.7359 4383.6108 5191732
-1005.0237 711.01111 4366.876 5389626
-949.19354 689.26196 4233.2974 5784644
-914.10486 681.80237 4187.4819 1576207
-857.31866 657.29132 4036.9404 851968
-818.89331 645.85406 3966.6953 786432
-798.45575 648.3468 3982.0054 3745320
-764.57629 639.74414 3929.1697 8285034
-749.72638 647.02386 3973.8801 7956067
-729.20319 649.72076 3990.4438 7561053
-740.87781 682.24835 4190.2212 6837585
-738.20984 703.36639 4319.9238 7626588
-726.01587 716.5993 4401.1973 6244934
-710.57532 727.49457 4468.1138 4271917
-673.26178 715.97266 4397.3486 3548709
-632.62787 699.84973 4298.3252 852483
-611.12512 704.42596 4326.4312 2430487
-587.20569 706.49524 4339.1406 2759194
-566.54633 712.85614 4378.2075 3350815
-538.7887 710.46753 4363.5371 3810853
-510.90042 707.65704 4346.2759 5849922
-485.94171 708.82141 4353.4272 4337452
-459.76306 708.23706 4349.8384 6508621
-433.39746 707.2782 4343.9492 6640204
-404.16403 701.22266 4306.7573 6047809
-381.19049 705.94373 4335.7529 6968912
-353.74533 702.46741 4314.4023 6442312
-329.37921 705.04022 4330.2041 7033938
-306.78308 712.15662 4373.9111 6376521
-281.37054 713.44513 4381.8252 6178885
-256.879 717.56848 4407.1499 6046530
-230.70258 717.38586 4406.0283 5520442
-201.64568 707.05652 4342.5874 6243909
-173.23883 696.31763 4276.6318 5586752
-146.24597 688.5556 4228.959 4601142
-119.53034 679.15833 4171.2427 1641742
-94.523048 677.0979 4158.5884 1248012
-69.523331 673.65778 4137.4595 5785671
-45.739807 684.67401 4205.1191 6837844
-21.696819 713.52997 4382.3462 5850181
4.2894945 716.13373 4398.3379 5258042
30.600126 721.91718 4433.8584 5454910
56.411049 716.01416 4397.6035 6442318
83.143509 721.84247 4433.3999 6705235
109.32051 721.2074 4429.499 6310477
134.3577 714.75458 4389.8677 5652033
161.73099 720.80701 4427.04 4664881
187.82919 720.28021 4423.8047 3941929
215.2236 724.2442 4448.1509 4928308
240.56639 721.19263 4429.4087 5455163
267.69043 723.55621 4443.9253 5916225
299.41714 736.82281 4525.4058 6376777
327.44312 739.54999 4542.1553 6244420
351.5751 733.73602 4506.4473 6375492
369.40048 716.51031 4400.6509 6441028
397.13818 719.51514 4419.106 6441543
434.48413 738.479 4535.5776 5717566
450.73083 721.46069 4431.0552 5454650
493.37003 746.23566 4583.2173 5652290
509.01013 729.71912 4481.7764 4205101
530.25549 722.47797 4437.3027 5126202
562.14862 729.74323 4481.9243 6902357
584.82812 724.93201 4452.375 6442320
599.7254 711.30615 4368.688 6771028
629.77563 716.03644 4397.7402 9139834
655.5119 715.68079 4395.5562 7034458
684.3125 718.57019 4413.3022 4666165
726.82593 735.11609 4514.9233 4995130
752.2608 733.82684 4507.0054 4732217
771.58795 726.87244 4464.2925 5389892
797.87634 726.71942 4463.353 5718857
821.40796 724.14587 4447.5469 5126721
868.70905 742.03589 4557.4233 4731449
880.92444 729.78113 4482.1572 4731705
928.6189 746.77521 4586.5312 4797755
954.52838 745.78192 4580.4307 4206134
981.73315 745.82764 4580.7114 3812660
1007.186 744.57581 4573.0229 3747126
1022.0734 735.78351 4519.0225 2695978
1052.6852 738.47101 4535.5288 854034
1081.1812 739.57745 4542.3242 131337
1104.2391 737.00061 4526.4976 10
1133.163 738.36823 4534.8975 11
1142.8761 727.44482 4467.8081 10
1182.6165 735.69574 4518.4834 7
1189.6052 723.6579 4444.5498 592400
1208.3329 719.12781 4416.7271 2238514
1236.9274 720.5376 4425.3853 1645862
1277.0441 728.4613 4474.0513 923169
1304.8248 729.16913 4478.3984 4673370
1321.9507 724.01318 4446.7314 2239035
1353.9385 727.03925 4465.3174 3818324
1398.3052 736.46924 4523.2344 3160908
1413.4194 730.42743 4486.1265 5726838
1431.6246 726.17645 4460.0181 1317425
1484.1053 739.15039 4539.7012 7964310
1473.7994 720.94849 4427.9092 2174011
1505.5375 723.59058 4444.1362 5398383
1549.2894 731.81671 4494.6592 4411487
1586.7054 736.82251 4525.4038 4345690
1604.5659 732.73181 4500.2798 6187121
1623.7271 729.35907 4479.5649 1910056
1626.9169 719.03613 4416.1636 3093563
1653.2765 719.11816 4416.6675 395534
1682.1761 720.28522 4423.8354 2303794
1704.149 718.49597 4412.8462 1975344
1731.4662 718.97992 4415.8188 1844019
1774.7545 725.98291 4458.8291 3225672
1778.5392 716.85785 4402.7852 1383464
1840.3995 731.06628 4490.0503 3620430
1854.8149 726.29156 4460.7251 1449256
1873.9045 723.45569 4443.3076 2501691
1919.2499 730.69446 4487.7666 2567483
1897.9102 712.69403 4377.2119 461587
1929.9354 714.94824 4391.0566 3751759
1975.0939 721.94293 4434.0166 2765121
2008.6873 724.58209 4450.2261 3620945
2052.095 730.64734 4487.4771 2371393
2067.3662 726.66754 4463.0342 3752792
2113.147 733.37677 4504.2407 3358546
2152.26 737.63336 4530.3838 3293009
2164.5918 732.7196 4500.2046 4543332
2196.7634 734.55951 4511.5049 5398897
2225.675 735.2782 4515.9189 4806503
2223.7109 725.90088 4458.3257 4148318
2277.2419 734.64661 4512.04 1647409
2302.6177 734.21185 4509.3696 2173758
2338.7322 737.17188 4527.5498 3095117
2363.0129 736.37714 4522.6685 3620436
2378.4272 732.86816 4501.1172 4212315
2398.5447 730.87006 4488.8452 3094092
2468.0999 743.815 4568.3501 3949658
2474.4719 737.64398 4530.4492 2765129
2455.9458 724.263 4448.2661 3291729
2497.5049 728.6972 4475.5 264736
2484.9583 717.41772 4406.2236 5726070
2527.9685 722.24548 4435.875 2041401
2563.1968 724.7735 4451.4014 3094097
2578.2207 721.59515 4431.8809 1185836
2595.1438 719.00708 4415.9854 3949665
2655.9062 728.49561 4474.2617 1580859
2695.02 731.91699 4495.2754 1843514
2719.0793 731.22302 4491.0132 395806
2739.7424 729.638 4481.2783 274
2753.969 726.38568 4461.3032 2896454
2796.9763 730.71429 4487.8887 593181
2823.384 730.66559 4487.5894 330009
2833.8853 726.53973 4462.249 1581362
2849.2939 723.73657 4445.0327 922403
2917.6248 734.3042 4509.937 1054242
2953.3384 736.54541 4523.7021 1646642
3003.5066 742.31885 4559.1611 2962502
3047.563 746.49219 4584.793 856865
3071.4241 745.68872 4579.8584 1713463
3188.6099 767.35852 4712.9492 1055536
3197.9653 762.92731 4685.7339 2108737
3197.6514 756.28534 4644.9404 3753311
3200.1467 750.41559 4608.8896 2437447
3218.8657 748.41742 4596.6172 2173759
3164.2649 729.54822 4480.7266 2107711
3197.302 731.03046 4489.8306 1910331
3304.2434 749.24646 4601.709 1844023
3301.7798 742.55927 4560.6377 395547
3338.7266 744.77203 4574.228 593438
3360.2129 743.52814 4566.5884 1843251
3378.8445 741.67743 4555.2217 461856
3384.2566 736.97742 4526.355 197649
3313.0488 715.79718 4396.271 14
3329.4929 713.7373 4383.6196 131603
3366.5259 716.08875 4398.0615 267
3387.259 714.96356 4391.1509 11
3433.908 719.284 4417.686 987677
3503.1294 728.23145 4472.6392 1712682
3535.2561 729.39117 4479.7622 1844021
3523.4048 721.52765 4431.4663 2962763
3615.5371 734.91693 4513.7002 3621466
3699.4268 746.44635 4584.5112 1778749
3688.9487 738.90558 4538.1978 1910081
3745.5745 744.81781 4574.5093 5660281
3707.2961 731.90857 4495.2236 2304836
3637.8093 713.06641 4379.499 2831177
3645.6003 709.53143 4357.7881 2436419
3823.8748 738.99335 4538.7368 791336
3714.3149 712.80615 4377.9009 1186349
3744.1934 713.55591 4382.5054 2502468
3618.2075 684.7959 4205.8677 3489363
3774.3977 709.46967 4357.4087 1580851
3817.8955 712.76935 4377.6748 461849
3783.1978 701.52472 4308.6123 3885153
3867.4756 712.34467 4375.0664 2635858
3787.9932 693.05865 4256.6157 5530750
3928.7571 714.05792 4385.5889 4938867
3911.0088 706.16064 4337.0854 8228260
3960.4236 710.41418 4363.2095 3359836
3956.9219 705.18195 4331.0742 3754852
3970.4402 703.03082 4317.8628 3820900
4055.4033 713.47675 4382.019 5136761
4130.8618 722.12817 4435.1543 3162202
4128.7622 717.19775 4404.873 2832723
4187.7246 722.86969 4439.7085 4871536
4189.9341 718.73535 4414.3164 4016228
4185.3906 713.50122 4382.1694 2304838
0 0 0 0
0 0 0 0
0 0 0 0
0 0 0 0
0 0 0 0
-3950.0645 735.92706 4361.1685 655618
-4133.3164 775.14001 4593.5479 1114112
-4089.3164 771.97278 4574.7783 1311236
-4013.0537 762.63208 4519.4248 4140078
-3998.8291 765.03473 4533.6631 1771275
-3917.3281 754.51178 4471.3032 1376256
-3884.0957 753.20581 4463.564 1376256
-3882.0466 757.97058 4491.8003 3610905
-3881.0947 763.01672 4521.7041 5453105
-3877.3491 767.58002 4548.7466 10782596
-3850.0896 767.51965 4548.3892 10519677
-3812.8157 765.44806 4536.1123 8743779
-3793.1187 766.90076 4544.7212 8875879
-3765.5266 766.76654 4543.9258 8744553
-3722.0134 763.36499 4523.7681 8678759
-3696.2803 763.58722 4525.085 9007467
-3622.1296 753.73737 4466.7139 8678503
-3594.8708 753.57214 4465.7349 9139825
-3566.4785 753.1651 4463.3228 8942958
-3505.7358 745.86926 4420.0869 8680301
-3433.3286 735.96313 4361.3823 4734779
-3373.0181 728.51941 4317.27 262144
-3318.1995 722.15717 4279.5669 4734275
-3374.3562 740.03516 4385.5132 4142140
-3341.1182 738.43311 4376.0195 262403
-3316.8579 738.80566 4378.2275 4997194
-3277.3286 735.75635 4360.1567 5655377
-3237.1228 732.50543 4340.8916 7761010
-3222.1106 734.94904 4355.3726 6116185
-3166.2019 728.02838 4314.3604 6576480
-3179.4285 737.02136 4367.6533 6115669
-3156.4612 737.70282 4371.6919 7496803
-3148.9812 742.04523 4397.4253 9206391
-3156.2549 749.96582 4444.3633 7956063
-3101.2852 743.10535 4403.7075 9007724
-3058.967 739.18561 4380.479 9073260
-3032.8523 739.14789 4380.2554 8941674
-2999.2583 737.27081 4369.1318 8415587
-2975.4321 737.7832 4372.168 8744552
-2967.5964 742.30438 4398.9609 8941930
-2938.5576 741.55499 4394.52 8481378
-2965.0972 754.94293 4473.8584 7428943
-2978.2456 765.13226 4534.2412 6902599
-2930.3411 759.67938 4501.9268 8152409
-2924.1895 765.05005 4533.7539 7429455
-2872.3926 758.46741 4494.7446 8021849
-2845.2917 758.34375 4494.0117 7561298
-2802.7136 754.05371 4468.5884 7101006
-2735.8208 743.07764 4403.5435 6048319
-2668.0378 731.646 4335.7988 6312259
-2669.6475 739.20648 4380.6025 6048321
-2638.7712 737.83191 4372.457 6246472
-2629.5085 742.53351 4400.3188 6114630
-2619.3391 747.07062 4427.2061 8680815
-2595.1387 747.65717 4430.6821 6706253
-2582.9575 751.75397 4454.96 6508617
-2602.759 765.33972 4535.4707 6047810
-2554.7563 759.06329 4498.2759 6113087
-2496.9805 749.72009 4442.9072 6376002
-2521.011 765.00195 4533.4688 6309953
-2475.8027 759.3761 4500.1294 6177853
-2415.6895 749.00623 4438.6768 5454387
-2437.8789 764.20776 4528.7627 7099212
-2384.2898 755.72888 4478.5156 6441539
-2338.1199 749.43707 4441.23 6639426
-2314.3337 750.25836 4446.0972 6178358
-2298.3213 753.64771 4466.1826 6507057
-2274.7852 754.62018 4471.9453 6638131
-2230.9353 748.79742 4437.4395 6374705
-2208.4763 750.10101 4445.1646 6638136
-2169.4441 745.73914 4419.3159 6967616
-2172.7886 756.01556 4480.2148 7099204
-2145.8054 755.86322 4479.312 6966850
-2113.5557 753.82861 4467.2549 5980726
-2107.4856 761.19824 4510.9277 5651506
-2037.6012 745.41217 4417.3779 5520179
-2010.9285 745.22888 4416.292 5915192
-2017.8593 757.6582 4489.9492 5520178
-1954.9395 743.84192 4408.0728 6638919
-1946.7305 750.75049 4449.0137 5125937
-1909.6146 746.54785 4424.1084 6243906
-1887.4064 748.13727 4433.5273 4928304
-1847.994 742.85602 4402.23 5126454
-1819.9056 742.04059 4397.3979 6113351
-1802.1544 745.4776 4417.7656 5192251
-1774.2714 744.76294 4413.5308 1837834
-1731.8801 737.84589 4372.5396 6837326
-1734.3135 750.10583 4445.1934 6245179
-1704.1726 748.43793 4435.3091 8744294
-1668.7535 744.3634 4411.1631 7232338
-1641.4318 743.82861 4407.9937 6507847
-1591.4868 732.8587 4342.9854 5915453
-1554.0365 727.3764 4310.4966 6375492
-1501.0269 714.30658 4233.0435 6112825
0 0 0 0
-1320.2841 650.02197 3852.0874 11179887
-1303.1584 652.87897 3869.0183 10521185
-1274.0404 649.72253 3850.3127 9270861
-1259.8931 654.22485 3876.9941 7692087
-1233.3302 652.32758 3865.7507 7494714
-1207.9099 650.97443 3857.7317 4797469
-1190.712 654.08563 3876.1692 8745833
-1173.3344 657.21863 3894.7354 6575177
-1154.9326 659.89227 3910.5796 7758683
-1124.3514 655.57391 3884.9888 7429975
-1122.6215 668.2489 3960.1018 9666168
-1140.4691 693.36768 4108.958 6244423
-1148.7753 713.65515 4229.1831 5585977
-1142.8143 725.78656 4301.0752 6046269
-1139.7028 740.32245 4387.2158 5915198
-1108.3068 736.73523 4365.958 5849405
-1072.9652 730.29108 4327.769 5191988
-1053.9802 734.93665 4355.2993 5981248
-1015.9631 726.21136 4303.5923 5718588
-971.32794 712.1842 4220.4663 6047810
-937.51056 705.55695 4181.1924 6048328
-895.52325 692.25439 4102.3604 1116424
-851.35339 676.4751 4008.8511 524288
-814.71143 665.94324 3946.4382 720896
-785.25269 660.83386 3916.1597 1837836
-759.08032 658.26318 3900.9258 6377292
-724.98352 648.4433 3842.7319 8153444
-715.45294 660.67163 3915.198 7166807
-718.90363 686.10876 4065.9409 6837328
-708.80609 699.93158 4147.856 6047811
-711.85559 728.19641 4315.356 5783612
-687.68457 729.68475 4324.1763 6441540
-662.58685 730.26697 4327.6265 6441027
-627.26367 719.17242 4261.8789 5454131
-605.76495 723.66193 4288.4844 5388338
-585.37323 729.92499 4325.5996 6901321
-553.96924 722.40125 4281.0132 7231056
-532.56348 727.81915 4313.1201 7428434
-496.14035 712.2254 4220.7104 6507588
-474.3913 717.15942 4249.9497 6573382
-446.68661 713.13849 4226.1216 6244416
-421.9451 713.65161 4229.1621 8217951
-396.08954 712.22632 4220.7158 7297106
-371.16861 712.40283 4221.7617 5520439
-343.50693 706.96411 4189.5312 3744028
-323.46771 717.58777 4252.4883 3482400
-298.13351 717.2677 4250.5913 5126195
-275.56927 724.1676 4291.481 7429207
-252.13582 729.95422 4325.7729 7495256
-227.18094 732.14758 4338.771 7231314
-198.81531 722.50598 4281.6338 7100754
-171.07146 712.63324 4223.1274 6574931
-141.13797 688.69244 4081.252 524289
-114.47722 674.12158 3994.9038 458756
-90.651718 673.00165 3988.2671 524291
-67.529144 678.151 4018.7822 1840151
-43.918789 681.34363 4037.7024 8416366
-20.325319 692.75537 4105.3291 6771283
4.1442423 717.06671 4249.4004 6836818
29.984976 733.15228 4344.7251 6179145
55.624283 731.72559 4336.27 7034455
82.156761 739.23712 4380.7842 6705233
107.40459 734.35785 4351.8691 7034196
133.44116 735.71667 4359.9219 6441802
161.11377 744.19165 4410.145 5783615
185.72652 738.13983 4374.2817 5783357
214.10104 746.69 4424.9507 5783357
241.80331 751.28546 4452.1836 6244164
265.39276 743.45526 4405.7812 5520440
292.48572 745.96332 4420.644 4796461
316.38123 740.5744 4388.709 5652028
342.74054 741.33337 4393.207 5059891
365.33151 734.40979 4352.1772 5125686
394.18707 740.16241 4386.2676 5652800
420.5188 740.75739 4389.7935 5718340
443.26331 735.33215 4357.6431 6507854
475.12485 744.79602 4413.7266 5849926
501.13165 744.57336 4412.4072 6112841
530.07104 748.51385 4435.7588 4928568
550.672 740.86359 4390.4229 4008493
568.01843 729.7226 4324.4004 8085605
587.1701 721.7627 4277.229 6376013
603.67798 711.34613 4215.4995 8810610
628.41089 711.06427 4213.8296 8547949
657.12274 715.13428 4237.9487 3483946
554.83563 581.58905 3446.5479 4271668
660.90466 668.17529 3959.6653 918536
675.7807 659.78876 3909.9661 5324873
704.85657 665.36249 3942.9966 8680316
752.1402 687.21454 4072.4939 7035230
785.20251 695.1181 4119.3311 4271409
864.81256 742.51001 4400.1797 4995130
879.75861 733.2334 4345.2056 4928824
912.99139 739.29211 4381.1099 5258301
934.60864 735.87012 4360.8311 4995129
943.59796 722.95715 4284.3076 4929080
974.82025 727.30878 4310.0957 4863800
1008.2092 733.01349 4343.9023 4074798
1046.9581 742.23407 4398.5444 3548970
1083.5743 749.53131 4441.7886 2957861
1107.4904 747.90594 4432.1562 2563620
1122.6089 740.55231 4388.5781 722446
1155.0619 744.70782 4413.2041 65543
1184.5067 746.78278 4425.5005 10
1202.0975 741.45636 4393.9355 65548
1227.7194 741.20422 4392.4414 12
1248.9755 738.38165 4375.7144 11
1298.6904 752.15625 4457.3442 65802
1324.4448 751.78119 4455.1216 921884
1344.7268 748.37524 4434.9375 725022
1362.6342 743.80359 4407.8457 1778483
1382.4541 740.42847 4387.8442 1449518
1405.3337 738.78632 4378.1128 2106925
1415.7767 730.78424 4330.6919 4016472
1443.3392 731.74652 4336.394 2963530
1464.9329 729.70184 4324.2773 2437442
1513.6304 740.99615 4391.2085 2304576
1537.4314 739.9267 4384.8706 2173757
1581.2278 748.35608 4434.8237 856610
1613.4675 751.1297 4451.2607 2107704
1619.2736 741.70624 4395.4165 2567736
1601.7334 722.05682 4278.9722 1975087
1605.4358 712.44659 4222.021 1119777
1639.6357 716.45764 4245.791 330261
1659.0941 714.0033 4231.2461 266
1691.3113 717.03101 4249.189 396054
1741.1101 727.31445 4310.1294 2239290
1799.0198 740.63959 4389.0952 4016217
1830.6324 742.91302 4402.5679 5596019
1831.7606 732.92505 4343.3784 5727092
1844.8954 727.95135 4313.9038 3094342
1870.5836 727.99933 4314.188 6186874
1920.2631 737.25702 4369.0498 2436931
1924.5607 729.07648 4320.5713 4476256
1921.5415 718.37537 4257.1558 4213600
1989.6569 734.20087 4350.939 4608614
2003.7777 729.9519 4325.7593 8161945
2037.5055 732.86261 4343.0083 6450816
2064.6672 733.36841 4346.0059 6911622
2081.4604 730.22437 4327.3735 6186870
2116.739 733.56287 4347.1582 1055270
2132.8374 730.25415 4327.5503 4804961
2157.4475 729.90375 4325.4736 4675427
2211.9487 739.55548 4382.6709 7767444
2257.2488 745.9425 4420.521 1910840
2254.0913 736.35321 4363.6938 725019
2284.7673 737.90857 4372.9111 3489875
2322.9294 741.8197 4396.0889 6515326
2308.1763 728.93311 4319.7217 4672864
2320.7 724.849 4295.519 4939894
2422.0842 748.30719 4434.5342 2106415
2477.6536 757.25903 4487.5835 3620947
2494.4392 754.29297 4470.0063 3554387
2480.9128 742.31952 4399.0508 2699332
2534.8237 750.56335 4447.9043 2962245
2400.6772 703.52655 4169.1602 66059
2450.3479 710.76758 4212.0713 198160
2502.1968 718.4881 4257.8237 527638
2599.1118 738.86566 4378.583 1975861
2637.4441 742.35126 4399.2388 3160399
2703.6238 753.53003 4465.4854 2436935
2710.8911 748.23181 4434.0874 2568779
2702.2964 738.69916 4377.5962 2700366
2769.884 749.97491 4444.4175 3884635
2765.9236 741.84845 4396.2593 2831948
2780.4558 738.78735 4378.1187 1582138
2840.0513 747.64563 4430.6138 4608359
2875.1655 749.95599 4444.3052 2174017
2900.123 749.59918 4442.1909 1120551
2940.9019 753.30139 4464.1304 1054250
2921.6428 741.69617 4395.3569 3884892
2946.3672 741.36328 4393.3838 264474
3098.1438 772.72479 4579.2354 1712433
3057.7478 756.02722 4480.2837 2174016
3128.6743 766.90454 4544.7437 3687000
3107.2603 755.15479 4475.1138 2963275
3126.4187 753.38062 4464.6001 1976119
3113.0325 743.85992 4408.1792 1844279
3131.7319 742.10059 4397.7534 2568259
3148.1655 739.83783 4384.3442 1844276
3221.1909 750.8028 4449.3232 133147
3270.6125 756.13257 4480.9082 1909558
3267.5996 749.35187 4440.7251 1383724
3280.4001 746.27698 4422.5029 4804959
3301.3787 745.09656 4415.5078 988708
3291.8076 737.09418 4368.085 1580847
3328.7595 739.55261 4382.6538 791332
3351.7666 738.89886 4378.7798 527383
3377.8215 738.92194 4378.9165 12
3402.8552 738.72296 4377.7373 2567744
3427.2153 738.38184 4375.7158 268
3451.8499 738.10455 4374.0723 3621203
3486.1543 739.88361 4384.6152 2239296
3513.9766 740.27081 4386.9102 2437191
3536.9558 739.63959 4383.1694 1384248
3590.8396 745.43317 4417.5024 3554648
3607.8044 743.53418 4406.249 2765132
3602.6128 737.12909 4368.292 2568009
3558.7158 722.95245 4284.2798 2962766
3626.0796 731.41907 4334.4536 2700363
3623.5693 725.77142 4300.9854 2437194
3634.7803 722.93164 4284.1567 7108495
3631.0149 717.17334 4250.0322 1976899
3631.8169 712.3902 4221.687 2437706
3709.6462 722.67834 4282.6553 3161430
3672.3784 710.55682 4210.8223 1450812
3751.2759 720.92371 4272.2573 3621980
3876.8284 740.05762 4385.6465 1714497
3849.7642 729.99731 4326.0283 2371908
3895.1399 733.71545 4348.0625 1449263
3828.8882 716.49603 4246.0186 6186871
3940.001 732.47479 4340.71 1252660
3977.1509 734.58514 4353.2163 2898257
4010.676 736.00311 4361.6191 2241098
4099.125 747.4176 4429.2622 5135735
4048.3 733.45361 4346.5107 6057093
4045.4761 728.30792 4316.0171 3491166
4081.9602 730.25916 4327.5801 4082788
4206.4443 747.83081 4431.7109 5003888
4103.665 725.03168 4296.6016 4213601
0 0 0 0
0 0 0 0
0 0 0 0
0 0 0 0
0 0 0 0
0 0 0 0
-4020.4126 780.44543 4468.0728 5984077
-4024.7285 786.46283 4502.5229 6181713
-4016.9143 790.17462 4523.7725 7232603
-3937.5271 779.76233 4464.1621 8350822
-3892.7007 776.09961 4443.1929 1903880
-3906.5005 784.15521 4489.3115 2427912
-3932.3013 794.74677 4549.9482 5848890
-3887.5293 791.12268 4529.2007 6440514
-3839.7576 786.83368 4504.646 6374722
-3809.0168 785.99896 4499.8667 6572872
-3752.4082 779.77686 4464.2456 7033936
-3696.0269 773.5141 4428.3906 7033679
-3651.9656 769.75848 4406.8896 6967886
-3600.1604 764.30475 4375.667 7100242
-3562.0828 761.70734 4360.7969 7428950
-3583.0979 771.8006 4418.5811 7495259
-3505.8647 760.72394 4355.167 7363675
-3466.3384 757.72559 4338.001 3023907
-3421.5081 753.51428 4313.8911 1445390
-3361.2974 745.82684 4269.8804 919559
-3344.7671 747.78839 4281.1104 1576465
-3300.3245 743.49194 4256.5132 3023397
-3339.8826 758.19867 4340.7095 6180946
-3243.1731 741.95886 4247.7363 5325639
-3258.5203 751.30139 4301.2222 4470075
-3237.6082 752.36517 4307.3125 7562602
-3217.5198 753.63885 4314.6045 6970465
-3187.5857 752.60834 4308.7046 6510171
-3158.7612 751.8252 4304.2212 6640986
-3132.2322 751.5802 4302.8184 6772311
-3125.8704 756.2099 4329.3237 7956584
-3138.9021 765.64685 4383.3506 7955812
-3063.2905 753.43878 4313.459 7889758
-3038.5854 753.65143 4314.6763 8481381
-2953.2612 738.7049 4229.1069 8481382
-2924.6064 737.79871 4223.9189 8415589
-2898.116 737.42761 4221.7944 8415589
-2875.9729 738.16571 4226.0205 8284003
-2818.637 729.80481 4178.1538 8152930
-2802.5437 732.06879 4191.1152 8087136
-2894.3989 762.82336 4367.186 7758425
-2840.3232 755.32556 4324.2607 7758424
-2807.9236 753.50793 4313.855 7890010
-2805.0039 759.64062 4348.9648 7824217
-2786.6267 761.66205 4360.5376 8153437
-2792.1694 770.3205 4410.1074 7298388
-2782.4739 774.8988 4436.3184 1971472
-2636.4478 741.23529 4243.5938 3482392
-2632.6951 747.30865 4278.3638 6969669
-2613.5396 749.08539 4288.5356 6969926
-2608.9827 755.12231 4323.0972 6510405
-2583.8921 755.27692 4323.9824 7564138
-2547.0415 751.96277 4305.0088 8023922
-2468.675 736.20081 4214.771 7035220
-2559.5999 771.1181 4414.6738 7364186
-2525.4351 768.68237 4400.729 6574411
-2471.9255 760.24628 4352.4321 6442827
-2480.0881 770.79968 4412.8506 5587006
-2435.2241 764.92188 4379.2002 4665646
-2382.2488 756.34229 4330.0815 5784126
-2386.9565 766.08911 4385.8823 6113091
-2372.6443 769.87878 4407.5786 5389367
-2331.0247 764.79358 4378.4653 5849917
-2318.0283 769.09064 4403.0664 7100236
-2277.0718 764.10309 4374.5127 7099464
-2244.2217 761.75238 4361.0547 6638655
-2227.1885 764.77802 4378.3765 5782577
-2206.0032 766.43237 4387.8477 6309177
-2163.0571 760.47583 4353.7461 6506557
-2129.3845 757.67499 4337.7114 6309177
-2079.4004 748.93091 4287.6514 5651248
-2078.8853 758.00793 4339.6177 6046778
-2062.929 761.61169 4360.249 6375743
-2044.8854 764.52649 4376.9365 6178109
-2020.4957 765.11304 4380.2944 6177854
-1998.0237 766.45056 4387.9517 6507588
-1939.7601 753.91235 4316.1704 6572871
-1930.3967 760.29883 4352.7329 6638407
-1898.807 757.98566 4339.4902 5849403
-1877.1517 759.62927 4348.8999 5585976
-1849.1884 758.73035 4343.7534 6441285
-1803.5563 750.45416 4296.3721 6112833
-1789.6226 755.3194 4324.2256 5980989
-1774.166 759.67389 4349.1553 6178368
-1736.1471 754.35364 4318.6963 5718074
-1708.0326 753.24176 4312.3311 5980989
-1682.5216 753.26178 4312.4458 5915197
-1625.7499 739.07129 4231.2046 5980734
-1604.9803 741.05927 4242.5859 5322544
-1583.6459 742.84546 4252.812 5585460
-1548.1298 737.92969 4224.6689 5059368
-1473.9618 714.12561 4088.3901 9270365
-1345.3871 662.72571 3794.124 11836795
-1329.5524 666.05719 3813.1968 11310702
-1312.4436 668.85449 3829.2117 11245426
-1312.1003 680.44476 3895.5664 10390371
-1279.6702 675.51221 3867.3269 9995617
-1258.6754 676.54626 3873.2471 8218435
-1246.1158 682.23694 3905.8264 6705461
-1213.019 676.68634 3874.0488 5718314
-1196.9264 680.59033 3896.3994 6573628
-1181.3683 684.95776 3921.4033 8678752
-1158.0251 684.89624 3921.0508 7428943
-1127.7321 680.63751 3896.6697 7298131
-1123.3049 692.13843 3962.5127 8350565
-1104.4819 695.0708 3979.3008 5718845
-1107.2743 712.03107 4076.3984 5257268
-1123.9375 738.86615 4230.0303 5849148
-1112.9202 748.31378 4284.1182 6046783
-1084.7947 746.43048 4273.3364 6441286
-1049.8083 739.6236 4234.3667 6179141
-1024.7911 739.67889 4234.6831 5981763
-997.26123 737.87775 4224.3716 5719102
-972.50641 738.09003 4225.5869 4402989
-933.71802 727.38116 4164.2783 5061949
-894.52039 715.76337 4097.7661 524288
-841.65295 692.25391 3963.1736 524288
-810.0849 685.41614 3924.0273 655360
-777.54352 677.32642 3877.7134 2430228
-759.21619 681.50293 3901.624 3877158
-719.33868 665.98993 3812.8118 7890527
-718.63965 686.91992 3932.6367 8022369
-711.50134 702.89166 4024.0752 7034704
-695.07794 710.48035 4067.5205 7034705
-685.90411 726.29065 4158.0352 6179139
-654.58698 718.95837 4116.0576 6442054
-641.12097 731.42413 4187.4243 5981246
-619.77289 735.53925 4210.9834 6572869
-593.83392 734.32275 4204.019 5520181
-567.4375 732.40924 4193.064 2363404
-544.04297 734.37256 4204.3042 4731179
-511.80191 724.0097 4144.9766 4993582
-487.85907 724.93268 4150.2607 5125681
-464.36075 726.64941 4160.0889 5520440
-436.62231 721.55139 4130.9028 4862509
-412.46365 722.11511 4134.1299 5652026
-390.21896 726.31232 4158.1592 6310726
-363.78043 722.74335 4137.7266 6837326
-339.2988 722.82733 4138.2075 6902606
-315.3299 724.10181 4145.5039 6178371
-293.86267 731.82166 4189.7002 4335652
-270.42017 735.59332 4211.2935 5453620
-244.69116 733.27991 4198.0488 5323061
-219.59634 732.55835 4193.918 4993840
-193.93251 729.51227 4176.479 4929077
-166.05736 716.03961 4099.3477 3614507
-138.15941 697.83435 3995.1218 589827
-114.60931 698.60144 3999.5134 458756
-90.734421 697.27258 3991.906 918534
-66.507423 691.34619 3957.9773 3087904
-43.526043 698.96503 4001.5952 5323577
-19.914318 702.58411 4022.3145 5323061
4.0691638 728.80267 4172.4165 6310215
28.78587 728.55145 4170.9785 8020834
54.376419 740.43134 4238.9912 8284519
78.209328 728.43268 4170.2983 7889247
102.8548 727.94714 4167.5186 9139314
129.41515 738.57788 4228.3799 8349801
154.98842 741.04016 4242.4766 7954786
178.81415 735.62585 4211.4795 8086628
205.6028 742.23413 4249.312 7099731
230.21225 740.39172 4238.7642 6836303
254.69499 738.54437 4228.188 8415333
284.08618 749.98621 4293.6929 8415333
313.0509 758.51355 4342.5122 7231571
335.66071 751.51733 4302.4585 7955551
359.01074 747.04919 4276.8784 7494230
383.77524 745.91956 4270.4111 7165523
406.59045 741.37537 4244.3955 6573387
435.73245 748.22479 4283.6089 10652041
450.88898 731.62683 4188.585 9862014
479.54834 737.52789 4222.3687 8875633
520.5636 760.90411 4356.1982 8020326
543.47888 756.86487 4333.0732 7230295
565.85724 752.47601 4307.9473 2495511
573.11633 729.22852 4174.8545 6111558
594.14227 724.69702 4148.9116 9072753
618.36731 724.27258 4146.4819 7823971
643.46454 724.86322 4149.8633 2167062
595.54907 646.18933 3699.4529 720900
622.00531 650.93268 3726.6086 524293
640.77557 647.58307 3707.4319 524294
660.23236 645.12634 3693.3669 524551
638.59583 603.96252 3457.7031 5259598
697.13812 638.83124 3657.3276 7364974
717.68359 637.82819 3651.585 6772321
751.06512 647.95776 3709.5771 3417389
785.92847 658.75323 3771.3816 7693415
854.4491 696.38269 3986.8113 5192768
0 0 0 0
943.82892 728.91675 4173.0698 5258045
985.05701 741.33252 4244.1504 5126718
1013.5712 743.80005 4258.2769 3942700
1057.0657 756.87378 4333.1245 3876909
1056.6805 738.65405 4228.8159 5917010
1088.4424 743.2298 4255.0122 4338490
1098.7773 733.2984 4198.1548 4404282
1134.7687 740.55017 4239.6714 2825764
1181.1371 754.11322 4317.3203 3155758
1208.5695 755.26752 4323.9287 920335
1241.1779 759.54126 4348.396 196871
1265.1393 758.45734 4342.1904 8
1289.2468 757.50244 4336.7236 131083
1308.5098 753.79401 4315.4927 131084
1353.9442 765.01538 4379.7354 65549
1360.9258 754.49646 4319.5142 12
1389.1884 755.94617 4327.814 460817
1400.423 748.24536 4283.7266 855841
1400.1655 734.7879 4206.6821 790819
1417.0719 730.651 4182.9985 2369852
1427.7173 723.4837 4141.9653 1382960
1428.6752 711.73254 4074.6897 1909304
1487.5481 728.74438 4172.083 1317166
1501.5122 723.55908 4142.397 1776944
1516.6879 719.11493 4116.9541 527133
1501.7955 700.78101 4011.9917 11
1509.8329 693.55139 3970.6021 592663
1571.4175 710.76349 4069.1416 8
1612.5308 718.33594 4112.4941 527123
1650.2111 724.17633 4145.9307 1514277
1694.2438 732.59216 4194.1113 790296
1702.2664 725.41895 4153.0444 330777
1740.7473 731.245 4186.3989 1119774
1747.9844 723.96698 4144.7319 461593
1779.2609 726.70917 4160.4312 2830406
1837.3342 740.17157 4237.5039 1777193
1841.4617 731.83179 4189.7583 2633797
1884.036 738.7901 4229.5947 4936552
1909.9882 739.13318 4231.5591 3752019
1958.0597 747.91638 4281.8433 2633537
1954.9977 737.1933 4220.4531 856354
1978.682 736.69922 4217.6245 2765892
1980.5198 728.185 4168.8804 3293007
2018.7501 733.0965 4196.9985 4213595
2074.9438 744.33215 4261.3232 4214367
2090.2021 740.78986 4241.0435 4345953
2082.6062 729.32794 4175.4238 3753559
2131.2126 737.5863 4222.7031 1515820
2181.2258 746.13422 4271.6401 4214364
2202.0776 744.62512 4263.0005 4543075
2187.4753 731.29755 4186.6997 4805477
2210.886 730.83453 4184.0488 4344670
2255.7046 737.38 4221.522 7239564
2336.697 755.47717 4325.1289 3751764
2369.0347 757.62177 4337.4067 526866
2358.0811 746.02435 4271.0112 263442
2323.1824 727.1781 4163.1157 395031
2341.7544 725.289 4152.3008 592664
2397.1809 734.73505 4206.3794 197646
2384.9651 723.46765 4141.8735 724249
2436.2837 731.50641 4187.8955 7
2435.3245 723.8446 4144.0317 132621
2427.2056 714.22894 4088.9814 790809
2495.1824 726.974 4161.9473 1449516
2612.0012 753.56049 4314.1558 3225676
2593.0122 740.83075 4241.2778 2897226
2658.7354 752.31567 4307.0293 2174530
2709.5762 759.41113 4347.6509 7174540
2712.9185 753.18591 4312.0112 4411490
2725.5999 749.64545 4291.7422 4873325
2723.2253 742.06781 4248.3599 5793914
2712.2449 732.30542 4192.4697 7241104
2760.1138 738.46527 4227.7354 4939119
2841.8328 753.48944 4313.749 5530231
2825.4868 742.47638 4250.6987 7437972
2855.1833 743.64996 4257.418 2898766
2907.8987 750.74591 4298.042 3095632
2991.9749 765.74487 4383.9116 1450038
3017.0034 765.50348 4382.5298 2107969
3028.8386 761.9472 4362.1699 2108480
3078.7646 767.95233 4396.5493 4279650
3086.9395 763.52979 4371.2305 4542821
3069.9333 753.00446 4310.9727 3227216
3060.459 744.48499 4262.1982 3818583
3137.5713 756.99567 4333.8223 2699843
3190.4595 763.50604 4371.0942 1383983
3221.2725 764.67133 4377.7656 1909814
3245.8892 764.35889 4375.9771 131851
3224.2566 753.2467 4312.3594 2897731
3156.4211 731.60034 4188.4331 5661293
3198.7739 735.63202 4211.5146 2239287
3284.7327 749.55182 4291.2061 1778992
3332.8164 754.68134 4320.5728 1646639
3344.4294 751.53735 4302.5732 2502208
3347.0627 746.43817 4273.3804 1976374
3322.1528 735.31934 4209.7246 1121321
3492.0811 767.16986 4392.0698 1976119
3478.5713 758.54803 4342.7095 5792373
3444.9497 745.6994 4269.1509 2305859
3435.6443 738.26337 4226.5791 3161682
3447.3823 735.42401 4210.3237 7110289
3459.0662 732.61401 4194.2368 3951201
3471.0745 729.91235 4178.7695 2964048
3525.6543 736.1377 4214.4097 1382957
3570.0183 740.15741 4237.4229 527650
3519.8984 724.66888 4148.7505 2238787
3600.0156 736.02209 4213.748 2436425
3650.5381 741.21008 4243.4492 2765133
3727.4707 751.65253 4303.2329 856351
3657.4893 732.52905 4193.75 593962
3646.6587 725.43042 4153.1104 987176
3712.1284 733.50378 4199.3306 593192
3732.7659 732.6698 4194.5562 397354
3778.2053 736.68292 4217.5312 2174280
3864.3369 748.52527 4285.3291 2701138
3919.4246 754.23907 4318.0405 3029846
3900.1997 745.67108 4268.9888 1714499
3903.3323 741.46051 4244.8828 3819876
3929.6731 741.68408 4246.1631 3753826
3987.4053 747.79193 4281.1304 989748
3986.1077 742.82214 4252.6787 2503245
3985.7009 738.07983 4225.5288 2305866
4039.6785 743.40479 4256.0142 1581373
3994.3577 730.50366 4182.1548 2436682
0 0 0 0
0 0 0 0
0 0 0 0
0 0 0 0
0 0 0 0
0 0 0 0
-3961.1106 795.02179 4402.1675 9603973
-3873.4634 782.58453 4333.3003 8879223
-3616.0283 735.44891 4072.3025 7233112
-3677.5085 752.97852 4169.3667 8022369
-3728.853 768.65588 4256.1748 7561306
-3706.9387 769.34253 4259.9771 6968911
-3812.1306 796.59937 4410.9023 7494229
-3728.624 784.52893 4344.0669 7625815
-3719.1311 787.97211 4363.1318 7691864
-3668.6028 782.70831 4333.9854 7691864
-3640.188 782.12164 4330.7368 7560023
-3659.73 791.90356 4384.9014 6507335
-3588.115 781.95959 4329.8398 7033679
-3533.6895 775.64545 4294.8774 7034449
-3470.1753 767.23029 4248.2812 7232340
-3445.3716 767.31329 4248.7407 6837585
-3385.0322 759.42511 4205.0625 7034966
-3375.8525 762.98267 4224.7612 6312268
-3341.7239 760.91241 4213.2979 6772305
-3311.6084 759.73169 4206.7603 6706508
-3273.3701 756.65546 4189.7266 6640712
-3263.832 760.21704 4209.4478 6903630
-3228.3518 757.74451 4195.7568 7561563
-3197.7974 756.39874 4188.3052 6838097
-3171.8618 756.13306 4186.834 7035735
-3146.0078 755.88269 4185.4478 7627616
-3139.2212 760.24609 4209.6084 7824996
-3127.2798 763.4209 4227.188 7890789
-3098.5837 762.52399 4222.2217 8483184
-3064.1194 760.18134 4209.25 7957099
-3008.7371 752.56812 4167.0942 5983309
-3007.0474 758.37006 4199.2207 7167838
-2963.4175 753.60327 4172.8262 5260360
-2927.1416 750.64215 4156.4302 6642271
-2844.4287 735.62146 4073.2578 8352120
-2784.7136 726.34204 4021.876 8549499
-2795.1018 735.3454 4071.7295 8549499
-2746.1187 728.75006 4035.2097 10654870
-2711.3235 725.83698 4019.0793 11245975
-2686.7239 725.62585 4017.9104 7758943
-2766.7473 753.92004 4174.5801 7890271
-2781.1614 764.68536 4234.1895 7955807
-2761.2244 766.11584 4242.1104 7692632
-2736.5852 766.25598 4242.8862 8021597
-2696.0286 761.90039 4218.7686 7823963
-2654.1426 757.08411 4192.1001 6771788
-2664.7769 767.29962 4248.665 1181958
-2633.3503 765.48334 4238.6079 1574912
-2600.9304 763.34058 4226.7432 4731945
-2607.739 772.78119 4279.0176 3547412
-2580.4473 772.2027 4275.814 5324593
-2551.9988 771.263 4270.6108 6772299
-2508.2605 765.63733 4239.4609 7759455
-2517.9221 776.36304 4298.8506 7232855
-2477.6663 771.75928 4273.3589 6311240
-2471.4822 777.7829 4306.7129 7297877
-2413.0737 767.32562 4248.8091 7231828
-2386.5969 766.90869 4246.5005 7494999
-2376.9363 771.94409 4274.3823 7232084
-2332.1897 765.57074 4239.0918 7495255
-2305.4409 765.03076 4236.1021 6968911
-2309.5022 774.81549 4290.2817 6311238
-2284.1831 774.85144 4290.481 6573381
-2224.6274 763.14368 4225.6528 6902345
-2202.8921 764.29089 4232.0054 6836294
-2192.6831 769.5097 4260.9028 6573376
-2150.0005 763.32092 4226.6343 6902085
-2131.8923 765.81384 4240.438 7165257
-2107.7402 766.16919 4242.4058 6967621
-2076.1045 763.77997 4229.1763 7032901
-2046.7935 762.19806 4220.417 6703680
-2019.6825 761.40643 4216.0337 5848887
-1992.6383 760.62042 4211.6812 5125680
-2011.5499 777.5791 4305.584 6178368
-1963.5205 768.76447 4256.7764 6704457
-1938.2939 768.76447 4256.7764 6507847
-1908.4042 766.8905 4246.3999 6441797
-1874.8973 763.49365 4227.5908 6047038
-1855.908 765.99652 4241.4497 6047039
-1829.7139 765.55377 4238.998 5783355
-1797.2736 762.44879 4221.8052 5980990
-1808.8606 778.19733 4309.0078 5586232
-1752.8937 764.91815 4235.4785 5388853
-1735.2445 768.21686 4253.7441 5059888
-1692.231 760.21808 4209.4536 5520695
-1669.8607 761.3927 4215.9575 5520695
-1635.9153 757.24475 4192.9897 5717818
-1612.3391 757.8429 4196.3018 5981246
-1505.0446 718.49335 3978.4167 5652022
-1520.5801 737.4624 4083.4517 6704198
-1461.6953 720.36841 3988.7991 5783600
-1389.5115 696.05048 3854.1467 11771259
-1351.3878 688.26672 3811.0469 11771255
-1331.4281 689.62653 3818.5764 10586728
-1326.469 698.93744 3870.1323 11376502
-1301.3707 697.77771 3863.7107 11442546
-1266.02 690.98065 3826.0742 7889214
-1266.1804 703.67084 3896.3418 9467995
-1250.0012 707.58307 3918.0046 6178608
-1221.8436 704.7345 3902.2317 4731427
-1188.9928 699.01697 3870.5728 5650986
-1181.9353 708.5368 3923.2856 5717038
-1152.668 704.8573 3902.9114 6440760
-1131.7117 706.21344 3910.4209 8217942
-1114.1354 709.77948 3930.1667 7626321
-1089.5732 708.95245 3925.5869 7626325
-1100.684 731.80688 4052.136 5783609
-1091.291 741.74457 4107.1626 5586747
-1065.8507 740.97955 4102.9268 5586491
-1042.34 741.55176 4106.0947 5126453
-1035.9005 754.58643 4178.27 3679267
-1008.0746 752.29944 4165.6064 2234648
-978.76227 748.76038 4146.0103 1314318
-942.65155 739.70441 4095.866 853256
-892.76196 719.07166 3981.6189 327683
-860.94794 712.27271 3943.9722 393222
-833.8479 709.10315 3926.4216 393220
-805.6438 704.78558 3902.5146 458754
-779.55029 702.11395 3887.7212 918276
-749.82104 695.90521 3853.3425 3088156
-735.61017 704.16132 3899.0579 4996151
-720.90881 712.4682 3945.0544 8745579
-699.30005 714.27661 3955.0679 6969169
-678.93298 717.52264 3973.0417 5192757
-659.47797 722.00049 3997.8362 3679261
-641.89948 728.94305 4036.2786 5586232
-617.12122 727.93054 4030.6719 7428180
-598.44788 734.32751 4066.093 4927789
-577.66327 738.56195 4089.5398 5125426
-554.37396 739.82458 4096.5312 5585977
-529.42029 738.88013 4091.3015 6177856
-498.75867 729.49634 4039.342 4599082
-470.02209 722.12396 3998.5203 5585978
-443.86734 718.14606 3976.4937 5388857
-422.8367 722.47729 4000.4763 5059635
-400.03885 724.12421 4009.5957 5586235
-374.7995 721.28058 3993.8501 5191477
-349.8587 718.66687 3979.3774 5191475
-328.56613 723.71106 4007.3081 4730924
-309.51804 734.87018 4069.0979 2691598
-283.6337 730.31268 4043.8623 4599594
-263.86295 742.10834 4109.1768 3350043
-235.86134 730.7998 4046.5598 3876647
-212.27643 732.16516 4054.1199 655361
-184.2101 716.44952 3967.0996 524294
-160.83046 717.03015 3970.3147 458762
-137.38765 717.47998 3972.8054 458762
-114.06744 718.88831 3980.6038 458758
-90.407173 718.32928 3977.5083 721669
-66.75367 717.44867 3972.6321 5850696
-43.204422 717.33936 3972.0269 6245448
-19.836279 723.57458 4006.5522 7561562
3.9470215 730.91101 4047.1753 3480600
28.271425 739.80768 4096.4375 6309699
53.184597 748.77313 4146.0811 5914943
77.667122 747.92535 4141.3867 6441287
100.97221 738.86877 4091.2388 7559769
127.89066 754.64069 4178.5703 6573129
151.36749 748.28198 4143.3613 7230804
178.7625 760.36432 4210.2632 7559768
200.23137 747.36755 4138.2979 7494233
225.09991 748.51178 4144.6338 7231060
250.65967 751.50317 4161.1978 8086369
274.88446 750.31482 4154.6177 8415332
295.31702 739.82166 4096.5151 8283746
323.49237 748.84637 4146.4863 8941677
347.3627 747.33466 4138.1157 8481125
371.31857 746.19427 4131.8013 8151902
394.13022 743.03778 4114.3232 8678247
425.27811 755.0495 4180.834 7888474
452.86887 759.77087 4206.9771 8217441
473.18372 752.42981 4166.3286 8875886
498.05115 752.69708 4167.8086 8283494
520.1405 748.93915 4147 8349544
540.22809 742.76794 4112.8291 8087400
564.6366 742.81396 4113.084 6113868
586.66443 739.85388 4096.6934 11311516
611.1391 740.09222 4098.0132 6245714
580.16547 675.73059 3741.6321 589826
599.35718 672.38525 3723.1084 458757
618.25555 668.96002 3704.1423 458759
635.85266 664.41003 3678.9485 458759
652.13568 658.83411 3648.0737 458761
668.12811 653.33197 3617.6072 985099
682.60986 646.74054 3581.1094 3087653
711.36591 653.66309 3619.4407 4139826
730.14026 651.27679 3606.2275 2364699
758.81482 657.60602 3641.2734 1115913
796.59576 671.25873 3716.8706 7430243
812.35645 666.12042 3688.4192 6969433
857.92194 685.0506 3793.2388 6968920
934.69812 727.29944 4027.1775 6179403
973.65564 738.75 4090.5813 7363422
994.65277 736.34808 4077.2812 6705495
1031.0269 745.17371 4126.1504 6705238
1059.2821 747.85852 4141.0166 5389634
1090.1376 752.216 4165.1445 5916233
1110.3024 749.16699 4148.2617 4797751
1129.1602 745.38727 4127.333 4731959
1154.2775 745.81238 4129.6865 4666936
1195.8484 756.63025 4189.5869 4404279
1223.8889 758.62134 4200.6118 4536379
1263.473 767.54547 4250.0264 2694435
1304.2434 776.82745 4301.4224 1576984
1324.4037 773.7132 4284.1782 854026
1336.3853 766.02795 4241.6235 525320
1342.8494 755.52222 4183.4517 196617
1357.5693 749.95819 4152.6426 131083
1375.7388 746.46381 4133.2939 65549
1390.4009 741.22211 4104.2695 13
1407.072 737.21307 4082.071 10
1418.553 730.66632 4045.8203 8
1425.5039 722.0426 3998.0696 198159
1440.8413 717.87939 3975.0171 329229
1438.9554 705.40686 3905.9546 4211274
1434.3273 692.0061 3831.7524 1184533
1478.6877 702.28986 3888.6953 2106157
1518.0964 709.94226 3931.0681 1843757
1556.4421 716.87384 3969.4492 2304822
1595.2899 723.82672 4007.9485 3094084
1644.6738 735.28601 4071.4004 1120293
1658.0635 730.55469 4045.2021 10
1715.0522 744.89435 4124.6035 3883339
1750.9551 749.80164 4151.7759 3357000
1766.7786 746.09369 4131.2441 2435899
1802.8237 750.90967 4157.9111 4409436
1818.5898 747.26306 4137.7192 3422539
1856.267 752.59705 4167.2544 1053471
1878.5746 751.64142 4161.9629 1448234
1876.7395 741.1759 4104.0137 395287
1889.6814 736.73938 4079.448 10
1898.2931 730.74805 4046.2729 12
1920.8798 730.21869 4043.3418 132113
1980.381 743.5625 4117.229 1317675
1998.6521 741.28943 4104.6426 2897737
2022.7495 741.20612 4104.1812 3227215
2045.1178 740.49866 4100.2637 2635594
2102.7773 752.43604 4166.3628 4214371
2082.9385 736.68689 4079.1572 3885404
2161.9167 755.84753 4185.2529 5859707
2172.7246 751.01019 4158.4678 6385280
2178.3801 744.52032 4122.5322 5135216
2221.4272 750.81238 4157.3726 5332596
2213.9536 740.07831 4097.936 3555152
2230.522 737.52673 4083.8076 1119784
2274.3904 743.95984 4119.4287 2961993
2279.9846 737.86957 4085.7061 2106167
2318.6284 742.49084 4111.2949 2633280
2335.9907 740.27185 4099.0078 3093832
2355.8481 738.88116 4091.3074 2238775
2392.9895 742.88446 4113.4741 527381
2394.6016 735.88837 4074.7358 1777453
2370.5916 721.23669 3993.6072 1054501
2421.9192 729.56909 4039.7451 133141
2420.6506 722.04962 3998.1084 2831173
2573.8198 760.29614 4209.8857 3949911
2588.5332 757.30176 4193.3052 5134700
2593.8347 751.6369 4161.938 5727095
2567.0649 736.87268 4080.186 4543334
2629.8127 747.84027 4140.9155 3424341
2669.0212 751.97296 4163.7988 3490135
2699.4014 753.56549 4172.6167 3292497
2724.2158 753.58948 4172.7495 1318700
2732.3911 749.05157 4147.6226 5661813
2795.6868 759.57043 4205.8672 5069673
2812.7644 757.45721 4194.166 6056830
2843.1665 758.93781 4202.3643 6648968
2879.6057 761.99011 4219.2656 2503498
2957.0503 775.74725 4295.4409 3424600
2950.1084 767.32068 4248.7817 4345182
3009.7771 776.21552 4298.0337 2240065
2971.1821 759.8316 4207.3135 5332337
3061.4524 776.40137 4299.063 6648200
2983.824 750.46899 4155.4712 2240070
3067.7642 765.26514 4237.3999 2108739
3067.2065 758.91382 4202.2314 1055531
3097.3284 760.1947 4209.3237 4872557
3102.2825 755.32727 4182.3721 5399412
3143.5571 759.31012 4204.4258 3094600
3135.355 751.37341 4160.479 2238774
3188.4333 758.13159 4197.9004 2107189
3229.9385 762.05457 4219.6226 3554638
3190.1509 746.88489 4135.6255 791589
3249.5779 754.99774 4180.5474 593184
3295.1553 759.79437 4207.1074 1053989
3292.96 753.58624 4172.7319 856354
3363.4656 763.98419 4230.3071 263699
3388.4395 763.96259 4230.1875 526604
3461.2397 774.64514 4289.3384 658709
3410.0869 757.63269 4195.1377 3028039
3393.7004 748.53491 4144.7617 6187133
3411.175 746.98267 4136.167 3752796
3466.8511 753.75842 4173.6851 3030102
3480.9561 751.46381 4160.9795 6781327
3515.4055 753.56256 4172.6006 5595259
3429.8159 730.08008 4042.5742 3752797
3498.8816 739.61536 4095.3728 3029332
3558.8289 747.1051 4136.8447 1582399
3588.4187 748.16302 4142.7026 1648194
3580.6042 741.461 4105.5923 9542579
3601.241 740.70117 4101.3853 660016
3631.1831 741.85266 4107.7612 1252922
3620.0537 734.65381 4067.8999 1515067
3709.0947 747.74432 4140.3843 1054770
3723.6836 745.75201 4129.3525 2830411
3756.1541 747.34357 4138.165 790569
3819.5532 755.02832 4180.7168 1053742
3680.0259 722.75909 4002.0366 1251114
3843.7622 750.08282 4153.333 197397
3869.9531 750.38867 4155.0264 197914
3903.8999 752.18506 4164.9731 329239
3899.6638 746.64813 4134.3145 534
3912.4275 744.41492 4121.9487 198425
3832.4751 724.67786 4012.6614 131861
0 0 0 0
0 0 0 0
0 0 0 0
0 0 0 0
0 0 0 0
0 0 0 0
-3777.032 782.95184 4197.5923 8483947
-3712.5881 774.69531 4153.3271 6839122
-3615.1003 759.38733 4071.2573 7233111
-3630.8872 767.82794 4116.5098 8088162
-3615.3916 769.72272 4126.668 9139825
-3724.5364 798.36017 4280.2002 7166035
-3681.9944 794.65308 4260.3257 7231058
-3651.709 793.55829 4254.4561 7033678
-3650.9192 798.90265 4283.1084 7362643
-3629.6982 799.8197 4288.0249 7033679
-3583.5771 795.224 4263.3867 7757659
-3558.3528 795.23334 4263.4365 7561049
-3491.053 785.77228 4212.7134 7494743
-3467.1604 786.0155 4214.0176 7166034
-3440.6489 785.66418 4212.1343 6902863
-3380.3577 777.5379 4168.5669 6574153
-3354.6309 777.3009 4167.2964 6245188
-3350.0728 782.00171 4192.4985 6705483
-3307.5093 777.83496 4170.1597 6640203
-3293.1123 780.27942 4183.2646 6442824
-3254.8445 777.06183 4166.0146 6903376
-3254.127 782.82849 4196.9312 7232340
-3186.217 772.39539 4140.9966 7100755
-3190.4575 779.42651 4178.6924 6179396
-3154.9663 776.78528 4164.5317 6837582
-3093.4536 767.6452 4115.5298 7232084
-3098.5581 775.02228 4155.0801 6969168
-3087.8918 778.54138 4173.9468 6705995
-3047.9197 774.66888 4153.1855 6640461
-3007.0623 770.50641 4130.8696 6179912
-2915.6509 753.21576 4038.1702 3220005
-2855.0154 743.65521 3986.9138 4601920
-2833.5986 744.23584 3990.0269 2891310
-2818.9077 746.6076 4002.7424 3549241
-2824.0129 754.30719 4044.0217 3877693
-2744.6333 739.37921 3963.9893 5719637
-2720.0439 739.08093 3962.3899 5259082
-2705.1799 741.44299 3975.0535 11970726
-2685.5364 742.52509 3980.8547 10587791
-2682.6931 748.3125 4011.8826 7758423
-2740.1602 771.17694 4134.4644 8810856
-2735.9861 776.9494 4165.4121 8744805
-2744.9841 786.60162 4217.1602 8349789
-2682.3188 775.70679 4158.75 7889752
-2672.842 780.13422 4182.4863 8021595
-2644.657 779.13287 4177.1182 7626836
-2622.3948 779.87408 4181.0918 7956058
-2634.0974 790.82648 4239.8105 8087645
-2603.7712 789.25031 4231.3599 8153181
-2576.1704 788.47748 4227.2168 8548195
-2548.7556 787.74707 4223.3008 8218977
-2464.0598 769.12262 4123.4507 7890014
-2476.8142 780.84747 4186.3105 8087394
-2426.626 772.76538 4142.9805 8153186
-2434.6492 783.24518 4199.165 8021857
-2409.3972 783.12592 4198.5259 8416614
-2371.0515 778.70404 4174.8188 7890269
-2348.876 779.55536 4179.3833 7626069
-2334.4912 783.03802 4198.0547 7823449
-2296.7195 778.66681 4174.6196 8218464
-2268.4675 777.46307 4168.166 7297362
