# .PCD v0.7 - Point Cloud Data file format
VERSION 0.7
FIELDS x y z rgb
SIZE 4 4 4 4
TYPE F F F U
COUNT 1 1 1 1
WIDTH 1266
HEIGHT 1
VIEWPOINT 0 0 0 1 0 0 0
POINTS 1266
DATA ascii
3349.116 696.96191 7138.7485 66052
3403.8887 699.52399 7164.9907 3
3441.4265 698.52466 7154.7549 592140
3494.2576 700.61597 7176.1758 592907
3544.6074 702.16553 7192.0474 855822
3624.6975 709.49963 7267.168 8492186
3691.4468 714.08081 7314.0918 1382166
3793.0435 725.21838 7428.1704 4737606
3772.0574 712.93188 7302.3232 5000775
3865.1238 722.23578 7397.6206 6053207
3960.4153 731.74225 7494.9917 6513757
4046.0969 739.28192 7572.2183 4803138
4067.7139 735.07898 7529.1689 4868933
4181.4595 747.43524 7655.73 4079417
4136.0571 731.38403 7491.3228 3947831
4108.6738 718.82617 7362.6968 2171420
4206.6235 728.22913 7459.0083 3947831
4302.0776 737.00916 7548.939 5000519
4154.5361 704.40808 7215.0171 4671555
4363.1382 732.24078 7500.0981 5526863
4337.0586 720.52411 7380.0879 5132362
4404.7827 724.46948 7420.499 4474175
4520.4683 736.14734 7540.1113 4605761
4579.0762 738.39246 7563.1079 5592654
4543.8335 725.60712 7432.1519 4803138
4633.0747 732.75531 7505.3682 4934466
4725.5054 740.26721 7582.3105 5461066
4682.8374 726.67322 7443.0718 5132102
4710.8799 724.20331 7417.7729 4803651
4695.3682 715.14539 7324.9961 4540479
4620.9038 697.35663 7142.7915 5461581
4798.2939 717.55402 7349.667 5001030
4876.9971 722.76288 7403.019 4934980
4901.1357 719.8645 7373.332 5461324
4954.769 721.31116 7388.1499 5921873
4981.8442 718.90009 7363.4536 4145462
4995.1211 714.55688 7318.9683 3948082
5164.3027 732.39905 7501.7188 5658960
5128.6362 721.13287 7386.3237 5658961
5141.9136 716.88116 7342.7749 5001030
5234.2397 723.62933 7411.894 4934981
5199.2681 712.81281 7301.1035 5592654
5131.3438 697.69427 7146.25 5197896
5156.4463 695.36841 7122.4263 3684657
5199.4121 695.46967 7123.4634 4803396
5240.481 695.31757 7121.9058 4934726
5314.562 699.513 7164.8784 5198410
5348.1787 698.35815 7153.0498 5987414
5417.2769 701.81812 7188.4893 5921621
5425.3784 697.38361 7143.0679 5066312
5491.4282 700.40887 7174.0542 4803140
5466.1211 691.82489 7086.1313 4737347
5576.1938 700.37567 7173.7144 4803142
5718.4585 712.80975 7301.0723 4539968
5729.9438 708.87781 7260.7988 4868933
5769.2495 708.42059 7256.1157 5132105
5782.2417 704.763 7218.6523 5658449
5936.3911 718.23755 7356.6675 5329484
5950.0332 714.63971 7319.8164 4605758
5920.5103 705.94708 7230.7808 4342587
5909.6934 699.59387 7165.7065 4276794
5863.0889 689.12488 7058.4766 4211001
5889.8071 687.36127 7040.4121 5460811
6057.0884 701.91132 7189.4434 3552814
6134.2051 705.88257 7230.1196 4736831
6159.0854 703.82941 7209.0898 4079158
6173.2026 700.58301 7175.8384 3750192
6138.9277 691.92676 7087.1748 3881779
6005.8013 672.32208 6886.3711 4671297
6130.1562 681.61145 6981.5186 4144952
6125.8286 676.56396 6929.8188 4934725
6095.4194 668.72235 6849.5 4605246
6127.2339 667.76575 6839.7017 4473660
6046.1387 654.59741 6704.8228 4539709
6049.4331 650.67792 6664.6768 4605501
6111.9248 653.13525 6689.8467 4473915
6212.9321 659.65027 6756.5776 4210744
6239.2842 658.20618 6741.7861 4539709
6302.8901 660.68549 6767.1812 4934467
6430.5488 669.80524 6860.5918 3487277
6421.292 664.63885 6807.6738 3684656
6655.9819 684.62915 7012.4282 4144951
6674.1797 682.24133 6987.9707 5066053
0 0 0 0
0 0 0 0
0 0 0 0
0 0 0 0
-7247.8862 823.29852 7950.1934 2501415
-7390.2822 844.96613 8159.4277 8
-7601.9219 874.88837 8448.3711 527898
-7553.9102 875.1264 8450.6699 1646385
-7553.7344 880.94653 8506.8721 3291206
-7462.8945 876.20013 8461.0391 4409417
-7429.3066 878.15692 8479.9346 4870724
-7480.4302 890.22137 8596.4355 4410430
-7490.6411 897.54913 8667.1963 3620405
-7444.0068 898.11981 8672.707 3751224
-7398.6055 898.84808 8679.7393 1
-7138.8145 873.35834 8433.5967 5
-7210.0176 888.28833 8577.7686 65543
-7203.1099 893.73853 8630.3984 1183256
-7311.2271 913.64056 8822.583 1773859
-7194.4717 905.526 8744.2246 657168
-7096.7144 899.70221 8687.9873 10856634
-7159.4272 914.28601 8828.8154 9992569
-6992.001 899.47839 8685.8262 9789794
-7026.3286 910.59821 8793.2041 9133144
-6961.8457 908.98279 8777.6045 5191726
-7151.6387 940.79272 9084.7783 3616035
-7337.7231 972.59393 9391.8662 3287328
-7239.5903 966.92084 9337.085 2696478
-7050.3345 948.89648 9163.0322 2762786
-7086.3159 961.14203 9281.2812 789515
-7033.0874 961.38458 9283.623 987148
-7012.9209 966.18591 9329.9873 1316114
-6893.8433 957.32806 9244.4521 526598
-6678.1431 934.80316 9026.9404 790026
-6659.9419 939.78369 9075.0342 2237471
-6722.0903 956.27551 9234.2881 2171420
-6642.2539 952.67377 9199.5078 1316367
-6559.0522 948.52582 9159.4521 2040090
-6342.7119 924.89417 8931.2539 2435101
-6280.4956 923.52856 8918.0664 3224617
-6062.793 899.08173 8681.9951 4014132
-5931.7427 887.17664 8567.0332 4935748
-5981.9272 902.40613 8714.0977 4540990
-5949.7798 905.37262 8742.7432 4409404
-5933.0552 910.75861 8794.7529 3883060
-5773.2598 894.08325 8633.7275 3554353
-5777.2974 902.70874 8717.0195 4606785
-5705.3057 899.50305 8686.0635 5001543
-5715.3184 909.28564 8780.5293 5922899
-5711.1626 916.97296 8854.7627 6120021
-5640.7603 914.06793 8826.71 5001796
-5649.9214 924.12231 8923.7998 4936259
-5603.9248 925.25946 8934.7812 5002051
-5416.4653 902.83875 8718.2754 3620398
-5274.5356 887.6485 8571.5898 6449240
-5246.9756 891.59705 8609.7188 5199429
-5239.6177 899.08972 8682.0723 4409911
-5201.8911 901.46826 8705.041 5067840
-5072.2275 887.80249 8573.0771 4804411
-4917.6685 869.45862 8395.9395 5396548
-4917.0669 878.23816 8480.7188 4607032
-4920.6899 887.96136 8574.6113 5264963
-4917.166 896.58423 8657.8779 4935484
-4934.5776 909.24664 8780.1533 5198145
-4902.0278 912.87488 8815.1895 5724491
-4884.3364 919.37811 8877.9873 3421993
-4908.0273 933.89716 9018.1904 2961186
-4994.4585 960.80548 9278.0312 2829601
-5011.2676 974.77032 9412.8828 2105878
-4836.6411 951.39307 9187.1406 4672060
-4664.6597 928.00983 8961.3398 3948337
-4516.8433 908.95093 8777.2969 4606267
-4543.6812 925.00391 8932.3135 5461062
-4376.8535 901.54437 8705.7754 5856077
-4444.4365 926.38489 8945.6484 5000768
-4334.4453 914.36523 8829.5811 4803389
-4232.5005 903.77008 8727.2686 4803389
-4295.9258 928.66132 8967.6309 4737853
-4116.7715 901.08014 8701.293 3685165
-4000.5684 886.75287 8562.9414 3751215
-3972.4619 891.83545 8612.0215 3158565
-3926.7834 893.05402 8623.7891 5987920
-3911.3733 901.27936 8703.2168 5527626
-3835.2651 895.55127 8647.9033 4277559
-3723.8298 881.30725 8510.3555 5067075
-3721.9294 892.95135 8622.7969 5395787
-3697.6331 899.47156 8685.7598 6382681
-3683.0833 908.58032 8773.7188 5198407
-3581.2573 896.11151 8653.3135 5264201
-3532.6704 896.79559 8659.9189 5329995
-3613.4429 930.82263 8988.502 6909027
-3573.1191 934.20697 9021.1826 5066824
-3470.3826 921.12805 8894.8857 4935237
-3461.7185 933.00006 9009.5283 6119510
-3266.645 894.21606 8635.0098 6053713
-3210.2837 892.77319 8621.0771 5527625
-3192.2439 902.11316 8711.2686 4869439
-3146.5603 903.81976 8727.748 5132611
-3074.0823 897.75824 8669.2148 5001282
-3024.2961 898.23029 8673.7734 3751215
-2985.9141 902.16437 8711.7627 5264456
-2915.3149 896.33148 8655.4375 4540476
-2850.1807 892 8613.6104 4936007
-2780.2161 885.97119 8555.3936 4935750
-2751.7224 893.1795 8625 5462606
-2636.4036 871.9447 8419.9463 5067594
-2587.1108 872.14886 8421.918 5988442
-2599.606 893.60034 8629.0645 5593684
-2476.2017 868.26062 8384.3711 4541251
-2472.9375 884.87195 8544.7783 6515039
-2435.1003 889.54834 8589.9355 5791316
-2342.2698 873.90607 8438.8857 5198922
-2310.6802 880.92889 8506.7021 5001030
-2236.229 871.55994 8416.2305 4080185
-2207.2241 879.88007 8496.5742 4475714
-2125.8735 867.23474 8374.4639 5856596
-2111.5256 881.97125 8516.7676 5133132
-2041.7992 873.73187 8437.2041 4803653
-1966.2085 862.50647 8328.8057 5066825
-1974.5667 888.47656 8579.5869 5395790
-1903.988 879.36224 8491.5742 4343616
-1845.439 875.45984 8453.8906 5133132
-1749.5981 853.15509 8238.5039 4540996
-1719.3392 862.46747 8328.4287 4475203
-1653.9484 854.18622 8248.4609 4738631
-1592.5311 847.51526 8184.0425 5001803
-1588.6819 872.02411 8420.7129 5988444
-1499.6564 849.85352 8206.6221 5725784
-1478.8082 866.12756 8363.7725 5527893
-1469.7872 890.69769 8601.0352 4936013
-1385.4144 869.72931 8398.5527 3356724
-1267.1152 825.1062 7967.6494 6251616
-1213.6763 820.8985 7927.0176 5791065
-1167.4554 821.43073 7932.1572 4278083
-1121.9067 822.50024 7942.4854 5001551
-1059.8264 811.013 7831.5586 4540743
-1021.45 817.44324 7893.6523 6448996
-995.37421 834.80713 8061.3271 5330515
-930.39093 819.64557 7914.9189 5330516
-899.34534 834.3595 8057.0039 5462357
-872.2782 854.62128 8252.6621 3883068
-802.25244 832.70093 8040.9883 5067342
-758.03381 836.49048 8077.5815 4606791
-703.1377 828.21387 7997.6587 6054238
-661.00812 834.86517 8061.8872 4935501
-612.26984 833.55579 8049.2427 5264722
-575.72443 850.02722 8208.2998 5264467
-524.36664 845.65082 8166.0391 4935502
-469.52499 834.19501 8055.415 4869966
-422.03934 834.69427 8060.2363 6054496
-382.67542 853.4339 8241.1963 6975598
-337.30075 862.29041 8326.7197 5331030
-291.89554 874.091 8440.6719 4936271
-233.97041 845.52777 8164.8501 7107184
-184.79225 841.92145 8130.0264 5462359
-135.68491 836.20807 8074.8545 5857117
-89.714325 854.13281 8247.9453 5528152
-41.029266 858.19104 8287.1338 5593945
8.1309137 863.37897 8337.2314 4146499
57.284248 859.55457 8300.3008 5396566
105.80023 854.11853 8247.8076 5593945
152.7617 843.53412 8145.5991 5132882
201.76001 846.57935 8175.0059 5198674
252.56717 854.56567 8252.125 5132881
299.79626 849.8183 8206.2822 3883071
343.78784 838.49982 8096.9854 4803916
392.56152 840.18896 8113.2969 5198674
447.99527 854.20856 8248.6768 5330261
492.85483 847.29089 8181.876 4869195
540.38593 845.79388 8167.4204 658187
568.73639 816.98999 7889.2754 131848
607.19647 805.98151 7782.9712 5
645.63519 796.50092 7691.4219 66056
697.69354 803.9649 7763.498 66056
745.70105 806.12628 7784.3696 6
801.53821 816.00671 7879.7803 7895419
844.35272 812.27148 7843.7114 1250072
887.33441 809.07849 7812.8779 6
930.92261 806.72778 7790.1787 10
996.41754 822.68646 7944.2832 14672093
1064.0173 838.86456 8100.5068 13685202
1095.0603 826.06885 7976.9448 13619411
1131.1935 818.01306 7899.1543 13488594
1188.3002 825.16174 7968.186 8421278
1240.4097 828.42645 7999.7114 4935767
1311.8765 843.90302 8149.1611 5593432
1363.5938 846.02722 8169.6733 4804170
1399.2194 838.36395 8095.6738 4541253
1462.7192 847.35663 8182.5112 4277309
1504.6277 843.66553 8146.8682 4474688
1543.0795 838.32599 8095.3066 5066570
1519.8652 800.81671 7733.0977 4014138
1600.6078 818.67468 7905.5439 4738374
1633.4589 811.71814 7838.3677 6119770
1665.3689 804.69177 7770.5171 6185562
1722.8306 810.0575 7822.3315 4606272
1758.3473 805.09424 7774.4033 3948339
1776.7184 792.73425 7655.0493 4145719
1782.2466 775.40228 7487.6826 4540476
1841.0011 781.50708 7546.6333 4738111
1881.5575 779.78021 7529.9585 3290411
1867.604 756.0661 7300.9629 5329992
1893.7448 749.28979 7235.5273 5987923
1956.8939 757.13232 7311.2593 4606013
2023.6666 766.00665 7396.9541 5198150
2093.0801 775.48322 7488.4644 3882033
2154.9944 781.84534 7549.8999 4540218
2136.832 759.4873 7334 5066563
2188.5969 762.37921 7361.9258 4869184
2326.2522 794.49261 7672.0288 5724492
2358.613 790.10254 7629.6362 4606012
2377.7153 781.51971 7546.7559 4277046
2433.553 785.10529 7581.3799 4342839
2436.8486 771.91718 7454.0293 3816494
2493.6013 775.83069 7491.8198 4408630
2462.499 752.75128 7268.9531 4343348
2540.2695 763.17419 7369.6025 4276785
2595.6479 766.63116 7402.9844 5329472
2557.9934 742.95239 7174.3301 5592644
2621.908 749.06567 7233.3628 5592898
2626.1682 738.21356 7128.5693 5922121
2723.7881 753.53271 7276.4995 5987660
2787.6189 759.17249 7330.96 6053199
2848.7273 763.90918 7376.6997 8356210
2799.0286 739.23785 7138.4609 7105888
2866.9412 745.90057 7202.7993 6316629
2938.9373 753.41455 7275.3579 6514010
3019.2051 762.80109 7365.9995 6711388
3101.0293 772.30774 7457.8008 6711646
3089.231 758.55823 7325.0278 4869444
3105.6389 752.01984 7261.8901 6250839
3147.3286 751.69836 7258.7861 4934722
3174.6528 748.00092 7223.0815 5000516
3178.3347 738.90533 7135.25 4211259
3239.489 743.23456 7177.0547 4013881
3344.6292 757.41241 7313.9634 5263948
3414.1426 763.26282 7370.4575 5856085
3448.9739 761.30975 7351.5986 5000775
3461.437 754.52972 7286.127 5264204
3493.3308 752.10004 7262.6646 4277054
3506.8569 745.82312 7202.0513 4869961
3561.0796 748.24829 7225.4697 5988442
3692.8679 766.72009 7403.8433 6975337
3662.4797 751.48212 7256.6978 8751234
3685.1379 747.35577 7216.8516 5198155
3735.7603 748.9303 7232.0557 3356207
3825.2681 758.17621 7321.3389 5329483
3832.3928 751.0694 7252.7119 4869187
3893.5625 754.59448 7286.752 5592908
3909.3728 749.34772 7236.0864 3948083
3950.7161 749.05585 7233.2681 4934719
3979.6592 746.44446 7208.0508 5658700
4028.1494 747.51587 7218.3975 6119251
4027.1394 739.4754 7140.7544 5724494
4079.5588 741.31104 7158.4805 5921873
4109.9561 739.14838 7137.5967 5724496
4192.6201 746.33386 7206.9834 3750450
4211.0552 742.05615 7165.6758 1776661
4251.5361 741.70996 7162.3325 4671553
4315.0137 745.3429 7197.4141 5461070
4293.7188 734.40509 7091.793 5593423
4347.1895 736.34326 7110.5093 5658961
4455.958 747.52112 7218.4482 6185305
4469.2583 742.62292 7171.1489 6382683
4576.3306 753.25177 7273.7866 5593168
4553.4746 742.49591 7169.9219 5132617
4548.1182 734.76611 7095.2788 5922133
4583.4331 733.68823 7084.8706 5790549
4619.8638 732.80707 7076.3613 4145465
4640.9111 729.52338 7044.6528 5131846
4769.6484 743.07568 7175.5205 4934979
4740.04 731.93732 7067.9629 4606270
4775.5293 730.95819 7058.5078 4737599
4838.5879 734.17926 7089.6123 5987666
4921.1699 740.28174 7148.5405 5395274
4761.5742 710.16071 6857.6763 6316632
4989.8525 737.909 7125.6284 5001030
4978.8604 730.10474 7050.2666 5527373
4914.4517 714.66254 6901.1484 4803650
4965.2046 716.08386 6914.8735 4606529
4931.1802 705.35535 6811.2739 6185050
4982.7695 706.94788 6826.6519 4672066
5041.9375 709.58124 6852.0811 5461071
5055.5337 705.81024 6815.6665 5395791
5162.02 714.96478 6904.0674 5987415
5166.709 709.98676 6855.9971 4868934
5225.9927 712.53003 6880.5562 5395278
5368.9297 726.35126 7014.021 5855828
5306.1558 712.34369 6878.7568 6447965
5459.6016 727.35559 7023.7192 4539968
5523.7798 730.33759 7052.5151 5000519
5505.6455 722.47351 6976.5752 5724242
5620.8149 732.08893 7069.4268 4539968
5714.2451 738.75153 7133.7642 4276795
5798.6919 744.16339 7186.0239 4671553
5863.7207 747.02252 7213.6333 4671295
5760.4062 728.54907 7035.2441 5197896
5667.4678 711.64392 6871.9995 4539966
5664.4912 706.19568 6819.3882 4671552
5772.8584 714.60754 6900.6172 4671551
5835.6172 717.29498 6926.5688 5000773
5844.7974 713.40521 6889.0073 4803138
5854.3799 709.61816 6852.4375 4671551
5896.4824 709.79797 6854.1738 4473659
5907.105 706.21173 6819.5435 4737086
6017.7983 714.55676 6900.1274 4408123
6047.7227 713.26331 6887.6372 3881777
6031.8901 706.62683 6823.5518 3881777
5925.2476 689.51129 6658.2754 3815984
5893.272 681.2536 6578.5352 4342328
5899.8823 677.53564 6542.6328 5197637
6002.4312 684.81177 6612.8945 4474170
6016.6733 681.98401 6585.5884 4342328
6091.7871 686.04803 6624.8325 4013364
6058.7539 677.95856 6546.7163 4145207
6211.2837 690.604 6668.8271 5066309
6299.7764 696.01459 6721.0742 5131846
6251.9009 686.38538 6628.0903 4539965
6300.3101 687.38153 6637.709 4803394
6321.585 685.42316 6618.7983 4868931
0 0 0 0
0 0 0 0
0 0 0 0
-7276.4282 868.19708 7929.9531 3948859
-7382.9067 886.62799 8098.2979 263688
-7515.2837 908.43054 8297.4385 263951
-7461.4395 907.86218 8292.2471 263951
-7635.2568 935.17023 8541.6738 461077
-7565.8135 932.84937 8520.4756 2106674
-7532.1074 934.93317 8539.5088 3619904
-7235.5591 904.19891 8258.7871 5396815
-7336.1934 923.01837 8430.6807 5791567
-7161.561 907.22516 8286.4287 5396808
-7294.4912 930.44482 8498.5127 7042147
-7338.5415 942.57141 8609.2754 3488300
-7321.1772 946.9245 8649.0352 3816496
-7321.0054 953.57837 8709.8105 3947828
-7285.8467 955.73724 8729.5293 3684655
-7165.2676 946.64166 8646.4512 5658447
-7024.0381 934.66705 8537.0781 6710363
-6912.0371 926.4364 8461.9004 5592138
-6968.6245 940.8468 8593.5225 5855568
-6840.4976 930.34723 8497.6211 5790029
-6808.3755 932.84589 8520.4434 6185041
-6720.3989 927.67181 8473.1846 6381650
-6590.1011 916.534 8371.4531 7040094
-6512.0107 912.54303 8335.001 7106400
-6494.5986 917.0592 8376.251 5922125
-6438.0449 916.07532 8367.2646 6448982
-6567.3037 941.72083 8601.5059 5988175
-6494.9727 938.63446 8573.3154 7040863
-6430.5615 936.65302 8555.2168 5725003
-6290.9858 923.6048 8436.0371 6185554
-6365.96 942.09882 8604.958 5988175
-6273.7041 935.94324 8548.7344 5790795
-6091.4409 916.15045 8367.9502 6053968
-6145.7168 931.90009 8511.8047 6317139
-6007.8975 918.5412 8389.7871 6053968
-6061.2866 934.43689 8534.9756 5988431
-5985.4526 930.51086 8499.1162 5593417
-5805.4189 910.18164 8313.4326 5593418
-5711.9985 903.20007 8249.6641 6317142
-5619.4702 896.24011 8186.0928 5659211
-5612.7939 902.97064 8247.5684 6185556
-5568.9375 903.78528 8255.0098 5856337
-5567.5171 911.56262 8326.0459 4869696
-5484.2314 905.95532 8274.8301 4606523
-5481.9233 913.74451 8345.9746 4146228
-5428.8989 913.14502 8340.499 6382934
-5407.6538 917.92877 8384.1934 7172451
-5404.3735 925.87915 8456.8105 7369572
-5206.7822 900.37726 8223.8809 6514778
-5195.6533 906.94196 8283.8418 5264711
-5122.6416 902.72675 8245.3408 5856847
-5039.085 896.55414 8188.9614 7106913
-5036.9736 904.89325 8265.1289 5593160
-5077.1089 921.06012 8412.7949 5264451
-4897.9785 897.37537 8196.4619 5330244
-4724.75 874.30823 7985.7715 4540728
-4829.0298 902.64636 8244.6064 6448725
-4903.0586 925.85156 8456.5586 6514518
-4869.9385 929.09381 8486.1729 5988174
-4814.0024 928.00562 8476.2334 4343349
-4865.9087 947.90265 8657.9688 4343093
-4778.9272 940.87939 8593.8203 4737597
-4750.6152 945.38019 8634.9297 5000769
-4749.1074 955.37122 8726.1855 4803648
-4680.9102 952.01855 8695.5635 5461579
-4539.4321 933.52136 8526.6133 6580059
-4484.4863 932.60315 8518.2266 5724750
-4424.0513 930.50946 8499.1035 5396040
-4350.5029 925.57776 8454.0576 5790798
-4217.2734 907.68585 8290.6367 7566439
-4290.1045 934.24548 8533.2275 6711129
-4297.2896 946.97266 8649.4746 5132609
-4170.0928 930.0365 8494.7832 5790284
-4139.5513 934.50641 8535.6104 1974290
-4023.9102 919.638 8399.8057 1909012
-3949.7871 914.0047 8348.3516 5264198
-3889.1853 911.39697 8324.5332 5527369
-3879.8618 920.89337 8411.2715 5067075
-3843.5979 924.15924 8441.1016 5461833
-3829.0229 932.79504 8519.9795 4672317
-3704.4084 914.4964 8352.8428 4606524
-3608.7756 902.95367 8247.4141 4935746
-3572.8311 906.23364 8277.3721 5198661
-3535.4871 909.24512 8304.8779 5922386
-3444.4099 898.32751 8205.1592 6316889
-3345.5837 885.04724 8083.8599 6711646
-3299.5991 885.56311 8088.5718 6448476
-3300.4277 898.84338 8209.8711 6448475
-3366.802 930.63898 8500.2861 6316888
-3319.5132 931.50476 8508.1943 6185302
-3232.2764 921.01447 8412.3779 5856337
-3094.7913 895.65332 8180.7339 6053971
-2952.136 867.96497 7927.833 5922383
-3057.1973 913.3905 8342.7412 5725261
-3004.1511 912.29559 8332.7412 5396039
-2863.8306 884.2179 8076.2842 4606780
-2873.4124 902.25525 8241.0342 5659212
-2844.8955 908.74646 8300.3242 4277559
-2733.9746 888.68066 8117.0464 4869442
-2685.5225 888.56519 8115.9922 4540480
-2600.2844 876.05219 8001.7007 5395788
-2577.0032 884.33563 8077.3604 4342844
-2497.3311 873.21509 7975.7871 4211255
-2405.7849 857.43359 7831.6416 4474683
-2375.2957 863.22015 7884.4951 4737855
-2333.8418 865.17438 7902.3438 4935235
-2248.0217 850.42474 7767.624 5988438
-2227.3618 860.22382 7857.1274 5725524
-2183.8059 861.40997 7867.9609 6646625
-2134.7466 860.42975 7859.0078 6317403
-2091.8062 861.92694 7872.6836 4343099
-2092.6436 881.94269 8055.5029 3948341
-2019.8146 871.12152 7956.6646 5330765
-1967.6467 868.90692 7936.437 5725523
-1957.6674 885.67041 8089.5518 6120281
-1892.5643 877.711 8016.8516 5922904
-1828.181 869.68402 7943.5342 5395788
-1816.3702 886.90289 8100.8091 5396303
-1798.4459 901.9906 8238.6172 5856856
-1713.4238 883.3291 8068.1665 6646629
-1684.145 893.15875 8157.9487 6514786
-1583.3114 864.49994 7896.1846 4409410
-1563.1748 879.49878 8033.1802 5330512
-1491.3577 865.44897 7904.8525 5329998
-1454.7808 871.60144 7961.0479 5330256
-1430.8112 885.97278 8092.3135 5593428
-1359.8623 871.24213 7957.7661 3290930
-1304.7842 865.98651 7909.7622 6646374
-1242.1088 855.10889 7810.4077 6777960
-1195.4648 854.85309 7808.0718 3356724
-1142.9711 850.22504 7765.7998 6185566
-1090.1499 844.95496 7717.6641 5659478
-1052.5043 851.50073 7777.4517 5988443
-1004.639 849.99945 7763.7393 6515043
-953.95007 845.85028 7725.8418 5725527
-895.22626 833.79932 7615.77 6185821
-841.67432 825.54138 7540.3442 5330513
-814.49561 843.67554 7705.978 5922650
-754.87036 828.35876 7566.0771 4869962
-717.67542 837.27576 7647.5234 5330512
-682.68976 850.14606 7765.0786 4869962
-641.89136 857.11505 7828.7324 5198927
-584.46735 841.2403 7683.7354 5396562
-546.41803 852.92578 7790.4683 5396305
-503.83414 859.03674 7846.2842 5856858
-465.20941 873.82678 7981.3745 6317409
-405.58832 848.06268 7746.0493 6251618
-365.3418 861.40363 7867.9033 5856859
-315.39374 852.42743 7785.916 5922652
-260.72104 825.41687 7539.2065 5264722
-223.3936 853.50427 7795.752 6646374
-176.79094 851.5614 7778.0054 6186080
-131.16051 854.58246 7805.5996 5856859
-86.540344 871.06433 7956.1426 5133136
-39.358311 870.35162 7949.6328 4936013
7.7261448 867.34735 7922.1919 4935756
54.903378 870.97437 7955.3203 3488311
102.68604 876.41748 8005.0366 4278084
147.4133 860.58331 7860.4106 5922139
198.70306 881.46533 8051.1431 5067087
246.82521 882.92963 8064.5176 5396308
289.97534 869.01831 7937.4546 4409413
335.25839 864.49042 7896.0977 5001293
383.28027 867.26892 7921.4756 5329743
424.68628 856.10449 7819.5015 4606277
473.68787 860.94189 7863.686 4079678
520.05194 860.5484 7860.0913 5461844
553.25592 840.23322 7674.5366 6119519
583.51642 818.87378 7479.4434 6317411
630.52429 822.37323 7511.4062 6054240
690.49438 841.20264 7683.3906 5001809
738.92462 844.51337 7713.6304 4014401
766.01276 824.46765 7530.5366 5988190
858.98352 873.63531 7979.6255 5725018
894.81421 862.58978 7878.7373 4869454
934.23389 855.92786 7817.8887 5987680
985.81134 860.50781 7859.7212 5856618
1044.7249 870.78937 7953.6309 6315122
1091.0297 870.12726 7947.5835 7631240
1137.955 869.99451 7946.3706 8026509
1121.1414 823.07867 7517.8501 6579822
1229.6356 868.22711 7930.2271 5330002
1261.3365 857.82483 7835.2153 6316638
1291.5073 847.15765 7737.7827 6119257
1331.4218 843.3941 7703.4072 4014652
1379.1783 844.68298 7715.1802 5856342
1433.5272 849.79712 7761.8916 5593171
1453.9431 835.10327 7627.6802 4409410
1485.4448 827.47076 7557.9663 4146494
1547.0259 836.55029 7640.8975 2961707
1564.1768 821.7713 7505.9087 5658707
1591.3282 812.9184 7425.0479 5527377
1655.083 822.7373 7514.7314 7172202
1705.3196 825.49768 7539.9448 6053719
1696.9452 800.46973 7311.3442 6251098
1732.426 796.86011 7278.374 4211515
1755.8171 787.99988 7197.4468 5395789
1762.818 772.37866 7054.7651 7106150
1791.16 766.61517 7002.1226 7106148
1854.7631 775.86273 7086.5879 5527372
1892.9597 774.30835 7072.3911 4803391
1944.6766 778.23199 7108.2285 4145461
1961.45 768.30176 7017.5273 3422251
1982.0605 760.25568 6944.0361 4540476
2046.5652 769.03088 7024.1875 4737854
2096.9941 772.27252 7053.7959 5593164
2172.4338 784.41833 7164.7329 2435101
2216.959 785.14972 7171.4141 4408375
2274.8621 790.50238 7220.3042 2829341
2276.5791 776.49359 7092.3506 4473908
2330.0876 780.33746 7127.4595 3750186
2348.084 772.36334 7054.6255 2895135
2393.8193 773.63281 7066.2207 3158564
2430.1416 771.86884 7050.1089 4605752
2476.7046 773.36224 7063.749 5658695
2519.426 773.62628 7066.1611 5592901
2562.6729 774.04047 7069.9438 5198396
2571.1401 764.10535 6979.1987 3618853
2608.0969 762.81744 6967.4351 5198141
2666.4583 767.73248 7012.3281 4540212
2723.2043 772.03888 7051.6616 3816489
2746.3623 766.83655 7004.1445 4540212
2748.0935 755.89532 6904.21 4803385
2774.2639 751.89899 6867.708 6711388
2859.9497 763.91522 6977.4619 5066563
2925.1125 770.18518 7034.7305 7632493
3003.7236 779.77014 7122.2773 6579292
3026.8389 774.88226 7077.6328 6579292
2977.4312 751.81561 6866.9463 5066308
3038.7771 756.95978 6913.9321 5000771
3099.1167 761.71973 6957.4087 6843233
3214.5967 779.72949 7121.9062 6382940
3244.7847 776.85217 7095.626 5329996
3209.5959 758.59662 6928.8823 5461584
3252.4216 759.00812 6932.6416 5066824
3140.2314 723.68512 6610.0073 6316890
3315.1414 754.58124 6892.207 4935491
3430.0356 771.23102 7044.2827 5066561
3444.3032 765.12689 6988.5293 3553323
3496.5254 767.49908 7010.1958 4145461
3553.6489 770.8786 7041.064 4079926
3646.6765 781.87793 7141.5298 6053719
3645.2998 772.61597 7056.9331 6580319
3688.9043 772.98981 7060.3472 5461069
3705.2192 767.70081 7012.0391 5724493
3714.689 761.12671 6951.9922 4934975
3823.6436 774.8573 7077.4048 4605495
3850.4675 771.8269 7049.7256 4737077
3808.7854 755.27686 6898.5605 5658179
3769.4609 739.54083 6754.8306 5263678
3846.9265 746.80817 6821.209 8158833
3977.991 764.22137 6980.2578 6514009
4015.0779 763.40765 6972.8257 7040098
4057.5452 763.62311 6974.7935 6776926
4059.0212 756.19751 6906.9697 7369320
4120.2114 759.93384 6941.0967 5000517
4148.7485 757.63342 6920.085 5921619
4133.7144 747.4989 6827.5186 5658700
4201.7954 752.44501 6872.6948 5329737
4224.3115 749.21478 6843.1909 5790290
4337.4478 761.96539 6959.6523 5264201
4341.3223 755.4624 6900.2554 5593165
4377.5308 754.65491 6892.8799 5593422
4404.6846 752.31586 6871.5156 6316889
4481.9854 758.50623 6928.0571 5395273
4506.7422 755.77277 6903.0898 5329480
4549.543 756.0871 6905.9614 5658702
4600.3809 757.7196 6920.8721 5131586
4530.8105 739.66638 6755.9771 5263427
4463.7852 722.34125 6597.7324 4999999
4637.8765 743.99615 6795.5249 5658186
4602.4277 731.95392 6685.5332 4473655
4784.1631 754.36255 6890.2095 4144690
4862.9019 760.28894 6944.3398 4934718
4846.9248 751.43182 6863.4409 5395269
4803.8608 738.55768 6745.8506 5526600
4822.9214 735.36841 6716.7207 4868669
4846.1138 732.8562 6693.7744 3223848
4976.021 746.39185 6817.4062 3487020
4913.8418 731.12878 6677.9966 5460810
4896.749 722.76453 6601.5991 4671295
5034.8457 737.25745 6733.9746 6053205
5010.394 727.90747 6648.5737 4803140
5148.4551 742.12897 6778.4702 4671554
5067.8755 724.85803 6620.7207 5461327
5096.6777 723.37726 6607.1953 5855828
5092.5942 717.28705 6551.5684 5724242
5199.5537 726.81091 6638.5581 5066053
5249.6758 728.30658 6652.2192 4934724
5439.2715 748.98541 6841.0952 4276536
5547.0493 758.17523 6925.0337 4934465
5533.4971 750.76843 6857.3813 4539195
5555.6934 748.28455 6834.6938 4670525
5493.2617 734.52069 6708.9775 4605245
5569.4702 739.35944 6753.1738 4802881
5665.5244 746.74493 6820.6318 4605502
5509.6865 721.0603 6586.0332 4605759
5522.6084 717.66754 6555.0439 4737088
5583.9844 720.57483 6581.5986 4736574
5583.458 715.50909 6535.3291 4210486
5704.1279 725.93726 6630.5776 4144692
5752.9731 727.14435 6641.6035 3223591
5810.5049 729.42566 6662.4404 4078900
5976.8052 745.23834 6806.8706 4671036
5844.7002 723.88068 6611.7935 4408120
5880.9761 723.52307 6608.5273 4210742
5919.7583 723.47644 6608.1016 4539707
5857.499 711.1629 6495.6318 4868672
5891.3755 710.60596 6490.5444 4737342
5881.3838 704.79919 6437.5068 4671293
5938.3271 707.0368 6457.9443 5066051
5897.0742 697.62897 6372.0151 4802878
5760.7168 677.16156 6185.0698 4605500
6011.6099 702.18573 6413.6362 5000258
6052.8433 702.56006 6417.0547 4473914
6084.7915 701.85864 6410.6484 4276791
6168.8115 707.13501 6458.8418 4342327
0 0 0 0
0 0 0 0
0 0 0 0
0 0 0 0
-7533.6909 953.70837 8263.6924 1712154
-7355.9697 937.30304 8121.5439 3488314
-7555.6064 969.0816 8396.8984 4080706
-7635.2568 985.79004 8541.6738 4146498
-7644.3286 993.54828 8608.8975 5396560
-7441.5073 973.68555 8436.791 5857365
-7090.0439 933.97351 8092.6938 6646620
-7080.6372 939.08655 8136.9976 6975585
-7052.7642 941.80389 8160.5425 6646874
-7086.1147 952.79071 8255.7412 6844767
-6976.688 944.59924 8184.7637 7041374
-6970.7432 950.40192 8235.043 6843738
-7077.3721 971.7431 8419.96 5396036
-7077.4214 978.64978 8479.8047 7237728
-7045.0957 981.14636 8501.4375 6974558
-6888.2793 966.21674 8372.0752 6382422
-6738.4512 952.05792 8249.3916 6711387
-6770.2236 963.53754 8348.8604 6842460
-6732.061 965.15955 8362.915 6776923
-6752.5664 975.2793 8450.6006 7566695
-6643.1162 966.64026 8375.7451 7500644
-6583.105 965.11926 8362.5664 7632230
-6375.4785 941.7699 8160.2485 7303777
-6318.8506 940.53912 8149.584 6382675
-6213.4673 931.97638 8075.3896 5461574
-6305.354 953.09961 8258.418 5330246
-6094.9097 928.49634 8045.2354 5856590
-6180.0522 948.88959 8221.9395 6777692
-6006.8999 929.63324 8055.0859 6119762
-5995.4727 935.29736 8104.1655 6251349
-5871.0112 923.27728 8000.0132 7238241
-5846.8296 926.95984 8031.9219 5856588
-5899.3682 942.96606 8170.6128 5659209
-5739.0991 924.94 8014.4209 6053967
-5746.9028 933.92664 8092.2881 6448982
-5804.7788 951.2702 8242.5664 6580569
-5676.7368 938.18188 8129.1587 5725260
-5502.1372 917.10907 7946.5674 5725003
-5423.8657 911.86737 7901.1489 5856590
-5390.8838 914.21478 7921.4883 5198660
-5328.0063 911.48901 7897.8706 4013873
-5335.6948 920.89392 7979.3623 4540216
-5328.0347 927.79443 8039.1538 4145460
-5289.5229 929.39868 8053.0542 4408888
-5291.144 938.14777 8128.8633 4145459
-5126.603 917.32568 7948.4438 2632220
-5051.5703 912.28192 7904.7407 5132867
-5051.7554 920.85486 7979.0229 5396038
-5068.4795 932.633 8081.0786 4474937
-5014.9512 931.58563 8072.0034 1777172
-4853.6431 910.30396 7887.6021 5132866
-4890.7456 926.18231 8025.1846 6646104
-4878.2075 932.87946 8083.2144 6646105
-4769.0977 921.05853 7980.7881 6711897
-4634.479 904.02496 7833.1953 6711896
-4755.3599 936.98981 8118.8296 4737850
-4741.9565 943.89899 8178.6968 4408885
-4788.2583 962.95825 8343.8408 5001279
-4682.354 951.48578 8244.4346 6514518
-4593.4688 943.2663 8173.2139 6185555
-4555.8481 945.51086 8192.6631 5922384
-4486.1528 941.07544 8154.231 6120019
-4504.2017 955.15027 8276.1865 5198661
-4285.7095 918.82251 7961.4136 4606524
-4282.7256 928.40344 8044.4302 6382935
-4234.7139 928.32916 8043.7871 7369829
-4125.8901 914.77026 7926.3022 6053970
-4125.6064 925.24127 8017.0308 5725005
-4161.54 944.1731 8181.0713 5987406
-4238.3623 972.93756 8430.3096 4408631
-4120.3955 957.13989 8293.4268 5856077
-3980.916 935.90332 8109.416 6842972
-3870.7036 921.11255 7981.2559 7566696
-3741.5054 901.38184 7810.2935 7040866
-3668.322 894.82043 7753.4404 5724750
-3629.2478 896.51868 7768.1553 6053971
-3622.4541 906.33698 7853.229 5790798
-3596.6648 911.59631 7898.8003 6317141
-3661.8184 940.34839 8147.9312 6383190
-3565.5459 927.86102 8039.7305 5922382
-3474.2166 916.33917 7939.8955 5593416
-3414.5251 912.96002 7910.6162 5725003
-3369.0833 913.34991 7913.9951 5067074
-3338.5615 917.85266 7953.0103 5330246
-3261.5637 909.52399 7880.8442 5132610
-3220.3792 911.08545 7894.3735 5263942
-3199.3621 918.48267 7958.4692 3750957
-3179.9746 926.57605 8028.5962 5329733
-3061.7266 905.67188 7847.4658 5198404
-3059.061 918.84003 7961.5649 5725006
-2941.835 897.47137 7776.4106 5922126
-2906.8152 900.90082 7806.1255 4737853
-2884.0781 908.30933 7870.3188 5395783
-2836.1035 907.88245 7866.6201 5461575
-2773.2332 902.59332 7820.7905 5659211
-2759.7339 913.46594 7915.0005 6119762
-2689.4414 905.59131 7846.7681 5198661
-2635.5845 903.07098 7824.9302 5396296
-2586.8611 902.25098 7817.8247 5198407
-2536.8049 900.92773 7806.3589 5132614
-2469.4614 893.30176 7740.2812 5395527
-2390.6169 881.14807 7634.9722 5395527
-2347.949 882.11676 7643.3657 3948594
-2292.1377 878.0885 7608.4619 4606270
-2223.6838 868.95831 7529.3506 5527372
-2114.6907 843.28809 7306.9229 4935235
-2197.9331 894.80609 7753.3159 5329994
-2123.8052 883.08862 7651.7866 4343098
-2050.2207 871.09076 7547.8276 6053716
-2040.0681 886.10962 7677.9634 6382681
-1993.6837 885.71722 7674.563 4869442
-1978.9634 899.70215 7795.7393 5132613
-1914.6868 891.28711 7722.8247 5329993
-1850.6953 882.59583 7647.5171 6251352
-1792.3761 876.24139 7592.4565 5395786
-1749.8073 877.45782 7602.9966 4409146
-1733.7396 892.37903 7732.2856 4408890
-1658.3889 876.76807 7597.0205 3816754
-1604.4515 871.92285 7555.0376 5461582
-1531.1709 855.98584 7416.9468 6120027
-1536.1409 884.1449 7660.9395 5527633
-1475.2975 874.98578 7581.5771 5198669
-1412.4041 863.99719 7486.3633 5527891
-1412.1254 891.84082 7727.6226 6317407
-1377.8878 899.38507 7792.9922 5462098
-1332.8243 900.14111 7799.543 6448993
-1274.2767 891.51764 7724.8223 6251614
-1234.1877 895.64673 7760.6001 6843751
-1151.1071 867.68909 7518.353 6251870
-1080.2947 847.09985 7339.9517 5462098
-1065.5992 870.63275 7543.8589 4935496
-1009.8821 861.2428 7462.4966 5856598
-956.48553 853.06226 7391.6147 6251614
-903.18146 844.18304 7314.6777 6777957
-891.51312 875.28644 7584.1821 5527893
-809.18848 836.63928 7249.312 5462100
-770.56342 841.3736 7290.334 6514787
-741.05743 857.21887 7427.6304 6383202
-698.22803 858.68024 7440.293 6843752
-665.46942 873.55847 7569.21 6580580
-621.9613 875.45691 7585.6592 5791065
-566.95172 860.2005 7453.4658 6646374
-526.39105 866.14069 7504.9365 5593685
-486.46353 874.31543 7575.769 6054235
-436.18912 863.66522 7483.4868 6580580
-388.56223 856.43988 7420.8804 6843753
-352.83655 876.94965 7598.5938 6185823
-302.34061 861.37952 7463.6816 5198928
-259.70325 866.69922 7509.7759 5528149
-206.57657 831.97406 7208.8887 6317666
-169.1982 859.10333 7443.959 7896697
-127.32896 874.52417 7577.5776 7699318
-85.036278 902.2558 7817.8662 6580581
-38.664856 901.29816 7809.5684 4409412
7.5695033 895.75928 7761.5752 3422517
53.592319 896.19513 7765.3521 6186081
99.021545 890.88782 7719.3652 5133394
142.50423 876.95587 7598.6475 7830650
189.32425 885.3208 7671.1279 7106925
234.22293 883.20135 7652.7637 7041132
282.86072 893.58185 7742.708 6185823
332.61987 904.11243 7833.9541 4935497
374.44608 893.14166 7738.894 4540483
419.24698 890.88617 7719.3506 5198928
465.9613 892.7403 7735.417 6711910
502.50192 876.51636 7594.8394 5528148
517.60614 828.64203 7180.0176 6580580
569.8324 842.95569 7304.043 6975338
623.66785 857.46075 7429.7261 8028281
657.9696 844.96753 7321.4751 7633523
699.19757 842.36444 7298.9199 5462097
750.45776 851.4469 7377.6177 5791061
798.34491 855.91315 7416.3169 6448993
835.58331 849.09235 7357.2158 6843751
900.27069 869.45752 7533.6763 6646373
965.06873 888.00018 7694.3442 6844009
977.67017 859.00812 7443.1343 6448994
1032.8944 868.35229 7524.0991 7304304
1096.3948 883.59265 7656.1543 6843752
1071.5249 829.2337 7185.145 6777957
1112.9662 828.38574 7177.7969 7172456
1156.5841 829.16058 7184.5107 6580061
1247.5432 862.61444 7474.3813 6382682
1249.6207 834.42407 7230.1182 7040613
1283.2941 828.50146 7178.7998 6119768
1363.3243 851.92676 7381.7754 6317406
1385.5656 838.90649 7268.9575 6383200
1405.7726 825.47687 7152.5923 8028281
1458.6953 831.48199 7204.6255 6646374
1535.0801 850.13898 7366.2847 5396561
1560.9105 840.54095 7283.1196 6514530
1620.2811 849.03479 7356.7168 4804168
1669.2429 851.77203 7380.4351 4079930
1671.7791 831.28455 7202.9146 5724755
1703.2698 825.85632 7155.8804 5329997
1712.0935 809.96844 7018.2148 3421999
1717.6096 793.3064 6873.8418 4737345
1718.8848 775.50317 6719.5801 6645341
1803.6254 795.31012 6891.2036 6447962
1876.3684 809.06683 7010.4028 6776925
1910.3656 805.88275 6982.8135 7303783
1929.7184 796.78705 6904.0005 5987923
1964.9226 794.47821 6883.9951 7435622
2019.6694 800.00415 6931.876 5790798
2072.8572 804.70459 6972.6045 6909024
2145.906 816.78088 7077.2437 7040611
2164.1931 807.9502 7000.7271 6382681
2186.9624 801.09344 6941.3149 3684911
2248.511 808.4328 7004.9087 4539705
2248.7927 793.87726 6878.7886 2763549
2292.0205 794.7312 6886.187 3487528
2316.4209 789.14124 6837.7515 3224100
2367.9583 792.82928 6869.7075 4145202
2399.895 789.9411 6844.6821 5000511
2460.5188 796.43451 6900.9463 5000769
2466.6829 785.37592 6805.1255 4737599
2498.2598 782.63422 6781.3696 7040352
2587.2576 797.68292 6911.7637 6250835
2634.6987 799.6499 6928.8066 5263683
2679.0217 800.62457 6937.252 4868924
2652.8667 780.82574 6765.6992 5592649
2722.5962 789.41827 6840.1519 6185042
2751.6072 786.12561 6811.6216 6185043
2771.4409 780.34406 6761.5254 4540218
2796.0447 776.05127 6724.3296 6776926
2865.5691 784.17181 6794.6924 3684653
2884.4177 778.39191 6744.6104 3223846
2891.1528 769.54572 6667.96 5263428
2930.8582 769.59546 6668.3911 4539705
3085.0488 799.30597 6925.8267 5987408
3153.7754 806.38409 6987.1572 5856593
3162.8997 798.23663 6916.5615 6119510
3172.6531 790.45435 6849.1294 5922131
3185.3767 783.59937 6789.7324 5725010
3130.3828 760.4649 6589.2764 5790287
3166.7268 759.8158 6583.6519 4211251
3229.9272 765.54785 6633.3193 4343093
3336.2209 781.23315 6769.229 4605753
3388.7043 784.09479 6794.0244 4474424
3398.9312 777.2265 6734.5122 3618859
3493.8694 789.66357 6842.2773 2039575
3582.0754 800.31122 6934.5371 3750703
3579.1594 790.58972 6850.3018 3619117
3516.5061 768.03888 6654.9038 4276790
3677.6465 794.32507 6882.668 4210995
3695.188 789.35919 6839.6396 3157792
3721.5356 786.36176 6813.6675 3552293
3669.8345 767.11401 6646.8896 3815722
3700.9668 765.40594 6632.0898 5592134
3768.2527 771.13226 6681.7075 5526854
3864.0303 782.50952 6780.2886 4868924
3884.8486 778.6286 6746.6616 3290150
3933.5801 780.36432 6761.7012 5132355
3965.9375 778.84943 6748.5752 5724493
4040.5959 785.58911 6806.9731 5658701
4117.272 792.58386 6867.5815 5921619
4053.6216 772.69318 6695.2324 5066821
4174.0332 787.93341 6827.2856 5527373
4194.8354 784.2583 6795.4414 5987668
4270.5493 790.82147 6852.3105 6316890
4223.6812 774.77515 6713.272 5658447
4310.3569 783.29657 6787.1084 5526861
4361.3203 785.23047 6803.8652 5329737
4360.9141 777.96484 6740.9102 5527115
4380.5547 774.37506 6709.8052 5395273
4394.0073 769.76569 6669.8662 5658187
4441.6392 771.17291 6682.0591 5131841
4484.8291 771.79077 6687.4131 4342326
4487.9478 765.5625 6633.4463 5066049
4463.0933 754.71204 6539.4292 5395271
4496.5601 753.82556 6531.748 5592393
4685.3262 778.76727 6747.8633 5066564
4800.5474 791.16602 6855.2959 5724494
4708.0869 769.41644 6666.8403 5592907
4857.5513 787.23633 6821.2456 6053715
4917.2925 790.34106 6848.1479 5329479
4975.8066 793.1994 6872.9146 4934719
4997.2148 790.14423 6846.4424 5131844
4982.7031 781.50446 6771.5806 3618605
4934.7769 767.80383 6652.8672 4013363
5083.6431 784.69666 6799.2402 4144951
5025.4111 769.60809 6668.5005 3487021
4997.3481 759.33917 6579.5225 3684657
4903.5176 739.31335 6406.0024 4144953
5116.7368 765.53394 6633.1987 5066312
5092.9614 756.16748 6552.0405 4342589
5144.293 758.00983 6568.0039 5329482
5173.2637 756.55432 6555.3921 4342330
5161.3569 749.18695 6491.5557 4868929
5400.0791 778.03912 6741.5537 5131845
5416.4551 774.6673 6712.3374 4934465
5460.9263 775.3335 6718.1099 4605243
5519.0068 777.90839 6740.4204 4144693
5521.8179 772.71185 6695.394 3946543
5458.6729 758.4256 6571.6064 4275765
5496.6553 758.29285 6570.4565 4604473
5525.9336 756.9696 6558.9907 4341558
5521.0493 751.01782 6507.4194 4473144
5551.8472 749.96869 6498.3291 4473144
5614.188 753.16565 6526.0298 4144179
5659.1763 754.00684 6533.3188 3420456
5743.2339 760.00665 6585.3062 3683628
5672.9326 745.63696 6460.7954 3552295
5756.3677 751.53113 6511.8677 5131327
5813.9575 753.99512 6533.2173 3946543
5763.2764 742.47803 6433.4238 3025698
5787.8008 740.7373 6418.3408 3486249
5782.2104 735.19031 6370.2773 3157284
5771.0703 729.01416 6316.7622 3749419
5710.8774 716.76111 6210.5923 3749418
5808.9741 724.40442 6276.8198 3947054
5720.0317 708.77429 6141.3877 3815211
5884.833 724.58466 6278.3813 3486245
5895.7417 721.36694 6250.5005 5065534
5895.1807 716.7948 6210.8838 5065791
5974.4863 721.93011 6255.3804 4538936
0 0 0 0
0 0 0 0
0 0 0 0
0 0 0 0
-7165.7183 953.70624 7860.0645 4936259
-7267.1782 973.53821 8023.5112 5659726
-7275.1455 981.02429 8085.209 5791312
-7119.5073 966.40192 7964.6973 6712416
-6860.9272 937.51788 7726.646 7634032
-6720.3501 924.47852 7619.1812 7634291
-6775.2598 938.33661 7733.394 6975591
-6727.4482 938.0603 7731.1167 7173484
-6749.3296 947.56464 7809.4473 7239273
-6772.3882 957.36658 7890.2314 5923154
-6732.7612 958.3819 7898.5991 5922641
-6762.9463 969.4184 7989.5571 4540731
-6751.6172 974.61774 8032.4082 3553836
-6748.6523 981.10699 8085.8906 6513752
-6674.0938 977.20642 8053.7437 6250837
-6517.1367 961.09814 7920.9854 6448217
-6467.667 960.7226 7917.8901 6316630
-6443.8828 964.18488 7946.4248 6184530
-6474.6509 975.92072 8043.147 6513751
-6393.376 970.81714 8001.0854 6185041
-6339.7261 969.86353 7993.2261 6381652
-6342.4121 977.5788 8056.812 7303267
-6215.9116 965.34802 7956.0112 7237731
-6197.6313 969.86572 7993.2441 7961453
-6075.6069 958.09302 7896.2183 6448470
-5975.2524 949.5813 7826.0684 6843486
-6004.2676 961.65674 7925.5889 6185811
-5877.1602 948.72028 7818.9717 6119762
-5839.2603 950.09308 7830.2861 7106657
-5758.6401 944.48114 7784.0347 6514520
-5702.0342 942.74915 7769.7603 7040864
-5638.6465 939.85846 7745.936 6514520
-5577.8975 937.36377 7725.376 6646104
-5518.7798 935.10425 7706.7539 6646105
-5430.9424 927.90009 7647.3804 5790795
-5440.9443 937.43164 7725.9355 5659210
-5382.7705 935.27905 7708.1948 6448727
-5241.4746 918.52325 7570.1001 6119762
-5212.5889 921.34705 7593.373 6185555
-5148.8013 917.9975 7565.7671 6251348
-5120.9292 921.04865 7590.9136 6185557
-5074.3481 920.75909 7588.5269 6382935
-5093.8604 932.56445 7685.8223 5790798
-5071.3462 936.81952 7720.8901 6053970
-5008.4199 933.61859 7694.5103 5725005
-4874.9214 917.08276 7558.2285 6909279
-4864.6924 923.64514 7612.313 5988691
-4853.3198 930.11121 7665.603 6777950
-4810.8633 930.68597 7670.3403 6712156
-4735.7822 924.90021 7622.6567 6514520
-4580.313 903.15204 7443.4165 6053970
-4635.8701 922.99579 7606.9609 5922383
-4541.2925 913.04419 7524.9438 5988176
-4536.7441 921.17548 7591.9585 5527625
-4481.5981 919.09308 7574.7964 4540730
-4517.7104 935.87317 7713.0908 4935488
-4504.478 942.66968 7769.1055 5922383
-4466.29 944.3302 7782.791 5461832
-4446.7051 949.99969 7829.5161 5790797
-4387.4556 947.22546 7806.6523 4935487
-4375.5815 954.72913 7868.4946 4934975
-4234.6548 933.93262 7697.0977 5000768
-4253.7134 948.35114 7815.9302 4869182
-4141.4268 933.48193 7693.3838 5263684
-4048.521 922.69891 7604.5142 5856077
-4040.9255 931.3349 7675.6885 5724491
-3913.6543 912.27118 7518.5728 5461319
-3983.0171 939.13153 7739.9458 5658697
-3851.4812 918.6972 7571.5342 5395524
-3869.7971 933.94684 7697.2153 5263681
-3858.2068 942.25641 7765.6997 4803130
-3848.1821 951.15381 7839.0278 5921354
-3706.0205 927.20911 7641.6855 5724490
-3537.0444 895.88031 7383.4858 6382421
-3569.2278 915.35559 7543.9937 6185556
-3474.1182 902.2655 7436.1104 5527369
-3489.1328 917.80719 7564.1982 5263941
-3485.7024 928.83807 7655.1108 5856333
-3409.925 920.62738 7587.4414 4079664
-3407.1211 932.16229 7682.5078 5461318
-3342.8562 926.96661 7639.687 5658442
-3303.7683 928.70575 7654.0205 5198404
-3256.4875 928.15808 7649.5063 5067331
-3155.6741 912.12183 7517.3423 5198916
-3109.1812 911.55194 7512.646 4935488
-3057.595 909.45068 7495.3276 5198403
-3013.6125 909.58246 7496.4136 5264197
-2905.324 890.01849 7335.1758 5527626
-2888.1868 898.20782 7402.6685 6843488
-2780.7058 878.12006 7237.1133 7040867
-2677.406 858.74396 7077.4229 6251605
-2766.0986 901.31024 7428.2378 5856335
-2707.3389 896.43011 7388.0176 5461576
-2599.332 874.81537 7209.8774 6316885
-2575.363 881.23401 7262.7773 6251605
-2643.1145 919.78912 7580.5332 5988177
-2533.5166 896.89374 7391.8384 5067332
-2482.7903 894.40057 7371.291 6185556
-2426.3438 889.72064 7332.7207 6317398
-2327.0295 868.86414 7160.8296 7896174
-2292.5327 871.88373 7185.7158 6514521
-2218.8027 859.81427 7086.2446 3027492
-2226.554 879.46338 7248.1841 6053715
-2196.6721 884.72845 7291.5767 4540732
-2155.2996 885.48376 7297.8022 2895652
-2089.3914 875.98358 7219.5054 5724494
-2020.9176 864.98816 7128.8853 4474683
-1993.7822 871.59436 7183.3315 5659213
-1943.3757 868.09387 7154.4814 6053715
-1889.2153 862.72284 7110.2158 6843231
-1859.1874 868.3786 7156.8276 6382938
-1835.0103 877.09491 7228.6646 6251610
-1801.175 881.50128 7264.9795 5396301
-1755.084 879.97839 7252.4287 4343099
-1705.1473 876.40247 7222.958 4211514
-1658.4221 874.33551 7205.9229 5659212
-1584.7236 857.56317 7067.6914 5264709
-1539.3768 855.63873 7051.8311 4935231
-1476.869 843.802 6954.2778 4738108
-1448.5652 851.38916 7016.8076 4474935
-1426.6604 863.29675 7114.9453 6382422
-1397.7931 871.58826 7183.2812 6185301
-1364.5778 877.60431 7232.8628 5658960
-1315.3506 873.37891 7198.0386 5658701
-1294.8759 888.60144 7323.4966 4606014
-1211.8358 860.45581 7091.5312 4803392
-1175.2433 864.45227 7124.4692 5724495
-1137.983 868.2373 7155.6631 3684910
-1081.8107 857.32751 7065.7495 5329990
-1029.3544 848.60272 6993.8428 4869184
-989.21478 849.72583 7003.0991 4935233
-967.56915 867.52899 7149.8257 4869442
-926.375 868.63287 7158.9238 5066823
-880.37073 865.11584 7129.938 5658962
-844.83154 872.04651 7187.0576 5922133
-787.4837 856.00677 7054.8647 4079672
-742.28851 852.11908 7022.8237 6053716
-695.5788 845.9278 6971.7974 6185303
-656.99231 849.4574 7000.8867 5329995
-623.95319 861.11871 7096.9951 5264459
-574.17291 849.69128 7002.8149 5593168
-535.28955 853.86554 7037.2173 6251613
-488.08246 844.34564 6958.7583 6975337
-447.93936 846.41656 6975.8257 7238765
-407.10614 847.47198 6984.5244 6777958
-366.85577 850.11707 7006.3237 7106926
-327.20206 854.99634 7046.5366 6909546
-289.23633 866.35925 7140.1851 6514785
-243.65524 854.89709 7045.7192 6712165
-204.79132 867.13629 7146.5894 4343617
-161.8147 863.80298 7119.1177 5396306
-122.86736 887.21368 7312.0591 7698803
-78.535683 876.07135 7220.229 6909543
-35.763645 876.47766 7223.5776 7896438
6.9366174 863.01581 7112.6304 7501681
48.928268 860.21503 7089.5469 8028025
89.992165 851.22644 7015.4668 7106923
129.32751 836.73517 6896.0361 6910053
172.98573 850.45587 7009.1162 5790801
218.77721 867.32019 7148.1055 5594192
265.55774 881.99823 7269.0757 7370348
310.12274 886.24744 7304.0957 7764852
346.33066 868.49847 7157.8164 8685955
391.21118 873.99829 7203.1436 7633267
425.84476 857.77576 7069.4434 4145724
470.56332 862.95367 7112.1182 5922648
510.79498 859.72845 7085.5366 6975336
553.18671 860.35254 7090.6802 6975336
591.11566 854.43774 7041.9331 7961975
628.85052 849.04108 6997.4561 8093817
680.5415 861.9892 7104.1694 7304811
716.44232 854.59363 7043.2183 7041381
767.71576 865.33984 7131.7837 6646623
812.5343 868.06836 7154.2715 6844003
841.12958 854.05389 7038.7695 7567985
899.82263 870.47998 7174.1465 5857369
929.67963 858.78674 7077.7759 5725271
983.68298 869.44519 7165.6187 5198925
1032.698 874.99512 7211.3584 7041129
1070.2479 870.77545 7176.582 6711650
1098.511 859.61133 7084.5713 6777187
1115.9299 841.0957 6931.9731 7106407
1172.1542 852.10461 7022.7046 6382683
1217.8857 854.99255 7046.5054 6645852
1246.7272 846.22455 6974.2432 7633004
1275.1532 837.74634 6904.3691 7567212
1298.9943 826.87677 6814.7866 7172711
1355.7351 836.97363 6898.001 7501935
1427.7671 855.64325 7051.8682 7830645
1487.3708 866.01465 7137.3457 7370094
1521.1895 861.21442 7097.7837 7041129
1546.3002 851.87531 7020.814 8225403
1555.261 834.36139 6876.4717 7699313
1615.9792 844.79968 6962.4995 7830129
1644.0588 838.08008 6907.1201 7566959
1688.2324 839.69189 6920.4038 9146246
1650.4569 801.43402 6605.0981 8290679
1687.6565 800.51215 6597.5 8817279
1749.2572 810.94415 6683.4766 8817022
1796.8219 814.55133 6713.2051 7369576
1858.3777 824.20734 6792.7866 8224885
1904.6179 826.80536 6814.1978 8553850
1960.0099 833.18579 6866.7827 7961968
1982.6141 825.6524 6804.6958 6448474
2014.3302 822.13831 6775.7339 5593420
2054.5605 822.16864 6775.9839 9409670
2084.0215 817.97095 6741.3882 9606538
2173.7825 837.15344 6899.4829 8290676
2208.5049 834.82288 6880.2754 5461062
2223.6653 825.31641 6801.9268 6119250
2255.8223 822.34442 6777.4326 5593162
2287.4507 819.28705 6752.2354 2500636
2276.6289 801.39203 6604.7515 7369316
2355.4978 815.14008 6718.0576 8026988
2422.8794 824.52203 6795.3799 6974557
2426.5972 812.28613 6694.5361 7895915
2415.4839 795.5592 6556.6797 7500901
2507.4319 812.76855 6698.5122 6711128
2520.2959 804.20642 6627.9463 5790537
