# .PCD v0.7 - Point Cloud Data file format
VERSION 0.7
FIELDS x y z rgb
SIZE 4 4 4 4
TYPE F F F U
COUNT 1 1 1 1
WIDTH 1278
HEIGHT 1
VIEWPOINT 0 0 0 1 0 0 0
POINTS 1278
DATA ascii
-2937.635 876.9342 4171.3306 10074055
-2935.0952 883.61151 4203.0933 10204615
-2892.4868 878.23737 4177.5298 8820394
-2873.2485 879.92749 4185.5688 10401995
-2894.761 894.23541 4253.6279 10664909
-2834.2622 883.23779 4201.3154 10468558
-2845.0325 894.4516 4254.6562 9809347
-2837.4104 900.0318 4281.1997 9940677
-2823.4661 903.68909 4298.5962 9940934
-2789.2402 900.86255 4285.1514 10006726
-2776.1973 904.88861 4304.3022 9875142
-2697.4875 887.38702 4221.0518 10006473
-2658.0046 882.58289 4198.2002 9744071
-2702.6306 905.88 4309.0181 9678277
-2699.8638 913.58484 4345.6675 9743558
-2674.1392 913.59467 4345.7144 9940939
-2551.218 880.07538 4186.2725 9875658
-2528.3174 880.74011 4189.4346 9809351
-2519.2017 886.26758 4215.7271 9874631
-2506.9875 890.80487 4237.3096 9676737
-2475.3506 888.46252 4226.168 9479356
-2443.9312 886.15137 4215.1743 9609913
-2420.8733 886.85547 4218.5234 8688552
-2447.9873 906.14587 4310.2827 9346225
-2400.9678 898.11261 4272.0708 8819623
-2402.8799 908.40656 4321.0361 6713988
-2407.1768 919.83368 4375.3916 6055809
-2383.1836 920.58167 4378.9497 5464960
-2347.9534 916.9577 4361.7114 4806775
-2334.1216 921.70276 4384.2822 3688038
-2300.7817 918.76465 4370.3066 3028822
-2269.2952 916.50824 4359.5732 2963285
-2241.8518 915.85144 4356.4492 3291479
-2219.8669 917.4353 4363.9834 3488087
-2162.2373 904.15143 4300.7954 2961483
-2152.9751 911.01703 4333.4531 3421518
-2142.3853 917.47974 4364.1948 4211032
-2109.397 914.39111 4349.5029 3487049
-2078.7793 912.26642 4339.3965 3816015
-2070.2258 919.89258 4375.6719 3618123
-2048.9785 922.00037 4385.6978 3420487
-2023.7253 922.3363 4387.2959 4144211
-1984.9998 916.46112 4359.3491 4077905
-1955.6075 914.79675 4351.4326 3090753
-1906.05 903.52899 4297.835 2300978
-1865.1339 896.10791 4262.5347 3156287
-1826.2499 889.47266 4230.9727 2958906
-1819.8311 898.68494 4274.793 3090235
-1798.4912 900.68488 4284.3062 3089972
-1754.7697 891.37286 4240.0112 4143176
-1729.6583 891.38098 4240.0503 4406350
-1702.6316 890.38782 4235.3257 4406345
-1667.4956 885.06067 4209.9863 4471883
-1623.9915 875.06262 4162.4282 5063505
-1610.0911 880.95374 4190.4507 5918556
-1581.1433 878.66742 4179.5752 6510947
-1566.2963 884.26898 4206.2202 6642276
-1550.3619 889.42804 4230.7603 7299690
-1514.2992 883.01929 4200.2759 7562089
-1518.0266 899.98651 4280.9844 8153454
-1486.5702 896.31689 4263.5288 8810610
-1472.9913 903.48572 4297.6289 9336695
-1453.5217 907.2301 4315.4399 8876141
-1424.7487 905.19769 4305.7725 8481383
-1402.1428 907.08093 4314.7305 8152418
-1381.8126 910.53369 4331.1543 8350053
-1329.1368 892.3999 4244.897 7955552
-1327.8842 908.75867 4322.7109 8613482
-1283.002 895.315 4258.7632 8416103
-1248.0291 888.38568 4225.8022 8810604
-1244.7032 904.16125 4300.8423 9205105
-1225.5745 908.87695 4323.2734 9534071
-1186.2352 898.48608 4273.8472 9403000
-1150.1444 890.15601 4234.2231 8876657
-1124.5302 889.74353 4232.2612 6376780
-1101.5432 891.43842 4240.3232 6310987
-1083.6118 897.39917 4268.6768 7626844
-1044.3705 885.57507 4212.4331 8087651
-1020.6901 886.69 4217.7363 7298136
-1012.5172 901.67078 4288.9956 7561052
-971.44611 887.37183 4220.9795 7956068
-967.40729 907.03851 4314.5288 7101274
-940.06677 905.33234 4306.4126 7561822
-905.50702 896.38428 4263.8496 7363929
-864.099 879.94879 4185.6704 6706253
-837.45154 878.01721 4176.4824 6968913
-811.15369 876.3457 4168.5317 7034707
-791.59937 882.08362 4195.8252 6705745
-760.38971 874.78479 4161.1069 6705748
-729.823 867.76123 4127.6978 7166555
-696.4079 856.74646 4075.3035 6574416
-685.3548 873.43903 4154.7051 5784898
-651.61761 861.38892 4097.3862 6245191
-628.38293 862.82703 4104.2271 5982275
-604.36505 863.26215 4106.2964 6706511
-566.05212 842.45844 4007.3391 6509649
-537.43683 834.89771 3971.375 4076338
-503.46542 817.94281 3890.7251 3156269
-471.25803 802.36383 3816.6201 1314323
-457.47015 818.15607 3891.7395 3155756
-430.53845 810.87042 3857.0837 3484207
-397.99002 791.59607 3765.4011 2825762
-373.14313 786.26007 3740.0193 2891042
-353.70319 792.36285 3769.0486 4338484
-339.4241 811.62891 3860.6919 6969947
-314.84583 807.27264 3839.9705 7495518
-295.4707 816.6181 3884.4238 4469036
-285.38196 855.37677 4068.7878 4863282
-261.34003 855.60779 4069.887 5652030
-242.3851 874.23358 4158.4849 5060152
-218.81413 878.54205 4178.979 4994358
-194.34186 879.86981 4185.2944 5060150
-167.49864 869.28119 4134.9277 5455165
-142.30492 865.09113 4114.9966 3087903
-114.52551 840.19843 3996.5889 5061179
-90.267151 834.89203 3971.3481 1904144
-66.919197 837.23291 3982.4829 1905171
-42.936432 829.85522 3947.3892 918533
-19.70981 836.92279 3981.0078 458753
3.8857782 837.63135 3984.3779 1115140
27.300623 831.61737 3955.7712 3350816
51.084911 837.21484 3982.397 5390139
74.458282 834.66833 3970.2839 4402476
99.987976 851.71271 4051.3589 4269866
126.67509 870.10663 4138.854 3480862
152.98318 880.35193 4187.5879 4927794
178.54453 884.03961 4205.1294 4862002
201.37558 874.96124 4161.9458 4730416
225.26791 871.97198 4147.7271 3743778
252.77849 882.19861 4196.3721 3612449
277.76544 882.57471 4198.1611 4862260
303.71878 885.70709 4213.061 4665908
327.03571 881.25928 4191.9043 3941928
353.09131 884.2984 4206.3604 4138795
382.8981 895.71185 4260.6509 4665137
409.18674 897.99225 4271.498 6309191
431.36749 891.51709 4240.6978 5519931
451.13828 881.04828 4190.9004 5453882
481.68399 891.617 4241.1729 5059637
504.94629 888.32397 4225.5088 5191479
529.77692 887.97095 4223.8296 5059893
548.69214 878.18219 4177.2671 5980484
580.23083 888.57013 4226.6797 4928567
601.33441 882.7793 4199.1343 4205614
625.12549 881.23724 4191.7993 5389634
646.612 876.68854 4170.1621 5060926
673.34235 879.32263 4182.6919 4600375
706.33716 889.6601 4231.8643 5389635
743.53821 904.40485 4302.001 4402996
779.36761 916.5589 4359.8145 4666680
811.92584 924.20935 4396.2056 4469301
835.46393 921.43585 4383.0127 3088674
859.31647 919.16595 4372.2153 2365468
880.33936 914.09082 4348.0742 327682
899.66351 907.59045 4317.1543 196616
931.0141 913.2467 4344.0591 196621
963.89191 920.05615 4376.4502 131085
994.08655 924.01489 4395.2803 65805
1014.2781 918.71075 4370.0503 394768
1033.64 912.93805 4342.5913 2369332
1059.9537 913.43677 4344.9634 2764608
1049.0477 882.59753 4198.2695 2698816
1067.5469 877.35358 4173.3257 1646639
1102.5353 885.59192 4212.5132 1515050
1108.0233 870.29443 4139.7471 527382
1129.1639 867.68744 4127.3467 2632761
1157.8275 870.84955 4142.3877 1053986
1195.8654 880.78467 4189.6465 592399
1219.7279 880.08746 4186.3301 329746
1243.7473 879.52905 4183.6738 13
1235.5505 856.6557 4074.8718 11
1257.899 855.43158 4069.0488 12
1274.3958 850.34894 4044.8718 13
1297.8262 849.995 4043.1885 460820
1325.5436 852.41071 4054.6792 1514793
1338.0748 845.14868 4020.136 1975345
1413.0588 876.89667 4171.1523 1909040
1446.3804 882.14325 4196.1089 2633794
1479.9977 887.38989 4221.0654 2567486
1480.6678 873.03558 4152.7861 3488326
1508.1664 874.71075 4160.7544 3224896
1561.1345 890.86633 4237.6021 724502
1545.5214 867.99377 4128.8037 2764605
1575.4948 871.03741 4143.2812 2172472
1619.4209 881.58331 4193.4453 1844538
1629.3085 873.56042 4155.2827 3424085
1638.7372 865.53418 4117.104 6056061
1698.0453 883.70172 4203.522 4016223
1718.6515 881.49377 4193.0195 3685970
1739.3628 879.40198 4183.0693 4475999
1747.8271 871.26398 4144.3594 5462893
1790.1755 880.00812 4185.9526 5397355
1795.8921 870.75214 4141.9243 4411231
1838.9686 879.61572 4184.0859 4411234
1881.6427 888.05353 4224.2222 3161170
1898.4814 884.23669 4206.0664 4608873
1922.8895 883.99847 4204.9336 6385281
1912.9685 868.18646 4129.7202 7700370
1928.3181 864.0979 4110.272 3883862
1966.4449 870.19073 4139.2539 1646385
1985.0452 867.599 4126.9258 592922
1999.0392 863.08154 4105.4375 2961214
2020.5691 861.88727 4099.7568 592664
2053.4673 865.513 4117.0034 10
2057.2141 856.91083 4076.0852 268
2023.3333 833.01697 3962.4287 197901
2088.6423 850.03973 4043.4014 132367
2105.7173 847.26849 4030.2195 1251106
2139.4658 851.19324 4048.8882 1777193
2185.7515 859.96344 4090.6057 197639
2209.2085 859.65808 4089.1531 4
2219.0535 854.12 4062.8101 1251619
2242.241 853.78131 4061.1987 3949139
2302.7205 867.49872 4126.4487 4412522
2343.125 873.44446 4154.731 3885924
2366.4553 872.96808 4152.4648 5135734
2367.1902 864.25183 4111.0044 3687259
2346.1912 847.85925 4033.0293 2238527
2474.0361 885.04346 4209.9043 2304836
2530.4368 896.1825 4262.8896 1647163
2517.7297 882.8681 4199.5566 2831438
2599.9512 902.776 4294.2529 3818337
2628.8887 903.97565 4299.9595 2831953
2551.8276 869.05334 4133.8438 1318200
2595.2012 875.42047 4164.1304 3620950
2663.4392 889.97601 4233.3672 1251373
2637.9785 873.24298 4153.7729 987940
2668.8875 875.30695 4163.5903 1053218
2721.3323 884.3313 4206.5166 461081
2761.8191 889.34119 4230.3472 2303545
2745.6775 876.18988 4167.7905 1316910
2755.4844 871.47992 4145.3862 725286
2777.6133 870.71576 4141.7515 921626
2817.4846 875.47821 4164.4048 2699851
2850.3235 877.99164 4176.3608 3291988
2830.2656 864.30823 4111.2725 1778234
2889.3142 874.80975 4161.2251 2436676
2909.7793 873.55023 4155.2344 2633542
3007.1306 895.20032 4258.2178 1515318
3098.459 914.7121 4351.0298 3291217
3127.7234 915.73077 4355.8755 2567494
3087.0442 896.42242 4264.0308 527389
3045.1523 877.07825 4172.0161 2106167
3021.5312 863.26575 4106.314 14
3041.1162 861.91949 4099.9102 273
3086.9019 867.96161 4128.6509 527127
3137.0259 875.11902 4162.6963 2369598
3152.6807 872.62396 4150.8281 3883092
3191.2988 876.47424 4169.1431 2172731
3233.5713 881.26141 4191.9141 2041404
3282.2258 887.70166 4222.5483 2699591
3323.7251 892.1239 4243.584 3752795
3303.4395 880.02045 4186.0112 2436680
3293.3845 870.80261 4142.1646 1976386
3376.218 886.1001 4214.9302 2568265
3382.7588 881.29651 4192.0811 3555674
3399.1223 879.10333 4181.6489 3160402
3415.7192 877.00195 4171.6533 1318454
3435.4299 875.72449 4165.5767 3752794
3381.1448 855.73761 4070.5044 2173764
3507.0693 881.32025 4192.1938 3950433
3474.8062 867.07037 4124.4111 3358553
3502.9231 867.98096 4128.7427 5726588
3526.2517 867.70056 4127.4092 1646392
3545.873 866.51819 4121.7847 3489368
3534.5767 857.84814 4080.5437 3488855
3589.3755 865.22833 4115.6494 4146527
3545.7319 848.93933 4038.1667 1843515
3527.894 839.00574 3990.916 856877
3545.8101 837.651 3984.4714 1975098
3631.156 852.13818 4053.3831 4080737
3594.7212 838.04395 3986.3408 3226200
3694.3257 855.64178 4070.0488 2502478
3671.5068 844.84088 4018.6716 3028565
3673.2388 839.79199 3994.6558 3687011
3673.0139 834.36334 3968.833 593962
3621.8745 817.51147 3888.6736 1976137
3672.7952 823.76355 3918.4131 5727109
3715.4968 828.10535 3939.0657 4868969
3826.2095 847.45648 4031.1135 1381431
3904.4478 859.41943 4088.0178 1250092
0 0 0 0
0 0 0 0
0 0 0 0
0 0 0 0
0 0 0 0
0 0 0 0
-3829.9641 920.04657 4256.4185 10336203
-3785.3333 915.3537 4234.708 10270411
-3752.0144 913.35199 4225.4473 10204875
-3705.051 907.97949 4200.5928 10270925
-3677.9626 907.43805 4198.0879 10336718
-3646.9897 905.92432 4191.0845 10336719
-3618.5366 905.01978 4186.9004 10402512
-3620.0574 911.65143 4217.5801 10270927
-3573.437 906.16742 4192.2095 10533584
-3543.7109 904.92072 4186.4419 10336205
-3507.6934 902.03857 4173.1079 10139084
-3466.7686 897.84436 4153.7046 10204620
-3452.6833 900.59119 4166.4121 10073035
-3413.7036 896.83734 4149.0459 9875915
-3374.2007 892.89062 4130.7866 9744329
-3347.9663 892.42291 4128.623 9810379
-3306.6565 887.90027 4107.7002 9942221
-3272.1567 885.15283 4094.9895 9942476
-3236.7446 882.11566 4080.9385 9810631
-3212.5203 882.10461 4080.8877 9744324
-3163.1697 875.14197 4048.6763 9415102
-3129.8625 872.54547 4036.6638 9020343
-3099.499 870.7359 4028.2925 9019318
-3054.0503 864.62756 4000.0332 8163750
-3053.3328 871.18628 4030.3762 6979475
-3035.3191 872.87482 4038.1875 7440544
-3008.8008 872.12488 4034.718 9283521
-3000.0959 876.56775 4055.2722 4413548
-2980.8237 877.96979 4061.7585 4348021
-2978.2566 884.35498 4091.2986 4411756
-2940.0098 880.16351 4071.9072 4475748
-2867.1458 865.45337 4003.8538 8485764
-2897.5154 881.91895 4080.0286 10129038
-2881.8958 884.5462 4092.1831 9470074
-2858.5596 884.82941 4093.4932 11115153
-2784.8335 869.38641 4022.0493 11050131
-2802.4348 882.43414 4082.4121 9143174
-2784.6633 884.47382 4091.8481 1578524
-2789.6555 893.84308 4135.1934 2103582
-2742.6453 886.56854 4101.5391 1379090
-2683.8301 875.31384 4049.4712 1576727
-2637.1411 867.8465 4014.925 2169377
-2600.1643 863.46851 3994.6714 2235425
-2582.5347 865.49402 4004.0415 1840411
-2586.0452 874.7074 4046.6658 1774369
-2559.9412 873.98273 4043.3132 1905692
-2556.8401 881.172 4076.5728 2168866
-2522.707 877.70172 4060.5183 3220789
-2534.7 890.36725 4119.1128 3155255
-2538.2109 900.27069 4164.9292 4009792
-2487.7532 891.03864 4122.2192 4404293
-2479.6638 896.94916 4149.563 5587538
-2406.5181 879.21002 4067.4963 6705503
-2323.8376 857.59314 3967.49 6507609
-2310.3584 861.33362 3984.7944 7955310
-2293.5657 863.9032 3996.6821 8087151
-2264.0034 861.66638 3986.334 8087408
-2302.6045 885.59857 4097.0518 8482681
-2357.5942 916.41125 4239.6006 8944003
-2357.2522 926.14813 4284.6465 6970467
-2359.7234 937.21454 4335.8428 6706777
-2309.6479 927.42468 4290.5522 6903644
-2261.3691 918.14655 4247.6284 5586754
-2215.7344 909.74493 4208.7603 5323838
-2163.6318 898.46625 4156.5815 6573650
-2114.7041 888.26147 4109.3711 5718598
-2096.4167 890.83905 4121.2954 5587269
-2085.5317 896.65979 4148.2241 5521476
-2075.4912 902.98694 4177.4956 5455683
-2052.1392 903.60547 4180.3569 6902872
-2002.5399 892.54059 4129.1675 6047306
-2005.2124 904.78796 4185.8276 5718597
-1969.6635 899.87982 4163.1211 5981512
-1950.661 902.50281 4175.2559 5981511
-1932.1884 905.44128 4188.8501 5126458
-1924.4805 913.56653 4226.4399 6244938
-1936.9194 931.59589 4309.8496 7428955
-1869.6069 911.23676 4215.6616 6442571
-1884.1223 930.74872 4305.9302 6903378
-1834.9193 918.88782 4251.0576 7166293
-1790.6022 909.17731 4206.1343 7166293
-1755.5052 903.94031 4181.9062 7166293
-1731.0476 904.11023 4182.6924 6903119
-1703.9713 902.89746 4177.0815 6705483
-1680.4935 903.5838 4180.2568 6902604
-1649.0187 899.92639 4163.3364 6902861
-1619.6809 897.34192 4151.3799 6836810
-1601.1469 900.75549 4167.1724 6968140
-1571.3632 897.84833 4153.7227 7297359
-1548.5872 898.9162 4158.6631 6967881
-1514.7609 893.50061 4133.6089 7296589
-1493.6432 895.52655 4142.9814 7362639
-1469.7711 895.9411 4144.8994 6507589
-1457.1287 903.33148 4179.0894 7626071
-1422.7018 897.23889 4150.9033 7625816
-1399.8837 898.38177 4156.1909 8152159
-1389.5632 907.72992 4199.438 8152159
-1383.0205 919.93152 4255.8867 7691349
-1337.0773 905.89215 4190.936 7164490
-1319.4918 910.89771 4214.0933 6769474
-1301.8124 916.03033 4237.8384 7361355
-1273.6688 913.85687 4227.7832 7295563
-1243.5286 910.13489 4210.564 7493198
-1212.8271 905.84125 4190.7002 7493198
-1160.4028 884.80438 4093.3774 7822420
-1158.5347 902.24121 4174.0459 7625040
-1121.5261 892.47528 4128.8657 9072742
-1111.0043 903.82129 4181.3555 6375231
-1085.8739 903.52936 4180.0049 8283230
-1054.1691 897.62573 4152.6929 7231057
-1027.7383 896.03796 4145.3477 8547173
-1003.9828 896.76227 4148.6982 8678760
-980.49725 897.7699 4153.3599 8547430
-961.43622 902.98499 4177.4863 7560535
-933.55231 899.97021 4163.5391 7428435
-915.51141 906.53833 4193.9253 8547173
-882.1333 897.8623 4153.7876 8218208
-850.98041 891.01813 4122.124 8810089
-821.46222 885.53156 4096.7417 8744552
-795.65521 883.83331 4088.885 7560022
-772.24359 884.77283 4093.2312 8546917
-738.83514 873.94812 4043.1531 7823194
-722.80603 883.64459 4088.012 7757145
-701.05066 886.7702 4102.4722 7428180
-665.18335 871.62885 4032.4231 7297620
-653.30341 887.96228 4107.9868 7560534
-623.85944 880.76324 4074.6819 8284512
-598.23712 878.59723 4064.6611 7889756
-558.39233 854.48529 3953.1121 7232340
-528.23883 843.74127 3903.4067 3614757
-499.28601 834.01868 3858.4272 3023136
-473.2583 828.48358 3832.8201 262144
-445.91672 819.9743 3793.4534 1182220
-422.20309 817.58704 3782.4094 853254
-398.57339 815.10358 3770.9202 2693915
-376.35184 815.37604 3772.1804 2429715
-353.42407 814.05615 3766.0745 5916484
-332.53662 817.57465 3782.3518 5915710
-310.22528 817.84808 3783.6169 5258293
-290.28735 824.90851 3816.2805 7823193
-275.26877 848.32245 3924.6006 6507845
-255.38297 859.67401 3977.1167 6310468
-235.65121 873.90521 4042.9548 5455158
-211.75948 874.18469 4044.2473 5718331
-186.16191 866.5946 4009.1335 5126451
-165.09662 880.96826 4075.6306 4271657
-140.39265 877.52484 4059.7 4665902
-113.79216 858.35132 3970.9976 983553
-90.292778 858.67078 3972.4753 2298638
-66.450195 854.80078 3954.5715 1707532
-42.831108 851.15515 3937.7058 1773840
-19.611853 856.23834 3961.2222 524545
3.8616159 855.88824 3959.6025 852225
27.478037 860.6167 3981.4778 983040
50.536095 851.56738 3939.613 3547423
74.261238 855.92603 3959.7773 4269604
98.453964 862.28662 3989.2034 4138787
123.46125 871.93689 4033.8484 5914172
148.69116 879.7735 4070.103 4466469
173.66823 884.13519 4090.2815 4993842
198.19395 885.41217 4096.1895 5059378
222.02638 883.65118 4088.0425 5454137
242.95064 871.80109 4033.2202 4467756
273.36255 893.06976 4131.6157 4796466
299.59738 898.31689 4155.8906 5191480
318.14157 881.45886 4077.9001 5191736
346.52823 892.32605 4128.1748 4731696
371.26013 892.9693 4131.1509 10324355
400.54349 903.8031 4181.2715 9271667
419.07935 890.53632 4119.895 9205875
451.63721 906.88635 4195.5356 8152416
472.1427 898.59192 4157.1626 8218464
496.14011 897.4364 4151.8169 5980989
518.89093 894.24176 4137.0376 3810081
541.64618 891.34259 4123.625 4006948
559.46674 880.92365 4075.4241 5125431
589.20691 889.35889 4114.4478 4335403
614.12054 890.12781 4118.0054 5520959
640.10974 892.3374 4128.2275 4270894
665.03693 892.95831 4131.1001 3810085
690.45233 894.16742 4136.6938 5454910
714.33026 893.37073 4133.0078 4599857
738.49707 892.97626 4131.1831 5388604
770.1723 901.39471 4170.1294 5652546
794.21423 900.63367 4166.6084 5389890
818.92322 900.6521 4166.6938 4534580
840.25006 897.05878 4150.0698 4995648
882.61298 915.4892 4235.335 4339000
893.5871 901.24286 4169.4268 4075829
921.3772 904.26678 4183.4165 2695204
951.03223 908.91461 4204.9189 131076
965.8761 899.53131 4161.5088 196616
985.25824 894.73651 4139.3267 65549
1006.5047 891.82666 4125.8647 12
1027.0974 888.48926 4110.4248 11
1051.4578 888.49017 4110.4292 8
1082.8094 894.26514 4137.1455 658450
1095.3915 884.62604 4092.5525 1118999
1099.5802 868.77307 4019.2117 3948105
1140.465 881.97101 4080.2695 1448223
1168.5917 884.95941 4094.0945 3027517
1211.7505 898.97833 4158.9502 3027775
1235.7445 898.50366 4156.7544 1645864
1234.0249 879.71661 4069.8401 1185055
1252.761 875.953 4052.4285 395279
1273.3685 873.61493 4041.6118 7
1278.3823 860.8623 3982.614 131851
1317.0361 870.81451 4028.656 66058
1327.0201 861.79364 3986.9229 264
1375.2307 877.47931 4059.4893 1316900
1377.7368 863.96466 3996.9663 3685708
1398.24 862.00189 3987.8862 2239032
1435.1484 870.05005 4025.1194 3949653
1447.4886 863.18414 3993.3555 2370877
1501.5377 881.01141 4075.8301 3686484
1522.3687 879.09241 4066.9521 2963789
1528.556 868.909 4019.8406 3424341
1597.9307 894.40576 4137.7964 2897224
1597.0892 880.42419 4073.113 5003633
1591.4128 864.23303 3998.208 4608358
1661.2211 888.90826 4112.3633 6779786
1645.7623 867.90393 4015.1909 5858684
1705.1588 886.41113 4100.8105 6714505
1735.3585 889.43378 4114.7944 4147805
1771.2483 895.24847 4141.6953 5133929
1739.6567 867.26324 4012.2268 3751509
1776.6572 873.76654 4042.313 67098
1817.9752 882.19177 4081.2905 1052962
1864.2832 892.7854 4130.3003 1777199
1917.0872 906.17511 4192.2451 790553
1899.2828 886.2738 4100.1753 593174
1933.7745 890.97015 4121.9023 2830655
1943.1857 884.13794 4090.2944 4608860
1935.9579 869.99683 4024.873 1711144
1953.5085 867.19934 4011.9312 3028291
2015.0345 883.75598 4088.5273 1974831
2040.5099 884.2959 4091.0251 1053471
2024.9911 867.26611 4012.24 9
2036.9877 862.27924 3989.1689 1185313
2088.2029 873.81781 4042.5503 526868
2115.8823 875.35779 4049.6748 2238258
2131.5369 871.94434 4033.8828 2896957
2124.3333 859.35962 3975.6624 4804698
2176.27 870.71265 4028.1851 2896447
2189.4009 866.46204 4008.5198 2830654
2221.969 869.91217 4024.4817 1119523
2268.3118 878.62482 4064.7888 1382952
2331.5928 893.64618 4134.2822 2304567
2335.0217 885.65387 4097.3076 3357258
2356.4055 884.5661 4092.2754 3489104
2380.6306 884.55621 4092.2295 2371395
2399.8159 882.69287 4083.6091 4476259
2424.905 883.01642 4085.106 3291984
2467.7158 889.72333 4116.1338 4673634
2507.385 895.177 4141.3643 3554645
2551.0525 901.93884 4172.6465 2699333
2561.0405 896.77734 4148.7681 2830917
2566.1833 890.03369 4117.5698 1712431
2588.3945 889.28119 4114.0884 4870497
2643.157 899.62177 4161.9272 1843505
2643.134 891.29681 4123.4136 527126
2613.4795 873.22394 4039.8025 1449263
2671.9753 884.66467 4092.7312 3291467
2665.7788 874.6734 4046.5085 1054505
2670.9915 868.57043 4018.2742 2897738
2693.9468 868.29388 4016.9946 2042688
2694.3369 860.81293 3982.3855 2832464
2731.1394 864.99426 4001.7295 2963278
2785.2666 874.54321 4045.9062 2962762
2869.0911 893.17444 4132.0996 1777972
2909.2905 898.02417 4154.5361 2698814
2875.0547 880.00903 4071.1929 1514280
2962.1038 899.1084 4159.5522 328980
2943.8997 886.20776 4099.8701 592409
2917.8147 871.16547 4030.2795 15
2882.9185 853.75793 3949.7473 460310
2913.8977 855.98242 3960.0381 15
2956.8779 861.66846 3986.3435 13
2996.0144 866.1532 4007.0913 11
3037.9026 871.35657 4031.1641 268
3085.8889 878.21423 4062.8896 263439
3075.4136 868.45703 4017.7495 1908525
3088.6611 865.49731 4004.0569 856096
3210.3396 892.73523 4130.0679 2106935
3298.2883 910.25226 4211.1074 1383214
3305.1184 905.28748 4188.1387 2173244
3275.9548 890.61139 4120.2427 3357776
3317.3467 895.19208 4141.4341 3423314
3261.2043 873.57886 4041.4446 3291728
3326.0183 884.44513 4091.7153 2962763
3418.1917 902.37683 4174.6729 3685967
3374.5981 884.46686 4091.8159 1252144
3378.3904 879.14362 4067.189 2567491
3376.3059 872.37714 4035.8853 4147034
3470.3352 890.36536 4119.1045 2370366
3460.0588 881.52808 4078.2202 3620432
3538.1824 895.17896 4141.3735 6317689
3559.7622 894.43457 4137.9297 1119786
3524.6609 879.55591 4069.0964 1119523
3512.4451 870.55157 4027.4395 395288
3525.2576 867.83002 4014.8491 3093061
3482.147 851.47052 3939.1648 922142
3491.1958 847.99823 3923.1011 9
3513.7112 847.82117 3922.2817 1579561
3607.0728 864.6286 4000.0378 263180
3584.0986 853.51251 3948.6113 1053992
3659.8367 865.8952 4005.8979 3291467
3656.0691 859.42908 3975.9836 3357772
3616.0544 844.57971 3907.2859 659225
3649.9207 847.06549 3918.7856 6252667
3736.5278 861.68243 3986.4082 1844540
3792.792 869.16223 4021.012 1975614
3774.0618 859.47009 3976.1731 659242
3837.3909 868.46967 4017.8083 1119022
0 0 0 0
0 0 0 0
0 0 0 0
0 0 0 0
0 0 0 0
0 0 0 0
-3805.5237 939.23877 4229.2563 3555926
-3761.9917 934.65033 4208.5952 2767195
-3722.0935 930.90948 4191.751 2240080
-3682.7693 927.263 4175.3311 2830419
-3626.094 919.1687 4138.8838 2565959
-3579.6609 913.57825 4113.7109 3157062
-3354.1484 861.89417 3880.9849 6182514
-3383.0059 875.31152 3941.4011 5853802
-3339.4707 870.0545 3917.7297 5787751
-3336.1387 875.27167 3941.2219 5458532
-3355.3064 886.50696 3991.8127 1840927
-3333.0442 886.87799 3993.4832 1249310
-3314.4519 888.23767 3999.6057 1183008
-3267.7617 882.03296 3971.6667 722968
-3246.0637 882.5329 3973.9177 262166
-3233.0879 885.42883 3986.958 327950
-3191.9255 880.59137 3965.1755 459792
-3166.9443 880.17914 3963.3196 1181729
-3170.0332 887.62073 3996.8279 853533
-3163.9705 892.59247 4019.2146 919839
-3113.8083 885.10431 3985.4968 1708843
-3062.8867 877.28412 3950.2834 3814216
-3047.0334 879.46533 3960.1052 2300210
-3035.4878 882.93335 3975.7212 2169649
-3031.3503 888.62726 4001.3599 3155260
-3058.844 903.75659 4069.4851 3352119
-3072.7468 915.07898 4120.4683 4205876
-3068.72 921.20038 4148.0322 5060929
-2971.8801 899.33417 4049.5718 6244429
-2884.3755 879.95978 3962.3318 6901583
-2812.4746 865.06696 3895.2712 5651768
-2765.9006 857.78217 3862.469 8347989
-2791.5991 872.97638 3930.8865 11243900
-2781.3669 877.09583 3949.4358 12297869
-2771.5251 881.4093 3968.8586 11443588
-2774.771 889.99445 4007.5164 11377799
-2761.5464 893.39935 4022.8479 9931131
-2769.3818 903.73615 4069.3931 8088929
-2732.4214 899.50775 4050.3535 6049097
-2733.6477 907.8869 4088.0835 5720133
-2681.363 898.48523 4045.749 6509138
-2627.106 888.24695 3999.6475 6311246
-2669.9351 910.94678 4101.8613 5982281
-2624.0508 903.5177 4068.4094 5587013
-2591.6548 900.63831 4055.4441 5191999
-2590.637 908.71149 4091.7961 5520964
-2541.4614 899.88531 4052.0532 6507856
-2498.8047 893.22107 4022.0452 5784386
-2474.9043 893.19763 4021.9397 5455163
-2508.6074 914.16516 4116.3535 6310214
-2434.4685 895.85962 4033.9265 7296338
-2339.9304 869.60992 3915.7278 8546148
-2293.853 861.02472 3877.0696 8743527
-2290.1677 868.33911 3910.0054 9467250
-2272.0881 870.28949 3918.7876 7887963
-2249.4092 870.50024 3919.7368 6177344
-2240.4585 876.0835 3944.8774 5913915
-2270.3687 897.1405 4039.6941 7098185
-2232.759 891.6814 4015.1123 8413784
-2284.8403 922.30969 4153.0273 8545368
-2260.4363 922.39453 4153.4092 7690058
-2226.8247 918.6825 4136.6943 8808798
-2213.0906 923.17975 4156.9448 8348762
-2171.7178 916.11902 4125.1514 9796724
-2138.7444 912.48108 4108.7705 9664881
-2074.4575 895.24573 4031.1621 9599599
-2112.7183 922.3797 4153.3423 10125689
-2066.1675 912.68933 4109.708 7230542
-2065.2786 923.17865 4156.9399 5848889
-2033.6965 920.03583 4142.7881 6112063
-2015.4919 922.94208 4155.8745 5716535
-1960.9019 909.05225 4093.3306 5848633
-1917.1405 899.8974 4052.1079 5914426
-1909.9698 907.90363 4088.1589 5453876
-1893.3733 911.57751 4104.7017 4861227
-1873.101 913.55426 4113.603 3546392
-1898.5002 938.15198 4224.3628 3678236
-1853.1464 927.97693 4178.5459 6244675
-1830.9421 929.27563 4184.3936 5849916
-1791.7192 921.8537 4150.9736 6244418
-1777.7474 927.39783 4175.9385 6441797
-1724.9321 912.54895 4109.0762 5520438
-1689.1865 906.43469 4081.5442 6244418
-1672.5623 910.55249 4100.0859 6375490
-1637.8492 904.79877 4074.1782 6309698
-1615.6747 905.90338 4079.1519 5914940
-1600.23 910.87213 4101.5254 6178112
-1572.8209 909.07886 4093.4509 6243906
-1548.6899 909.15387 4093.7886 6441282
-1523.7487 908.74792 4091.9607 6441025
-1482.004 898.14551 4044.2192 6901833
-1461.4504 900.24811 4053.6868 7295820
-1440.3433 902.07428 4061.9099 7230284
-1421.7361 905.55481 4077.5823 7296077
-1403.4309 909.35138 4094.678 7296077
-1349.1188 889.54053 4005.4724 6572097
-1308.5922 878.27222 3954.7327 6440253
-1293.7596 884.15222 3981.2097 3545619
-1284.2991 893.98999 4025.5078 7295818
-1279.8844 907.77911 4087.5979 6111800
-1264.9584 914.5011 4117.8662 8546657
-1224.7437 902.84546 4065.3823 7888984
-1184.8459 890.96033 4011.8655 8547171
-1155.1013 886.37952 3991.239 8810085
-1151.6715 902.22247 4062.5771 10125686
-1118.9443 895.30017 4031.407 11376265
-1103.3447 902.0791 4061.9316 10915713
-1101.5216 920.67499 4145.6665 7823444
-1064.5659 910.08496 4097.981 7297103
-1044.7927 914.03265 4115.7568 7625557
-1016.4218 910.46741 4099.7031 7099214
-983.19324 902.26984 4062.7905 7033421
-957.26984 900.53284 4054.9692 7757145
-941.42657 908.43323 4090.5435 7296593
-927.44366 918.59387 4136.2954 7033678
-886.72723 902.10895 4062.0662 7296336
-862.98798 902.45752 4063.6357 6835784
-830.80084 893.7384 4024.3748 6177854
-796.35437 882.00153 3971.5254 6967628
-774.26636 883.65424 3978.9673 7099214
-753.14496 886.54852 3992 6968142
-730.88196 888.24323 3999.6309 6770507
-710.47711 892.38538 4018.2825 8283746
-683.82697 888.69855 4001.6812 7099472
-673.01416 906.0683 4079.8945 6837325
-648.06274 904.98871 4075.0332 6771276
-616.79779 894.66772 4028.5593 6771020
-585.80579 883.92737 3980.1973 6310469
-557.74109 876.88837 3948.5012 4075564
-512.0072 840.23645 3783.4634 2101778
-490.92319 842.53204 3793.8 2563356
-466.91235 839.78394 3781.4255 1445135
-440.12531 831.51367 3744.1858 1840149
-420.14124 835.90015 3763.9375 1905172
-397.40427 834.99438 3759.8589 1115396
-376.35382 837.73517 3772.2002 6246734
-353.1322 835.68396 3762.9641 5785409
-334.31305 844.47687 3802.5574 5719100
-315.79501 855.35657 3851.5469 5652791
-291.93555 852.33661 3837.9485 7428944
-272.12769 861.63483 3879.8171 7297358
-252.91096 874.69391 3938.6199 6376513
-232.40111 885.48126 3987.1941 7494738
-206.06879 874.01532 3935.5647 7362897
-183.10051 875.71191 3943.2039 6376004
-161.90097 887.60162 3996.7417 6112577
-136.93338 879.36853 3959.6694 5258295
-113.77761 881.77155 3970.4897 4863539
-90.331749 882.59326 3974.1899 2497561
-66.125916 873.9505 3935.2729 1839633
-42.35294 864.72803 3893.7451 1445133
-19.579462 878.26056 3954.6802 1181960
3.862016 879.44476 3960.0125 524288
27.117044 872.59546 3929.1711 1706503
50.325748 871.27277 3923.2153 1838860
74.044762 876.82892 3948.2339 3218202
97.581673 878.07825 3953.8594 5125682
121.93999 884.80402 3984.1443 6112577
146.91333 893.08636 4021.4387 6441284
170.58115 892.22809 4017.574 5321777
195.36792 896.71594 4037.7822 2756882
220.23907 900.5694 4055.1338 3940383
241.71645 891.15265 4012.7314 3611676
262.75079 881.93573 3971.229 3678496
286.40891 882.31696 3972.9456 4468269
309.30997 880.48529 3964.6978 3087643
330.40558 874.13562 3936.1064 8942960
352.87448 872.01709 3926.5669 10127491
376.34656 872.48627 3928.6797 9074545
402.25229 878.21405 3954.4709 9074028
424.43256 875.62549 3942.8149 8547418
448.29672 876.59973 3947.2017 10849905
475.39984 883.49664 3978.2576 11638651
496.96585 879.93768 3962.2322 9994602
525.27112 888.09418 3998.9597 4533290
554.75049 897.4458 4041.0688 5059893
578.33032 896.87451 4038.4961 4993589
609.08801 907.03766 4084.2595 4863030
623.08759 892.422 4018.4473 4797239
643.25403 887.38989 3995.7883 4205100
668.56989 889.56665 4005.5901 5652546
698.16522 897.09296 4039.4797 5388347
729.98193 906.87988 4083.5491 5454397
741.12683 891.18164 4012.8618 4336686
769.2641 896.2569 4035.7151 5323838
804.42242 908.95959 4092.9136 4271407
817.53003 896.73169 4037.8533 4336947
847.27319 902.92755 4065.7524 4468790
877.47089 909.25177 4094.2292 5126975
899.31305 906.81055 4083.2366 4535350
934.00415 917.11383 4129.6309 4535096
953.74774 912.58832 4109.2534 3285287
968.69373 903.81207 4069.7351 3484465
977.93195 890.26611 4008.7395 3221295
1008.7878 896.57562 4037.1501 2037792
1029.9448 894.17255 4026.3293 1446423
1066.0122 904.52997 4072.9675 393737
1075.9298 892.73145 4019.8406 591372
1094.3346 888.33374 4000.0381 65543
1127.0463 895.48981 4032.2612 131081
1158.6134 901.45825 4059.1362 8
1198.4448 913.48315 4113.2827 65544
1229.0061 918.1037 4134.0879 723989
1242.8983 910.33459 4099.105 2961725
1271.6846 913.56299 4113.6421 3422276
1269.6117 894.91827 4029.6875 3224637
1273.2977 880.94629 3966.7737 66312
1291.3591 877.24634 3950.1133 3553856
1323.0232 882.75421 3974.9143 724502
1340.7201 878.91309 3957.6187 264
1371.7051 883.76532 3979.4675 1185053
1379.8975 874.01703 3935.572 5068126
1398.7023 871.2027 3922.8997 4542038
1440.3318 882.46472 3973.6111 4147793
1464.8888 883.07269 3976.3489 4476505
1482.8472 879.74664 3961.3718 2963271
1507.5488 880.46252 3964.5952 3291465
1527.5891 878.47583 3955.6494 4476251
1543.2052 874.04327 3935.6904 460814
1567.2076 874.422 3937.3958 4147031
1607.9044 883.96747 3980.3779 6778752
1624.1046 879.96436 3962.3523 2633280
1617.4586 863.87335 3889.8967 2764865
1652.9954 870.44739 3919.4988 3290953
1667.4475 865.89032 3898.9788 2961990
1694.0958 867.70465 3907.1484 3817295
1744.2089 881.32635 3968.4849 1580854
1790.2948 892.57782 4019.1489 4409438
1797.1141 884.21405 3981.4883 2501953
1846.8203 896.89471 4038.5869 2698816
1851.7604 887.78857 3997.5837 2567226
1895.5168 897.28741 4040.3552 1777969
1911.8223 893.71655 4024.2764 856347
1923.2037 887.96039 3998.3569 6448751
1958.6061 893.2998 4022.3999 724502
1959.0054 882.73834 3974.8433 3356226
2008.1355 894.12537 4026.1174 2105906
2034.1118 895.05682 4030.3115 3027518
2048.8779 891.09119 4012.4546 1645865
2050.761 881.67755 3970.0664 395017
2082.7139 885.25873 3986.1921 2632760
2091.8591 879.17413 3958.7937 131846
2124.3933 882.94519 3975.7747 2764604
2142.5173 880.71021 3965.7107 1119779
2161.8789 879.02679 3958.1306 3488840
2196.5798 883.54962 3978.4961 1712428
2230.7178 887.75238 3997.4207 3357512
2246.8604 884.78058 3984.0388 1910325
2275.5603 886.76392 3992.9695 3686994
2291.1584 883.65338 3978.9634 4608612
2318.0884 884.93219 3984.7214 4937323
2337.3579 883.29022 3977.3284 5200497
2341.9404 876.18628 3945.3401 5068397
2397.6965 888.17908 3999.342 4410468
2466.5906 904.75598 4073.9856 4015711
2417.3337 878.09357 3953.9285 3686743
2453.3179 882.60938 3974.2622 2239038
2496.5618 889.62628 4005.8584 4015447
2524.5349 891.12061 4012.5874 3423822
2575.0188 900.45905 4054.6367 3489358
2600.4607 900.94861 4056.8411 3028040
2632.3274 903.63483 4068.9368 2304572
2666.1821 906.94849 4083.8579 1646641
2659.6235 896.57892 4037.1653 1384495
2690.6475 898.95062 4047.8447 198934
2675.5015 885.99127 3989.4905 4147290
2711.7788 890.13873 4008.1658 4542049
2701.5742 879.08881 3958.4099 3225933
2717.0227 876.50482 3946.7744 3357518
2765.5562 884.54706 3982.9873 3817555
2784.2825 883.00012 3976.022 1646386
2864.7585 900.89795 4056.6133 1776943
2858.405 891.41943 4013.9326 790042
2843.0176 879.30316 3959.3752 593179
2867.448 879.59961 3960.7097 66061
2893.8069 880.47797 3964.665 2369075
2887.5984 871.513 3924.2969 1184800
2921.9744 874.84222 3939.2878 10
2965.3855 880.80243 3966.126 1053727
2986.1467 879.99414 3962.4863 2566710
3028.1797 885.41803 3986.9094 1119778
3059.6035 887.68018 3997.0952 461331
3058.8528 880.64429 3965.4138 1646638
3080.3032 880.05878 3962.7773 2896195
3110.0872 881.84497 3970.8206 1185835
3093.0967 870.44135 3919.4717 988968
3160.9778 882.91382 3975.6333 791075
3215.2766 891.4361 4014.0078 1449004
3200.4226 880.80133 3966.1208 3620946
3182.2766 869.42212 3914.8823 2699845
3229.5215 875.94379 3944.248 2831174
3239.5073 872.3385 3928.0139 3159881
3290.4341 879.73059 3961.2996 1382954
3317.7126 880.74011 3965.8455 1580336
3294.8521 868.51898 3910.8152 724001
3375.2607 883.49994 3978.2725 329243
3332.6265 866.28906 3900.7742 658463
3354.5093 865.97052 3899.3401 1645356
3357.5066 860.81433 3876.1226 1512998
3347.7261 852.47449 3838.5691 986396
3360.0251 849.83167 3826.6689 13
3326.5942 835.7356 3763.1965 15
3401.5957 848.88715 3822.416 16
3412.6484 846.01147 3809.4673 131603
3458.2925 851.69269 3835.0491 15
3480.042 851.45343 3833.9717 14
3479.3201 845.755 3808.3123 67090
3512.4294 848.30066 3819.7751 1383725
3521.4463 845.03229 3805.0581 1646382
3522.1025 839.81201 3781.552 1186604
3677.5913 871.34271 3923.5303 3357776
3679.4709 866.31079 3900.8723 3094348
3712.5203 868.63458 3911.3362 4147036
3709.4038 862.52026 3883.8037 2173246
0 0 0 0
0 0 0 0
0 0 0 0
0 0 0 0
0 0 0 0
0 0 0 0
-3632.8254 920.54132 4037.3289 4534846
-3541.0461 903.23358 3961.4204 4205624
-3480.1902 893.63538 3919.324 2692386
-3461.9248 894.91785 3924.949 4205625
-3392.4138 882.88104 3872.1575 4864325
-3281.6565 859.87268 3771.2471 8483711
-3154.9856 832.35046 3650.5393 7562862
-3156.6567 838.54132 3677.6914 6444896
-3243.4072 867.57593 3805.0322 7563119
-3259.4922 877.98254 3850.6736 9536907
-3234.4497 877.37964 3848.0295 9668237
-3292.5908 899.49286 3945.0142 11444900
-3274.3398 900.90375 3951.2019 7101791
-3279.8757 908.92682 3986.3899 6378069
-3285.8608 917.19177 4022.6384 6115151
-3230.0691 908.20764 3983.2356 5851978
-3187.2683 902.77063 3959.3899 6311502
-3165.302 903.19806 3961.2644 6574930
-3105.2617 892.68652 3915.1626 6640466
-3105.8777 899.58521 3945.4189 6311759
-3145.4929 917.96985 4026.051 6640724
-3165.3965 930.83911 4082.4932 6574417
-3149.9224 933.42303 4093.8257 6640209
-3131.9475 935.30017 4102.0586 6639952
-3062.3643 921.67432 4042.2979 6244166
-3059.2786 928.005 4070.0632 6704715
-3010.9646 920.60767 4037.6199 6639179
-2940.8442 906.37109 3975.1807 6837070
-2893.5378 898.99268 3942.8201 6902606
-2838.7793 889.15985 3899.6953 6771786
-2787.8096 880.36224 3861.1104 8942184
-2769.4714 881.80896 3867.4556 8021588
-2780.6255 892.74854 3915.4346 8612953
-2753.3291 891.42352 3909.623 12231821
-2747.5474 897.10065 3934.5222 11640197
-2749.7161 905.49316 3971.3303 11245954
-2761.8586 917.34326 4023.3027 11312522
-2773.6814 929.29285 4075.7112 10785668
-2716.178 918.02106 4026.2754 5193779
-2752.6184 938.58234 4116.4536 6443334
-2714.3528 933.81055 4095.5251 6508617
-2661.8604 924.01398 4052.5591 6969425
-2642.6328 925.69147 4059.9165 6640204
-2598.1592 918.47498 4028.2661 6705484
-2571.499 917.48029 4023.9038 6508363
-2543.3235 915.92133 4017.0664 6640205
-2517.2058 915.08105 4013.3809 6837070
-2498.7878 917.05035 4022.0181 5717307
-2456.304 910.14044 3991.7124 5848892
-2415.7498 903.81818 3963.9839 7295567
-2364.9004 893.48199 3918.6516 4663846
-2344.3892 894.5166 3923.1892 6702916
-2295.4409 884.61298 3879.7537 9137256
-2248.03 875.10724 3838.0632 9531756
-2260.53 888.96771 3898.8528 8281946
-2236.0222 888.41046 3896.4087 6439994
-2227.9197 894.4278 3922.7998 6044466
-2200.5442 892.75311 3915.4548 7295034
-2180.47 894.03619 3921.0823 8150070
-2182.5688 904.53644 3967.1343 8018480
-2167.2883 907.98431 3982.2559 8281138
-2159.802 914.80927 4012.189 6899743
-2118.8425 907.45038 3979.9143 7360809
-2099.9775 909.495 3988.8816 8808769
-2077.0054 909.78699 3990.1624 9729616
-2071.0208 917.61255 4024.4839 8612164
-2044.8226 916.56006 4019.8677 7822909
-2021.0842 916.59821 4020.0352 8677712
-2001.0798 918.35101 4027.7224 4729633
-2007.4312 932.38745 4089.2837 5321515
-1983.2589 932.41638 4089.4109 5190190
-1921.6239 914.61548 4011.3389 5322032
-1904.3193 917.73218 4025.0085 5453619
-1892.4551 923.58319 4050.6699 5848377
-1841.2737 910.14978 3991.7534 6308672
-1831.3282 917.0152 4021.8638 5585975
-1810.0322 918.30304 4027.512 5914683
-1778.463 914.34369 4010.147 6047038
-1781.3647 928.2392 4071.0901 5520951
-1732.644 915.24744 4014.1106 7428693
-1707.7537 914.65729 4011.5227 7429205
-1657.89 900.48615 3949.3704 6046527
-1656.0754 912.38092 4001.5388 4928303
-1641.9581 917.74475 4025.0635 4335908
-1600.6652 907.85358 3981.6824 5783352
-1592.9266 916.98212 4021.719 5322800
-1572.6488 919.06018 4030.8328 6704454
-1566.429 929.54443 4076.8149 6704197
-1528.7069 921.37048 4040.9653 5980731
-1491.7719 913.41827 4006.0884 6112060
-1458.9749 907.78357 3981.3755 6046524
-1436.9546 908.77905 3985.7417 5914938
-1420.759 913.55328 4006.6804 6769991
-1378.8317 901.6629 3954.5312 6769991
-1361.1941 905.51984 3971.4473 7032650
-1335.1089 903.79388 3963.8777 7098955
-1279.7538 881.83722 3867.5796 7230541
-1226.1528 860.31042 3773.167 8216926
-1208.5944 863.74231 3788.2188 6111549
-1240.8807 903.60095 3963.0312 5848122
-1229.1462 912.32318 4001.2856 2363664
-1202.563 910.15039 3991.7561 1180932
-1169.5256 902.90778 3959.991 2561301
-1130.766 890.86023 3907.1528 6243394
-1126.5553 906.09705 3973.9788 9204076
-1110.1218 911.94366 3999.6211 7494228
-1086.7708 912.23865 4000.915 8349023
-1048.4036 899.66119 3945.7524 11178377
-1025.0757 899.71002 3945.9663 10454910
-1009.0242 906.29651 3974.8538 5519925
-978.31946 899.72186 3946.0186 5519668
-949.28668 894.40057 3922.6804 6308929
-934.63141 902.69849 3959.0735 6309186
-902.39978 894.01068 3920.97 6178114
-884.77148 899.71362 3945.9824 3810596
-866.30115 904.84674 3968.4951 7822940
-820.42401 880.84125 3863.2112 7428952
-781.00311 862.58801 3783.1562 7099216
-782.66962 889.97668 3903.2776 3349015
-752.29449 881.4892 3866.0532 5322031
-732.25793 884.9632 3881.2896 5519156
-715.62994 892.91541 3916.1665 5782328
-697.31232 899.22192 3943.8257 6177343
-677.70111 904.23975 3965.833 6177344
-654.54932 904.7243 3967.9583 6112067
-631.57208 905.49518 3971.3394 5784903
-608.71503 906.50488 3975.7676 524289
-562.7746 871.83569 3823.7146 655362
-532.32861 859.26807 3768.5952 524290
-499.22781 841.12659 3689.0303 524546
-482.62262 850.38916 3729.6543 3023396
-460.64029 850.61151 3730.6294 854024
-436.4682 846.60883 3713.0742 787460
-420.90186 859.75977 3770.7517 1641740
-397.0929 856.60449 3756.9133 1115394
-372.37589 850.99921 3732.3296 5456189
-349.58078 849.35541 3725.1201 5455931
-328.96518 853.14246 3741.7297 6639429
-311.79166 867.04889 3802.7205 5586480
-290.08908 869.54633 3813.6738 6244410
-268.97256 874.37091 3834.8335 6506555
-245.40248 871.37384 3821.689 6704191
-226.98959 887.94141 3894.3513 6901315
-205.75793 895.98474 3929.6282 6111542
-181.76338 892.5144 3914.4077 6901060
-158.98129 894.85327 3924.6655 6901318
-134.26732 885.25641 3882.5754 6243903
-109.1622 868.57782 3809.4263 5980989
-86.009888 862.79126 3784.0476 5981245
-63.784008 865.4942 3795.9019 6178111
-41.219837 864.05103 3789.5725 5783868
-18.744059 863.22382 3785.9443 6113090
3.6672878 857.38654 3760.3433 5455159
26.118383 862.88727 3784.4685 4994606
49.521683 880.23053 3860.533 5587514
73.064911 888.31415 3895.9863 4863021
96.462517 891.17035 3908.5129 5126194
121.13503 902.41809 3957.8438 5914685
142.67998 890.49689 3905.5593 6441543
166.36429 893.39209 3918.2573 7164751
189.26884 891.90363 3911.7288 6507077
215.32738 903.98083 3964.6978 5520183
238.04385 901.03162 3951.7627 6835788
259.22955 893.33545 3918.0088 5388343
280.90887 888.46582 3896.6514 5980736
305.017 891.43433 3909.6709 1180160
327.59659 889.83191 3902.6428 4928559
351.80939 892.58447 3914.7151 5849397
373.86343 889.85822 3902.7583 8876384
392.44171 879.65875 3858.0254 4797734
423.87338 897.80707 3937.6204 8546390
445.10715 893.58826 3919.1174 6506807
471.77194 900.15051 3947.8984 8085327
496.5506 902.66376 3958.9211 5453868
516.32849 896.26978 3930.8782 5980730
538.7373 894.79742 3924.4209 6967885
570.56415 908.44238 3984.2649 5520185
588.72095 900.10242 3947.6875 5717566
608.48102 894.75763 3924.2461 6177863
631.14557 893.9201 3920.5728 3677472
654.08539 893.51794 3918.8093 4664623
672.69452 887.43036 3892.1099 4598830
703.31647 897.06848 3934.3811 4796209
724.39368 894.30457 3922.2593 4073256
742.67749 888.37122 3896.2363 3415328
756.53241 877.65765 3849.2485 4007208
788.48285 887.94946 3894.3865 4928311
821.73114 899.07599 3943.1855 5125945
856.35413 911.04962 3995.7 5981512
873.4176 904.20062 3965.6611 5126202
896.83246 904.11334 3965.2786 4797238
919.20538 903.00702 3960.4265 5455168
959.35077 918.98041 4030.4829 4599858
959.05902 896.38318 3931.3755 4994616
980.28308 894.49048 3923.0747 4863030
992.68115 884.81873 3880.656 4402735
1020.2682 888.81677 3898.1909 4139820
1033.4293 880.34888 3861.052 3613991
1079.1263 899.36377 3944.448 3285798
1110.1167 905.5755 3971.6914 3155244
1143.9696 913.81598 4007.8325 1708572
1165.2723 911.89978 3999.4285 591115
1187.8928 911.07074 3995.7925 131082
1203.3157 904.86163 3968.5605 65546
1214.1354 895.49554 3927.4824 10
1220.6373 883.35699 3874.2451 6
1244.9274 884.30212 3878.3901 131336
1273.8453 888.44055 3896.5408 460815
1293.4999 886.086 3886.2141 461069
1317.6727 886.85474 3889.5857 4343375
1320.8192 873.68884 3831.8423 2369586
1346.3292 875.5108 3839.833 1776937
1391.3669 889.75983 3902.3267 1382433
1412.0754 888.2392 3895.6572 5725547
1428.6056 884.1814 3877.8606 2831168
1447.2892 881.56378 3866.3801 3554893
1449.1298 868.92822 3810.9631 3357775
1514.8485 894.39551 3922.658 4673379
1538.2369 894.47797 3923.0198 4870758
1561.9625 894.75122 3924.218 856347
1569.4607 885.85712 3885.2102 9873586
1571.9274 874.4212 3835.0542 2896699
1593.4133 873.7406 3832.0691 4805986
1633.238 882.99365 3872.6514 4674144
1638.2952 873.45404 3830.8123 2962244
1662.6328 874.31403 3834.5842 6712444
1725.8152 895.30237 3926.6353 2698808
1730.3918 885.7337 3884.6689 3159354
1749.4775 883.74573 3875.95 2632497
1822.3177 908.61121 3985.0054 2237993
1834.0851 902.77905 3959.4265 1448482
1847.5861 897.93671 3938.189 4606549
1845.6614 885.81177 3885.0112 1777451
1877.6731 890.07251 3903.6982 2896190
1921.1075 899.57843 3945.3892 3291463
1948.8656 901.60327 3954.2698 2962498
2008.2783 918.05035 4026.4038 3817807
2014.3831 910.02856 3991.2217 2633788
1984.285 886.02765 3885.958 2830911
1970.2253 869.65662 3814.1577 3357257
2009.0154 876.72028 3845.1377 1580328
2082.8955 898.76691 3941.8301 3357260
2037.7225 869.52289 3813.5713 4278102
2116.6953 893.31403 3917.9148 4278360
2124.7104 886.96735 3890.0796 3225671
2163.4446 893.44305 3918.4807 2567744
2188.3552 894.13318 3921.5073 1777966
2213.6121 894.94867 3925.084 6121852
2230.5508 892.41919 3913.9902 3884888
2239.7937 886.89459 3889.76 4937321
2229.5508 873.84515 3832.5278 3687000
2270.0076 880.72974 3862.7224 1185578
2313.3608 888.58948 3897.1938 4146524
2363.7144 898.95605 3942.6597 1448232
2370.9167 892.86938 3915.9646 724513
2391.5195 891.89825 3911.7053 658459
2421.1074 894.26434 3922.0828 1777455
2433.1162 890.15424 3904.0566 2699071
2455.3472 889.82617 3902.6179 3620689
2485.0066 892.17133 3912.9028 3094346
2542.3289 904.31262 3966.1526 1580850
2531.3943 892.17493 3912.9187 2896710
2597.8438 907.28345 3979.1821 3159880
2622.5713 907.67999 3980.9216 6778749
2623.7314 899.98566 3947.1755 4212569
2570.0139 873.76947 3832.196 3817813
2552.3347 860.1579 3772.498 2962246
2617.4138 874.43073 3835.0962 3225676
2592.3096 858.58856 3765.615 3422542
2633.1177 864.66101 3792.2478 1711410
2634.6541 857.84381 3762.3489 922150
2737.9041 883.98108 3876.9822 2435389
2807.1045 898.78137 3941.8933 1843508
2764.5125 877.83887 3850.0435 2107194
2824.7021 889.60925 3901.6663 2239034
2789.4482 871.37366 3821.6882 4541533
2864.6987 887.67334 3893.1758 4738655
2902.2104 892.11194 3912.6428 1382693
2910.03 887.4256 3892.0894 3488843
2938.6917 889.11884 3899.5154 1383211
2944.3723 883.88684 3876.5688 2830659
2965.8 883.42645 3874.5496 1909297
3068.4768 906.98889 3977.8901 1514017
3084.1462 904.67023 3967.7212 1185572
3028.8691 881.73346 3867.1248 2238780
3074.4897 888.29309 3895.8938 6055030
3052.5198 875.37177 3839.2234 329492
3044.8496 866.71222 3801.2439 2370366
3084.8037 871.63635 3822.8403 1909815
3095.5715 868.302 3808.2166 3686225
3110.2427 866.10291 3798.5715 3554640
3161.8188 874.13837 3833.814 2502209
3129.7129 859.08899 3767.8098 791074
3207.3533 874.16412 3833.9268 3159881
3297.3877 892.38153 3913.8247 4278107
3237.644 870.09247 3816.0693 724506
3233.5354 862.96051 3784.79 921887
3269.2129 866.47192 3800.1899 1317166
3282.9011 864.14691 3789.9932 462113
3409.7683 891.44287 3909.7083 5265001
3339.3015 867.12787 3803.0671 4277849
3296.7432 850.33752 3729.4275 856867
3264.6409 836.44971 3668.5183 1186088
3334.7004 848.74792 3722.4558 921886
3397.0688 858.9397 3767.1553 329234
3468.1238 871.18054 3820.8413 11
3460.2593 863.56689 3787.449 263958
3428 850.00244 3727.9578 1514029
3451.125 850.25677 3729.0735 12
3563.4287 872.33917 3825.9226 4607326
3566.7708 867.6366 3805.2983 2501949
3589.0952 867.58185 3805.0581 2370364
3573.8767 858.50928 3765.2676 2962244
3572.2666 852.79803 3740.2188 3028554
0 0 0 0
0 0 0 0
0 0 0 0
0 0 0 0
0 0 0 0
0 0 0 0
-3450.781 897.13922 3835.0144 6377290
-3378.8887 884.2724 3780.0122 7430748
-3317.4971 874.00031 3736.1021 7430498
-3288.7197 872.24023 3728.5784 5653831
-3275.3281 874.56451 3738.5139 5588811
-3220.0249 865.6532 3700.4207 7562862
-3205.5754 867.67792 3709.0754 7233897
-3197.0195 871.33679 3724.7163 7036518
-3208.6433 880.58466 3764.2483 6181722
-3224.6055 891.16119 3809.4597 6773345
-3227.8279 898.34094 3840.1516 6115415
-3192.5874 894.84216 3825.1951 7168103
-3138.8604 886.07465 3787.7166 9207944
-3120.1572 887.1391 3792.2666 7891567
-3107.491 889.94788 3804.2734 8417907
-3102.9661 895.14624 3826.4951 6772566
-3136.4595 911.46954 3896.2725 6837587
-3131.2341 916.69965 3918.6294 5587263
-3138.1113 925.57758 3956.5803 6046786
-3124.3755 928.46362 3968.9172 7100243
-3115.2854 932.78436 3987.3875 7166036
-3086.0654 931.0979 3980.178 6968658
-3074.0425 934.61383 3995.2078 6837071
-3055.0896 936.0611 4001.3943 7100244
-3052.5925 942.61243 4029.3994 7034451
-3036.9143 945.16473 4040.3098 6047299
-2974.782 933.18506 3989.0999 6573899
-2940.4841 929.815 3974.6941 6902092
-2879.093 917.75415 3923.1372 7033674
-2821.9565 906.86407 3876.5854 8283739
-2785.0308 902.34363 3857.2617 8743773
