# .PCD v0.7 - Point Cloud Data file format
VERSION 0.7
FIELDS x y z rgb
SIZE 4 4 4 4
TYPE F F F U
COUNT 1 1 1 1
WIDTH 1269
HEIGHT 1
VIEWPOINT 0 0 0 1 0 0 0
POINTS 1269
DATA ascii
681.99738 825.90192 4573.1558 3553581
710.03473 826.99194 4579.1914 5724750
740.62128 830.86151 4600.6177 8225656
778.81982 842.6925 4666.1279 7698799
798.14435 833.99054 4617.9438 5527633
815.9187 824.2995 4564.2827 3685429
853.93518 835.02417 4623.667 4869702
872.50519 826.65729 4577.3384 6580063
885.89972 814.03949 4507.4712 7501163
915.42542 816.54901 4521.3672 6908770
932.85541 808.43347 4476.4302 7961972
973.06281 819.96033 4540.2559 5330253
1015.7447 832.89581 4611.8823 5395791
1046.725 835.80988 4628.0176 5461842
1056.0259 821.70605 4549.9224 6382944
1087.4681 825.104 4568.7373 7238510
1113.2015 824.1106 4563.2368 6251615
1136.7841 821.60962 4549.3887 6909545
1175.597 829.97748 4595.7227 7304303
1216.413 839.34845 4647.6113 5922649
1222.1256 824.61877 4566.0508 4474947
1246.1118 822.59009 4554.8174 5263950
1295.9615 837.35858 4636.5933 6382173
1313.2224 830.89447 4600.8003 5856087
1359.1787 842.47992 4664.9507 5395278
1365.936 829.79059 4594.688 4672067
1372.2965 817.3609 4525.8628 4474432
1371.434 801.18817 4436.3115 5790549
1414.7264 810.93384 4490.2749 6185306
1436.588 808.26208 4475.481 7172202
1423.6388 786.45673 4354.7412 6119513
1527.1982 828.64453 4588.3418 5658962
1555.9939 829.49963 4593.0771 4540225
1539.1006 806.38745 4465.1006 6448223
1565.7761 806.4978 4465.7119 5790547
1586.9279 803.80664 4450.8105 6514270
1617.8412 806.06714 4463.3271 6514268
1657.0057 812.29974 4497.8384 6251095
1676.8687 809.02283 4479.6934 3290408
1746.1458 829.31677 4592.0645 4343093
1761.7833 823.90326 4562.0889 4474678
1794.2214 826.39148 4575.8662 4868922
1772.6193 804.28595 4453.4644 4408624
1804.3169 806.65784 4466.5981 5856070
1831.0104 806.75635 4467.1436 6184269
1899.7834 825.12823 4568.8716 5987915
1988.1908 851.39185 4714.2974 2237468
1997.7084 843.61304 4671.2251 2039833
1998.6213 832.46295 4609.4854 4211515
1963.437 806.78113 4467.2808 5461576
2015.2151 817.04028 4524.0874 5790029
2057.3726 823.18073 4558.0879 5000769
2097.9036 828.51959 4587.6504 1250062
2126.8152 829.19189 4591.3726 5921870
2148.0471 826.89081 4578.6313 6908766
2202.2222 837.17041 4635.5513 8093809
2228.8347 836.84796 4633.7661 7896172
2277.2393 844.61603 4676.7788 9277827
2287.0723 838.06323 4640.4946 6053715
2306.0862 834.99042 4623.48 7566954
2333.4934 834.99298 4623.4946 6514266
2342.9775 828.65674 4588.4097 5067073
2385.5042 834.01801 4618.0957 7369826
2408.7219 832.5835 4610.1528 6580565
2447.5969 836.53241 4632.0186 6317137
2485.1221 839.93768 4650.874 6646105
2526.5723 844.58014 4676.5801 5264711
2566.6118 848.65552 4699.146 2697764
2556.8625 836.3573 4631.0488 3882548
2566.9329 830.73444 4599.9141 5330248
2602.1562 833.28455 4614.0347 7567212
2677.4016 848.46448 4698.0884 6842973
2731.2566 856.62311 4743.2642 6053457
2765.5176 858.53284 4753.8384 9211521
2740.4829 842.18164 4663.2993 8092783
2780.7815 846.03424 4684.6318 7566695
2813.8923 847.64551 4693.5537 6711387
2803.6116 836.28204 4630.6323 4934978
2840.4917 839.06995 4646.0693 6119252
2898.6033 848.01593 4695.6045 8356214
2928.875 848.7243 4699.5269 4737597
2955.7234 848.43658 4697.9341 5198150
2968.8279 844.24603 4674.73 4737856
2965.8752 835.60895 4626.9053 4079927
3015.5706 841.82727 4661.3374 7369576
3067.7307 848.61469 4698.9199 4803650
3113.5098 853.53052 4726.1401 7698543
3101.2332 842.58545 4665.5352 6185304
3095.7478 833.66266 4616.1279 5790544
3081.9995 822.69043 4555.373 5395529
3171.5156 839.23419 4646.979 6119251
3189.7136 836.78369 4633.4102 5658187
3351.8984 871.82587 4827.4443 4737084
3318.9927 855.96161 4739.6011 855303
3427.6018 876.55353 4853.6221 1644814
3426.1924 868.90149 4811.2515 3420967
3444.97 866.453 4797.6938 4671287
3431.0251 855.88196 4739.1602 4868921
3461.2659 856.41534 4742.1133 4671799
3477.9197 853.60529 4726.5537 4342578
3546.8157 863.55981 4781.6738 3487273
3505.2781 846.68195 4688.2183 4474168
3489.2874 836.19165 4630.1318 5066561
3539.7205 841.65906 4660.4058 4935231
3520.6833 830.65137 4599.4541 5658441
3593.8313 841.39532 4658.9453 5131839
3616.5117 840.25 4652.6035 4539704
3647.5947 841.05957 4657.0859 3750188
3727.9404 853.13062 4723.9253 2894880
3799.1704 862.95099 4778.3027 2236695
3775.7539 851.28699 4713.7173 1645072
3792.8279 848.85645 4700.2588 4408376
3841.3076 853.43878 4725.6318 4276790
3881.7429 856.18048 4740.813 3158309
3941.4927 863.11224 4779.1953 3487274
3921.2498 852.55316 4720.728 4342069
3972.2197 857.51703 4748.2139 3814956
4086.3689 875.95422 4850.3037 2565916
4106.8496 874.19537 4840.5645 2763296
4046.0352 855.27612 4735.8052 3223846
4074.6565 855.39276 4736.4517 6645853
4106.3438 856.14716 4740.6284 6448216
4102.5576 849.54553 4704.0742 7172197
4119.4097 847.27783 4691.5176 5921877
4152.2559 848.30817 4697.2227 5724498
4299.106 872.46082 4830.96 5461582
4384.1616 883.83618 4893.9473 5922134
4409.5923 883.12085 4889.9863 6580064
4470.5337 889.48016 4925.1992 5725011
4501.6313 889.85767 4927.2896 6777444
4525.1328 888.73846 4921.0923 6909029
4540.2964 886.00659 4905.9648 6909029
4583.499 888.74603 4921.1343 6184794
4600.9463 886.48871 4908.6348 2960936
4586.5044 878.15399 4862.4839 3882037
4645.9199 883.97601 4894.7217 5460556
4604.5723 870.67279 4821.0591 3355180
0 0 0 0
0 0 0 0
0 0 0 0
0 0 0 0
0 0 0 0
0 0 0 0
-3693.8276 765.70416 4105.1235 10455412
-3704.1099 772.92615 4143.8423 10191734
-3716.0039 780.58313 4184.8931 7429200
-3855.9243 815.41687 4371.645 7231569
-3753.2524 799.07349 4284.0244 7626072
-3733.6377 800.31104 4290.6592 8086368
-3727.7273 804.52319 4313.2417 7494231
-3693.0605 802.54443 4302.6333 7362644
-3590.1204 785.59845 4211.7817 7428181
-3581.3398 789.16364 4230.8955 7362645
-3653.6941 810.78357 4346.8052 7033680
-3618.4573 808.66571 4335.4507 7362389
-3693.3164 831.29816 4456.7886 7625559
-3702.8784 839.45349 4500.5112 6901836
-3653.5293 834.27496 4472.748 7691609
-3573.6611 822.00085 4406.9438 7625560
-3510.3279 813.3775 4360.7114 6968399
-3411.479 796.33575 4269.3467 5258298
-3303.7898 776.96027 4165.4702 1508869
-3324.0166 787.60187 4222.5225 1770499
-3270.8716 780.88824 4186.5288 3874849
-3255.7078 783.2088 4198.9702 2559503
-3218.3359 780.18152 4182.7402 1900801
-3237.2922 790.86816 4240.0337 1703936
-3202.6218 788.51862 4227.437 2691086
-3153.9348 782.65356 4195.9937 10189170
-3217.2874 804.7193 4314.293 10782332
-3226.4424 813.47369 4361.2275 12032909
-3190.2107 810.83392 4347.0752 12165009
-3198.7751 819.62946 4394.23 10388854
-3154.5903 814.94226 4369.1011 10652284
-3114.8428 811.33331 4349.7524 10849408
-3090.29 811.65497 4351.4771 10849154
-3014.0894 798.30286 4279.8931 10981511
-2939.0925 785.04553 4208.8174 10520964
-2922.0862 787.18341 4220.2793 11903902
-2790.2969 758.1698 4064.73 12102054
-2677.9722 733.98578 3935.0735 6115407
-2605.3123 720.34381 3861.9358 6049102
-2617.4797 730.12177 3914.3579 5391174
-2626.7668 739.2641 3963.3718 7233123
-2596.9487 737.46643 3953.7341 6444634
-2582.5044 740.04156 3967.5403 7168357
-2593.8516 750.12268 4021.5876 3813940
-2608.4194 761.33087 4081.6772 5062728
-2606.0364 767.755 4116.1187 7694449
-2599.0894 772.94324 4143.9341 9602955
-2544.323 763.87384 4095.3108 8483445
-2519.7317 763.77643 4094.7883 8022892
-2541.5276 777.87445 4170.3716 7101016
-2593.2896 801.51129 4297.0938 6639952
-2599.6228 811.43677 4350.3066 5521214
-2543.9968 802.02765 4299.8628 6508364
-2534.3787 807.07947 4326.9468 6903379
-2504.7217 805.78802 4320.0229 6903379
-2526.9163 821.32318 4403.3101 7034710
-2482.1143 815.17932 4370.3716 6508367
-2491.0312 826.73444 4432.3213 6902869
-2430.21 815.14417 4370.1831 6573902
-2363.1934 801.20374 4295.4453 6968402
-2319.8206 795.06311 4262.5239 7034449
-2235.3281 774.53937 4152.4912 9073769
-2197.1907 769.79938 4127.0791 7889492
-2152.5989 762.66595 4088.835 10982271
-2146.7788 769.26331 4124.2051 12035213
-2137.4792 774.75146 4153.6284 11180672
-2144.1362 786.21851 4215.106 11443847
-2155.8442 799.8299 4288.0796 9667951
-2161.9226 811.65228 4351.4624 7100753
-2183.6636 829.71143 4448.2817 6179139
-2201.0029 846.51898 4538.3911 6442569
-2182.1111 849.63544 4555.0991 6968917
-2192.7522 864.4729 4634.6465 6048072
-2166.6294 865.00909 4637.521 5521474
-2120.344 857.40582 4596.7583 4469043
-2029.0187 831.15503 4456.021 5784650
-1893.1832 785.73834 4212.5317 5982285
-2005.1204 843.31665 4521.2227 5652810
-2041.6229 870.2984 4665.8784 4798269
-1988.8114 859.42584 4607.5879 5719629
-1953.5969 855.96057 4589.0098 7430247
-1939.287 861.68604 4619.7051 7693421
-1892.5582 852.96442 4572.9468 5128008
-1789.3251 818.15326 4386.3159 8088696
-1733.1744 804.16132 4311.3013 8089723
-1657.4786 780.54626 4184.6958 8352897
-1691.7576 808.79034 4336.1187 5590356
-1927.5975 935.75342 5016.7983 2301220
-1894.8198 934.2511 5008.7441 1313307
-1950.6227 977.07117 5238.3125 2102826
-1943.7845 989.39166 5304.3657 984864
-1921.6075 994.18134 5330.0444 1511974
-1874.9918 986.27594 5287.6616 1643552
-1829.0216 978.44727 5245.6899 2498860
-1752.9172 953.94849 5114.3462 2434106
-1663.1661 921.0304 4937.8647 2960957
-1613.7054 909.64484 4876.8242 3685453
-1577.2991 905.33698 4853.7285 4675186
-1526.447 892.42352 4784.4966 5925507
-1500.646 893.94434 4792.6499 6911884
-1480.967 899.24109 4821.0469 8227742
-1462.3655 905.41345 4854.1382 9280684
-1422.297 898.27551 4815.8701 10465470
-1374.764 886.03442 4750.2432 11518411
-1340.9191 882.28796 4730.1572 11913421
-1308.4885 879.33197 4714.3096 11781835
-1286.7631 883.59802 4737.1807 11913422
-1238.9019 869.70715 4662.7085 11716554
-1204.8776 865.11761 4638.1025 12111822
-1159.4294 851.91974 4567.3457 12505553
-1125.6602 846.87738 4540.3125 12833748
-1093.7845 843.04773 4519.7808 13030098
-1071.9611 846.9679 4540.7979 13292756
-1045.2203 847.10486 4541.5322 13161683
-1009.0589 839.41229 4500.2905 12833489
-980.34967 837.66962 4490.9473 12571345
-946.15802 831.01434 4455.2671 12309201
-922.08258 833.11725 4466.541 12046802
-899.32483 836.57007 4485.0527 11915474
-872.31 836.15265 4482.8149 11718353
-856.79895 847.08234 4541.4116 11455698
-818.82477 835.79236 4480.8833 11126479
-794.6925 838.34784 4494.584 10731468
-776.27686 847.32031 4542.6875 10599884
-738.0777 834.56775 4474.3179 10337226
-711.54138 834.54358 4474.1885 10534350
-682.63361 831.62854 4458.5601 10534352
-655.99432 831.35376 4457.0864 10468560
-628.69147 830.1795 4450.7915 10337489
-603.1015 831.26337 4456.6021 10271695
-575.42102 829.43317 4446.79 10271952
-547.56537 827.16272 4434.6172 10337232
-520.22052 825.47369 4425.5625 10271182
-497.81955 831.86682 4459.8374 10205132
-471.45563 831.9834 4460.4624 10073547
-442.56488 827.38983 4435.835 9941963
-416.39633 827.62659 4437.1045 9744584
-387.87006 822.89325 4411.728 9678536
-365.88843 832.36414 4462.5039 9284035
-335.28201 822.16162 4407.8057 9283778
-308.4765 820.34283 4398.0547 9217729
-281.75345 818.42792 4387.7881 9086400
-260.35641 833.16742 4466.8101 9152195
-231.16359 823.47241 4414.833 9217988
-204.70717 822.29468 4408.519 9217987
-181.0676 833.74292 4469.8955 9152450
-152.91422 824.7688 4421.7832 9217728
-128.4494 836.0921 4482.4902 9152191
-101.58349 833.61615 4469.2158 9217728
-76.008415 843.72247 4523.3984 9283778
-49.374962 846.69214 4539.3193 9349571
-22.824881 859.91168 4610.1929 9284035
4.5111804 862.7948 4625.6494 9218243
32.051262 866.24054 4644.123 9152449
59.839592 870.1123 4664.8804 9020866
87.402283 869.29291 4660.4873 9020865
113.51398 857.90088 4599.4121 9020867
141.92059 864.90637 4636.9702 8954817
170.02245 868.08301 4654.001 8954817
196.99696 865.42041 4639.7261 9020610
225.44574 869.09344 4659.418 9152193
249.48566 856.82312 4593.6343 9677509
275.02722 851.617 4565.7231 10006730
300.72784 847.79193 4545.2158 10204107
328.87033 850.91376 4561.9526 10730962
365.35101 873.4967 4683.0249 11126229
392.41324 871.96265 4674.8008 11258067
413.13589 857.47296 4597.1182 11785174
434.104 845.25403 4531.6094 12179157
471.0014 863.66809 4630.3315 12244950
494.43799 856.73071 4593.1387 12375507
518.98755 852.34509 4569.6265 11320516
550.30078 858.95172 4605.0459 5331298
576.59717 857.47333 4597.1201 7633537
595.26068 845.28949 4531.7998 6055270
617.6441 839.21198 4499.2163 6252644
646.72888 842.36591 4516.1255 4475975
674.49841 843.62415 4522.8711 4937039
715.54175 860.75385 4614.7075 1185044
754.06219 873.6991 4684.1104 855823
780.2616 871.95624 4674.7666 658700
804.30157 868.00238 4653.5688 2172194
821.36151 857.02759 4594.73 2434596
852.51593 860.99164 4615.9824 3026730
865.51355 846.94196 4540.6592 4079933
898.71771 852.91644 4572.6895 2040353
917.01648 844.80939 4529.2256 5725017
936.50909 838.23206 4493.9629 7172719
974.26056 847.90924 4545.8447 6843754
1003.034 849.46228 4554.1709 6646373
1026.3934 846.46899 4538.123 6909546
1051.8171 845.28754 4531.7891 5791064
1079.1495 845.66052 4533.7886 5264720
1108.1998 847.32892 4542.7334 7435890
1129.4606 843.10364 4520.0806 5133135
1158.3877 844.66412 4528.4468 5988187
1164.9232 830.19635 4450.8818 6448996
1195.4374 833.07953 4466.3394 6383202
1224.6737 834.96667 4476.4565 4606021
1268.0028 846.17822 4536.5645 4671812
1311.5653 857.07684 4594.9941 3421489
1323.3578 847.19336 4542.0068 2697765
1332.4441 836.00616 4482.0293 3026986
1350.3599 830.68768 4453.5156 4539710
1395.2001 841.8183 4513.1899 4277048
1399.4689 828.51135 4441.8481 3289895
1426.338 828.82849 4443.5483 5066307
1460.1873 833.11676 4466.5386 5000772
1508.6021 845.41467 4532.4707 5329483
1501.9252 826.94934 4433.4736 3948088
1523.1403 824.21198 4418.7979 2829863
1548.6836 823.86969 4416.9629 2303006
1586.0486 829.72321 4448.3447 4737601
1600.0881 823.3822 4414.3496 6316888
1648.8025 834.80157 4475.5713 6448218
1683.9609 839.10437 4498.6396 6843232
1728.2177 847.73608 4544.9165 6382681
1719.4746 830.50409 4452.5312 6316628
1738.6998 827.09741 4434.2676 4672055
1777.5404 832.98425 4465.8281 5461572
1789.0695 826.08746 4428.853 4803390
1832.6211 833.96246 4471.0728 5329993
1883.193 844.76227 4528.9727 8225144
1929.5099 853.37659 4575.1562 6382428
1971.4152 859.82806 4609.7441 5922133
1981.9337 852.60095 4570.998 4408891
1948.7423 827.01886 4433.8467 5527115
1991.9852 834.12366 4471.937 4606011
2032.2209 839.79926 4502.3647 2961186
2044.6338 833.97894 4471.1611 4211250
2100.8879 845.96118 4535.4009 5724491
2111.8599 839.63745 4501.4976 6119249
2128.0337 835.51367 4479.3892 6646106
2178.1799 844.66559 4528.4546 6251096
2250.9006 862.24219 4622.687 7303783
2277.105 861.7915 4620.271 6711648
2296.1528 858.67535 4603.5645 5264203
2322.5803 858.35968 4601.8721 4737602
2293.438 837.75262 4491.3926 5329994
2329.1711 841.04449 4509.041 7698542
2384.2322 851.16156 4563.2808 7171941
2428.6895 857.30859 4596.2368 7632748
2451.064 855.61084 4587.1348 8224886
2495.7622 861.65753 4619.5522 7698543
2512.9436 858.17584 4600.8862 7237992
2513.9299 849.29767 4553.2881 8224888
2520.6682 842.53058 4517.0083 6777441
2548.5413 842.89587 4518.9668 4014133
2638.5825 863.60095 4629.9717 7040351
2661.5229 862.14404 4622.1606 6645593
2652.6365 850.51208 4559.7988 4540217
2667.7568 846.7345 4539.5464 5593160
2719.9387 854.67792 4582.1333 6645848
2778.6301 864.48969 4634.7363 9277569
2812.8035 866.55591 4645.814 9672583
2830.6243 863.59314 4629.9297 5856336
2845.0142 859.65057 4608.7925 5987667
2909.103 870.65723 4667.8018 6646110
2882.5515 854.58447 4581.6323 8356472
2874.1184 844.13312 4525.6001 7435627
2916.8123 848.75226 4550.3643 8291192
2980.5984 859.36823 4607.2788 9146245
3030.0645 865.70013 4641.2256 9474697
3035.6887 859.50488 4608.0117 8817023
3031.6697 850.71423 4560.8828 7040611
3029.0503 842.46814 4516.6738 5922130
3076.9229 848.28699 4547.8696 5395529
3137.1233 857.37378 4596.5864 5987664
3142.6228 851.48322 4565.0054 6053199
3229.4058 867.52875 4651.0293 5329476
3342.8333 890.39954 4773.6455 5329475
3395.8276 896.92468 4808.6284 5395525
3386.0154 886.8905 4754.8325 3224099
3403.8723 884.20953 4740.459 3224098
3391.2449 873.71826 4684.2129 5000508
3449.1531 881.42267 4725.5181 5460546
3428.98 869.21021 4660.0439 4934202
3472.4829 873.20502 4681.4614 4670774
3499.3586 872.98853 4680.3008 4671290
3526.8506 872.92804 4679.9766 1974290
3494.6062 858.19849 4601.0078 3289893
3479.4058 847.85034 4545.5288 4868924
3515.9856 850.18188 4558.0288 5395269
3531.5649 847.43848 4543.3208 4868924
3596.4111 856.4693 4591.7373 3684651
3637.9712 859.86066 4609.9189 4013358
3760.8721 882.28363 4730.1338 4145459
3723.7864 867.12036 4648.8403 4606011
3708.9297 857.31812 4596.2881 5000772
3726.1013 855.00812 4583.9033 5329995
3768.9302 858.57635 4603.0337 6185305
3830.5945 866.35327 4644.7275 6843233
3859.4275 866.64685 4646.3013 5066821
3885.1072 866.23309 4644.0835 4474428
3927.5649 869.53986 4661.8115 3948083
3966.147 871.94836 4674.7241 2698016
3981.7192 869.2998 4660.5249 4606015
3958.1274 858.19635 4600.9961 5395275
4004.4912 862.30865 4623.0435 5197897
4074.3774 871.39587 4671.7622 5197896
4080.0823 866.72644 4646.7285 5066566
4134.3076 872.35773 4676.9189 5526862
4229.8101 886.56573 4753.0913 5855827
4247.4116 884.36566 4741.2964 5526862
4363.7744 902.62274 4839.1768 4605761
4340.125 891.86981 4781.5278 5197641
4309.9229 879.9184 4717.4536 6184794
4436.5752 899.93842 4824.7856 5461070
4433.6958 893.59534 4790.7788 6513501
4426.2437 886.41724 4752.2954 5000775
4531.8843 901.83508 4834.9541 5658705
4495.5547 888.98486 4766.061 5987412
4506.4287 885.57135 4747.7603 6645599
4525.4556 883.79236 4738.2227 7237479
0 0 0 0
0 0 0 0
0 0 0 0
0 0 0 0
0 0 0 0
0 0 0 0
-3560.9299 761.60797 3957.428 9205616
-3560.4619 766.5564 3983.1409 8943217
-3560.8433 771.75513 4010.1543 8088936
-3449.8018 752.71222 3911.2043 7826023
-3359.6777 738.00665 3834.792 8944253
-3516.6917 777.75824 4041.3472 8418419
-3420.5627 761.68555 3957.8311 8352113
-3589.9036 804.91339 4182.4492 8022376
-3560.1348 803.78839 4176.604 7693154
-3545.2673 806.03564 4188.2808 7758174
-3580.6096 819.81036 4259.8564 7100245
-3568.8027 822.909 4275.957 7034194
-3456.7288 802.76654 4171.2939 7559768
-3410.0664 797.63403 4144.625 7362388
-3390.147 798.72791 4150.3086 7428180
-3417.7764 811.12207 4214.7109 7363416
-3398.74 812.54236 4222.0908 6968913
-3357.2427 808.57422 4201.4717 6376521
-3399.9385 824.97565 4286.6958 4403759
-3322.6433 812.28967 4220.7778 3218971
-3246.3496 799.65814 4155.1421 852482
-3232.0564 802.22223 4168.4658 2298129
-3197.0132 799.63611 4155.0278 1049090
-3178.29 801.12335 4162.7559 1376256
-3172.833 806.00397 4188.1162 2099211
-3122.2576 799.40948 4153.8506 4730153
-3096.9714 799.23669 4152.9526 9927027
-3141.4426 817.2077 4246.3325 11177346
-3161.6155 829.09692 4308.1108 8874591
-3161.4563 835.80438 4342.9639 8940640
-3109.5193 828.82123 4306.6777 9269865
-3102.5342 833.80304 4332.564 9269609
-3016.5095 817.44891 4247.5859 9533810
-2978.8223 814.02893 4229.8149 9731189
-2930.4734 807.61255 4196.4746 10060410
-2871.7283 798.19678 4147.5488 10126718
-2769.79 776.50916 4034.8569 8416873
-2648.6819 749.02283 3892.0339 2561303
-2669.5703 761.56171 3957.1875 4404535
-2646.8125 761.76117 3958.2241 6640984
-2594.3149 753.32855 3914.407 4732989
-2579.196 755.69568 3926.7068 7036770
-2577.3691 762.03571 3959.6506 7036769
-2600.0095 775.79291 4031.135 7365734
-2541.1533 765.26276 3976.4187 5062979
-2534.8499 770.50964 4003.6824 7694698
-2508.9978 769.85748 4000.2939 8550518
-2480.0139 768.22284 3991.7998 6444373
-2482.5439 776.41254 4034.3547 9601662
-2513.5295 793.74744 4124.4297 8614508
-2515.6106 802.20557 4168.3789 8679530
-2528.9453 814.45569 4232.0327 8876910
-2508.0017 815.80115 4239.0239 8679276
-2483.5044 816.00623 4240.0894 7692380
-2471.2849 820.29077 4262.3525 7363415
-2453.7942 822.89612 4275.8901 7100244
-2455.4268 832.03589 4323.3818 7297623
-2404.9875 823.53754 4279.2231 6376520
-2386.3152 825.85181 4291.2485 6639946
-2338.5771 818.04865 4250.7021 6771274
-2283.5974 807.51471 4195.9663 7363667
-2198.4568 785.96606 4083.9963 8481886
-2156.2725 779.466 4050.2209 7890003
-2159.5093 789.42346 4101.9614 9074017
-2125.6213 785.88196 4083.5593 11838860
-2131.1475 796.9989 4141.3247 11180673
-2109.5603 798.11694 4147.1338 11246471
-2094.0005 801.5686 4165.0693 11312011
-2056.155 796.47003 4138.5762 5456182
-2129.1331 834.69501 4337.1992 6574154
-2106.5161 835.91968 4343.563 6639691
-2072.1838 832.4682 4325.6284 6640205
-2055.9487 836.29163 4345.4956 7034963
-2033.3202 837.57849 4352.1821 6837328
-2009.5165 838.40796 4356.4922 6771793
-1986.0359 839.39569 4361.6245 6903636
-1941.1514 831.24384 4319.2661 6113609
-1886.7072 818.72571 4254.2202 4929077
-1891.3228 831.84424 4322.3862 6046791
-1867.5029 832.64484 4326.5459 9072498
-1724.4587 779.57031 4050.7629 8743273
-1683.6368 771.86096 4010.7039 9138029
-1652.0481 768.2243 3991.8074 8282720
-1626.3633 767.26727 3986.8347 6967375
-1647.0354 788.47424 4097.0293 5783616
-1619.8495 787.06213 4089.6919 8217702
-1585.8889 782.26562 4064.7681 8678767
-1578.7711 790.76593 4108.937 9205624
-1651.5232 840.164 4365.6167 9140088
-1718.3762 888.08557 4614.6245 9140601
-1798.384 944.4657 4907.584 7627618
-1820.1886 971.63019 5048.7344 5456707
-1749.2787 949.38361 4933.1382 5521987
-1448.886 799.71722 4155.4492 5192766
-1502.0146 843.37628 4382.3081 5915978
-1490.3644 851.55853 4424.8242 5521734
-1477.3954 859.26685 4464.8779 5784907
-1481.1676 877.17065 4557.9092 6377303
-1459.1377 880.17535 4573.522 5653835
-1449.2358 890.74817 4628.46 5654093
-1421.5103 890.5625 4627.4951 6049365
-1397.4199 892.69189 4638.5596 6444381
-1371.6868 893.83612 4644.5049 5984859
-1344.0363 893.75214 4644.0688 5459286
-1294.6393 878.90149 4566.9028 4011842
-1255.1525 870.28833 4522.147 2629935
-1266.8224 897.5437 4663.77 3222071
-1245.7177 902.27594 4688.3599 3025198
-1204.5033 892.3266 4636.6616 2828861
-1176.5215 891.94452 4634.6763 3817038
-1151.017 893.46722 4642.5884 4212053
-1070.3834 851.22302 4423.0811 7369607
-1074.4928 875.94147 4551.522 6184822
-1038.5574 868.44739 4512.5815 6580606
-1016.5912 872.547 4533.8838 6975621
-970.67346 855.75317 4446.6206 7635350
-959.0155 869.06873 4515.8101 8228513
-920.25238 857.88074 4457.6758 8952492
-900.13922 863.93115 4489.1143 9347506
-876.66705 867.02795 4505.2061 9676216
-849.74969 866.80505 4504.0479 10663878
-819.86658 863.44427 4486.5845 10532804
-794.77094 865.06909 4495.0273 10994124
-773.35321 870.94873 4525.5786 11258321
-743.02118 866.85083 4504.2856 10864074
-715.00964 865.25574 4495.9971 11521747
-687.63086 864.33234 4491.1992 11324628
-660.57556 863.75769 4488.2134 11061458
-628.45105 856.22827 4449.0894 10798032
-598.64197 851.33221 4423.6484 10600655
-571.84247 850.46362 4419.1353 10534863
-547.89655 853.95929 4437.2993 10468559
-521.10278 853.14508 4433.0684 10403023
-491.94226 848.1637 4407.1846 10468560
-465.73752 848.00568 4406.3633 10534097
-437.79007 844.46716 4387.9766 10271182
-413.14813 847.26062 4402.4917 10270925
-386.44476 845.91821 4395.5166 10139597
-359.91736 844.79474 4389.6787 10205134
-331.42789 838.53204 4357.1367 9745355
-305.14059 837.25354 4350.4937 9679308
-279.12912 836.56567 4346.9194 9481930
-252.72676 834.4472 4335.9116 9481931
-226.97864 834.25403 4334.9077 9350344
-202.03415 837.3421 4350.9536 9284295
-175.49307 833.74847 4332.2808 9086658
-150.29163 836.37842 4345.9463 9217987
-123.91367 832.1947 4324.207 9480901
-98.345482 832.68567 4326.7583 9283522
-72.433868 829.58966 4310.6709 9217730
-47.120499 833.70477 4332.0537 9283523
-21.486834 835.22113 4339.9331 9086400
4.2299504 834.71118 4337.2832 9086913
30.05299 838.03998 4354.5801 9021636
55.881893 838.3811 4356.3525 8758207
82.865044 850.35132 4418.5518 9021379
107.67834 839.65283 4362.9609 9152965
135.41351 851.46997 4424.3643 9021636
162.50691 856.07245 4448.2793 9021380
189.53537 859.0957 4463.9888 9152195
216.53381 861.25897 4475.2295 9020609
241.7942 856.79144 4452.0156 8954817
269.14966 859.89648 4468.1499 8954816
295.85791 860.56262 4471.6113 8890048
323.40576 863.36072 4486.1504 8955584
350.27222 864.05292 4489.7471 8955585
375.08282 859.9339 4468.3442 9021123
400.50146 857.66022 4456.5298 9152195
425.51581 854.85577 4441.9575 9217731
459.48431 869.31879 4517.1094 9217986
479.22882 856.75977 4451.8511 9349054
510.84341 865.62537 4497.918 11978970
540.50806 870.47125 4523.0981 8363443
566.66132 869.47162 4517.9033 10205382
591.94775 867.29193 4506.5776 10665927
616.44019 864.18744 4490.4463 10863561
650.16968 873.75336 4540.1523 11193037
672.70953 868.11914 4510.876 11259083
703.34674 872.96558 4536.0586 11390925
743.57281 888.91846 4618.9521 11390670
777.22284 896.15625 4656.5605 11192779
807.58533 899.23682 4672.5679 11390159
827.83643 891.22766 4630.9512 11455697
846.40753 881.98175 4582.9082 11652561
861.6712 869.97162 4520.5015 11783632
871.48334 853.3476 4434.1206 12177361
903.59003 858.88831 4462.9111 12308175
928.89111 857.82898 4457.4067 12242380
960.22339 862.24414 4480.3481 12110538
984.59039 860.33521 4470.4297 11584449
1014.8038 863.50122 4486.8804 11123899
1045.0759 866.55414 4502.7441 10136746
1067.0066 862.71069 4482.7729 9346460
1086.561 857.17944 4454.0317 7831683
1125.4988 866.83917 4504.2251 5988713
1137.45 855.74841 4446.5957 3487802
1172.5129 862.15399 4479.8804 3093045
1220.6993 877.7121 4560.7222 855825
1244.7448 875.61414 4549.8208 1514013
1264.323 870.52936 4523.3994 3027250
1290.8578 870.34601 4522.4468 2895149
1306.2327 862.79877 4483.2305 2829612
1320.7174 854.97626 4442.5835 1710873
1342.369 852.00836 4427.1616 2698021
1358.1505 845.49976 4393.3423 3684659
1382.7682 844.63342 4388.8408 3947831
1415.0364 848.38605 4408.3398 1579539
1438.351 846.73169 4399.7437 2105625
1459.1855 843.70239 4384.0029 3026727
1468.8754 834.44788 4335.915 3158313
1504.698 840.10205 4365.2949 5329997
1539.9554 845.25476 4392.0693 5198154
1569.0187 846.89288 4400.5811 1118733
1597.8179 848.33734 4408.0864 1645075
1621.6965 847.16479 4401.9937 3618865
1645.9392 846.21649 4397.0664 2763555
1666.3398 843.35321 4382.1885 1447947
1682.6129 838.52094 4357.0791 3158307
1710.127 839.35187 4361.397 4013613
1749.0861 845.69183 4394.3403 5987403
1772.6031 844.48901 4388.0903 6382676
1815.9938 852.6521 4430.5068 5790795
1843.5717 853.26385 4433.6855 5921872
1885.5413 860.42578 4470.8999 6185046
1936.8728 871.60217 4528.9741 6579548
1924.6136 854.24799 4438.7993 6514011
1976.4626 865.4328 4496.917 7303528
1952.9197 843.74731 4384.2363 7237734
1979.454 843.98285 4385.46 5132613
1993.6937 839.03809 4359.7666 6514010
2053.6113 853.19727 4433.3398 8093043
2073.1797 850.44696 4419.0488 6645854
2097.1306 849.54071 4414.3398 7303784
2130.9727 852.61432 4430.3105 5987925
2205.582 871.72571 4529.6162 7698542
2188.8901 854.72577 4441.2822 6909027
2191.6624 845.64008 4394.0713 6514270
2223.5662 847.87592 4405.689 5592913
2258.3096 851.13013 4422.5986 4276796
2283.8162 850.86829 4421.2378 1776664
2310.8701 851.18237 4422.8701 1974041
2379.915 866.78296 4503.9326 6119256
2440.1062 878.84851 4566.6274 7501165
2464.0493 877.73718 4560.8525 8553854
2445.8135 861.78827 4477.9795 5790547
2448.9207 853.62109 4435.542 5329995
2462.1057 849.10291 4412.0649 7106406
2559.0349 873.25708 4537.5732 7895922
2547.5251 860.28937 4470.1914 7040610
2596.5747 867.82886 4509.3672 7303527
2614.7231 864.99213 4494.6274 5329992
2639.7795 864.47479 4491.9395 3684909
2715.1331 880.2746 4574.0376 5592649
2740.6921 879.77783 4571.4561 4737597
2784.1379 884.97632 4598.4683 5461319
2799.2913 881.16797 4578.6797 7895660
2821.4917 879.62976 4570.687 7501416
2866.052 885.02557 4598.7241 7764588
2776.1807 849.19867 4412.5625 10067599
2787.8394 844.80743 4389.7446 8422005
2897.0913 869.79791 4519.5991 5921617
2944.5808 875.9574 4551.6045 7040355
2978.1404 877.89868 4561.6919 5592907
3044.0547 889.2569 4620.7109 7895661
3049.0413 882.77252 4587.0171 8422260
2975.0603 853.74164 4436.1685 7895914
3078.3794 875.65289 4550.0225 6711127
3096.5891 873.1842 4537.1948 6447953
3114.8757 870.7796 4524.7002 7237470
3186.2349 883.12604 4588.854 3947819
3252.0833 893.74896 4644.0522 4210734
3301.8865 899.82111 4675.604 2894876
3362.3596 908.67572 4721.6138 4276014
3327.3069 891.78137 4633.8286 4012843
3340.7883 888.06525 4614.519 3749670
3353.4297 884.18799 4594.3721 4604981
3365.7639 880.29279 4574.1318 4145456
3382.2817 877.54541 4559.856 5395268
3422.4082 880.91827 4577.3818 5198146
3406.1519 869.83942 4519.8145 6382161
3396.156 860.51978 4471.3887 5987404
3408.5227 856.96674 4452.9263 5066301
3471.8494 866.18225 4500.8115 5395266
3508.0864 868.55017 4513.1157 4671543
3637.4116 893.75519 4644.0845 3618855
3647.1472 889.41772 4621.5464 3947819
3637.936 880.5589 4575.5146 4474166
3637.2341 873.87561 4540.7871 5461062
3617.9072 862.84839 4483.4883 4671804
3644.6584 862.89136 4483.7114 4671807
3738.2654 878.64734 4565.582 4013622
3761.0354 877.64716 4560.3848 4276795
3724.0605 862.81897 4483.3354 5461068
3838.0957 882.94019 4587.8882 5197896
3880.3181 886.37427 4605.7324 3882036
3866.5959 877.07037 4557.3877 2171418
3898.6965 878.21747 4563.3481 3355436
3891.9468 870.65778 4524.0669 4407863
3985.8159 885.55652 4601.4834 3421225
3877.5374 855.64563 4446.0615 4276532
3968.3132 869.7666 4519.4365 4079157
4073.23 886.77704 4607.8252 3355432
4138.9409 895.08228 4650.9805 2763297
4185.1997 899.09875 4671.8506 4868930
4184.6729 893.07758 4640.5635 5461071
4218.5908 894.43811 4647.6328 6908516
4206.0688 885.99854 4603.7798 4474177
4122.9668 862.896 4483.7358 5329484
4197.6558 872.90204 4535.7285 6250587
4324.8872 893.63739 4643.4727 6645344
4343.0508 891.71667 4633.4922 5855829
4362.6987 890.12299 4625.2109 6250587
4411.6255 894.4856 4647.8799 4934726
4382.0005 882.96613 4588.0229 5987413
0 0 0 0
0 0 0 0
0 0 0 0
0 0 0 0
0 0 0 0
0 0 0 0
-3359.9663 740.75507 3734.0876 8419447
-3346.7671 742.73682 3744.0774 5130312
-3311.448 739.80328 3729.2898 7301994
-3315.0637 745.5871 3758.4456 6315102
-3285.5857 743.95575 3750.2219 6315617
-3277.8955 747.26923 3766.925 6446946
-3197.3508 733.90546 3699.5593 6841703
-3213.2209 742.64044 3743.5918 8026232
-3186.416 741.56531 3738.1721 7565680
-3194.1396 748.5672 3773.4678 7829108
-3273.0505 772.46857 3893.9529 8157558
-3348.3176 795.84332 4011.783 8222323
-3359.6021 804.23596 4054.0896 6839642
-3365.2703 811.39526 4090.1794 6707285
-3422.5933 831.20337 4190.0303 7233115
-3334.1843 815.65009 4111.6274 6443341
-3288.1353 810.3067 4084.6921 7035478
-3153.635 782.92517 3946.6638 7430234
-3164.802 791.56812 3990.2319 7561564
-3208.2563 808.47754 4075.4714 7429720
-3246.7393 824.38129 4155.6406 8087651
-3183.6099 814.5304 4105.9834 7692124
-3153.1484 812.95032 4098.0186 7757916
-3164.2629 822.14819 4144.3838 5980219
-3115.3569 815.77313 4112.248 7296593
-3135.0708 827.40778 4170.8975 7098443
-3029.4744 805.89258 4062.4407 6835271
-3082.0315 826.44135 4166.0254 6835525
-3094.6482 836.52545 4216.8589 7361614
-3017.5869 822.33545 4145.3276 7361612
-3063.1301 841.5979 4242.4287 7361868
-2993.1423 829.17444 4179.8027 7164490
-2902.7151 810.83405 4087.3503 7362124
-2885.0442 812.67969 4096.6538 8020823
-2858.0657 811.91235 4092.7856 8679011
-2770.4453 793.75757 4001.269 9140081
-2714.7078 784.50275 3954.6165 852481
-2665.5137 776.99432 3916.7668 918532
-2659.178 781.95691 3941.7827 5654347
-2667.6445 791.39862 3989.3779 525316
-2646.1409 792.0387 3992.6042 2233111
-2603.9607 786.44556 3964.4097 6773082
-2617.7598 797.81128 4021.7034 7496807
-2571.1062 790.79248 3986.3225 7299938
-2534.9976 786.91693 3966.7861 5852495
-2501.7585 783.86792 3951.4163 7826541
-2487.7437 786.84167 3966.4067 5062975
-2473.0212 789.64624 3980.5444 9074806
-2481.4878 799.98047 4032.6382 9600889
-2506.915 816.03668 4113.5762 9862773
-2479.4756 815.03033 4108.5034 10059382
-2473.085 820.99158 4138.5537 9993846
-2449.3645 821.26166 4139.915 9664882
-2424.2969 821.08093 4139.0039 9205100
-2397.2637 820.22394 4134.6841 8941929
-2363.866 817.14935 4119.1851 8349537
-2352.6001 821.74078 4142.3301 7954781
-2299.1758 811.54834 4090.9509 8021087
-2299.5112 820.31665 4135.1514 6048067
-2275.7979 820.60229 4136.5913 6047039
-2220.1292 809.24646 4079.3474 9073766
-2181.2649 803.83325 4052.0596 8745827
-2144.7183 799.16309 4028.5181 8613985
-2145.3232 808.38708 4075.0154 8350296
-2106.2903 802.71484 4046.4221 11574922
-2075.5188 800.09674 4033.2246 12035727
-2090.8296 815.38916 4110.312 11312262
-2086.7278 823.38196 4150.6035 11509384
-2053.9377 820.11066 4134.1133 7034957
-2111.166 853.13757 4300.5991 5982012
-2060.0967 842.67297 4247.8477 6244417
-2051.0398 849.34698 4281.4912 6638662
-2005.2142 840.77142 4238.2622 6441286
-2002.057 850.09564 4285.2651 6046527
-1944.6451 836.32654 4215.856 6902094
-1927.5927 839.7821 4233.2749 7362131
-1888.5461 833.6203 4202.2139 6638664
-1853.1422 828.92322 4178.5366 7427923
-1780.27 807.11218 4068.5886 6243906
-1783.8757 819.85065 4132.8022 6111292
-1710.0079 796.84204 4016.8176 8808805
-1673.2454 790.71851 3985.9495 9664370
-1639.8204 786.01947 3962.262 8216668
-1621.6345 788.5946 3975.2429 6111548
-1637.9294 808.26056 4074.3777 6308670
-1590.5791 796.63861 4015.7922 6966588
-1554.0674 790.1745 3983.207 8019515
-1556.3154 803.52258 4050.4937 7756082
-1535.4963 805.19263 4058.9124 7296045
-1504.2946 801.38489 4039.7175 7888452
-1498.2034 811.04736 4088.4255 8086351
-1477.1093 812.77228 4097.1206 9139044
-1463.5892 818.79199 4127.4658 9336939
-1437.082 817.62744 4121.5952 10192251
-1432.1136 828.88892 4178.3633 7494742
-1386.7732 816.76874 4117.2666 5718591
-1402.3638 840.74371 4238.1226 5652545
-1390.33 848.72974 4278.3794 5323325
-1375.145 855.05322 4310.2554 6310733
-1367.9025 866.64795 4368.7036 6244939
-1342.5083 866.96808 4370.3174 5981766
-1316.8339 867.11621 4371.064 5389629
-1271.3827 853.98633 4304.8774 6968920
-1226.4017 840.64093 4237.6045 6376785
-1211.2501 847.61176 4272.7437 6575190
-1168.1545 834.90796 4208.7051 6509398
-1153.1377 842.15631 4245.2432 6772569
-1140.5907 851.57196 4292.7065 7035225
-1106.9518 845.31042 4261.1431 6968920
-1082.2717 845.75775 4263.3979 7101019
-1054.8497 844.03247 4254.7012 7232349
-1035.8481 849.12531 4280.3735 7430754
-1011.6962 850.14575 4285.5176 7430497
-997.37823 859.69537 4333.6562 7693925
-977.75873 865.05914 4360.6948 7825257
-940.38025 854.57568 4307.8486 7693670
-928.96686 867.7616 4374.3174 7890539
-895.2049 860.229 4336.3462 7693159
-866.39563 857.151 4320.8306 8285554
-845.6344 862.09033 4345.729 8417651
-816.86096 858.91516 4329.7231 8680825
-776.08093 842.49976 4246.9746 8418938
-747.01965 838.1322 4224.958 7826546
-719.36682 835.09668 4209.6562 7102567
-690.73376 830.66425 4187.313 6115673
-661.97675 825.74689 4162.5249 7497071
-634.862 822.57666 4146.5439 3155759
-619.72668 835.29773 4210.6699 6445929
-598.25348 840.18518 4235.3071 4933977
-584.53412 856.867 4319.3989 5000544
-561.93481 861.46368 4342.5703 4277595
-536.24652 861.53864 4342.9482 4081502
-511.85074 863.80255 4354.3604 3424086
-488.65152 868.43329 4377.7036 3621466
-462.84155 868.68341 4378.9644 3622236
-431.81345 858.58771 4328.0728 5793405
-410.4223 867.58856 4373.4453 7109265
-376.74573 850.08221 4285.1973 6583436
-355.47372 860.05762 4335.4824 7044502
-332.27255 866.55627 4368.2417 7835048
-304.11279 860.12854 4335.8398 8427954
-278.20074 859.45831 4332.4614 9546438
-254.69464 866.84033 4369.6738 9613002
-228.49586 865.69177 4363.8838 9613004
-202.00565 863.005 4350.3398 9547466
-175.45465 859.23431 4331.3325 9744588
-149.03838 854.94434 4309.7065 9481673
-123.77855 856.88544 4319.4917 9546695
-97.781731 853.40668 4301.9556 8625592
-73.164925 863.76624 4354.1772 8889278
-47.178848 860.44171 4337.4185 8626104
-21.538015 862.99127 4350.271 5731212
4.2200103 858.39288 4327.0908 7638954
29.741838 854.90234 4309.4951 8362936
55.230537 854.12463 4305.5747 8823488
80.790886 854.59631 4307.9526 9021381
106.29819 854.41522 4307.0396 8955588
131.6871 853.53674 4302.6113 8955588
157.45752 855.01495 4310.063 8890050
183.0107 855.06555 4310.3179 8954817
208.98949 856.84875 4319.3066 8954817
234.85948 857.84546 4324.3311 8889023
260.46991 857.7912 4324.0576 8889023
286.15686 857.97601 4324.9893 8758462
311.79755 858.00323 4325.1265 8758206
337.33054 857.7525 4323.8623 8758462
362.15244 855.85657 4314.3052 8692413
388.15927 856.82635 4319.1938 8757694
413.2442 855.76703 4313.854 8757438
439.10892 856.35187 4316.8022 8823229
466.48557 859.65863 4333.4712 9085886
492.82819 860.81415 4339.2959 5597056
520.90186 864.7287 4359.0288 9217985
555.71222 878.92828 4430.6079 9152194
585.59717 884.4079 4458.23 9217219
618.56824 893.8739 4505.9478 9283267
641.44775 888.57715 4479.2471 9546181
663.21008 882.21515 4447.1768 9611975
688.4978 880.84985 4440.2944 9874888
729.68719 899.18036 4532.6968 10006471
754.40039 896.62671 4519.8242 10138054
783.10211 898.82623 4530.9121 10270409
809.7641 898.61627 4529.8535 10270663
820.52374 881.33887 4442.7593 10534088
849.59625 884.19434 4457.1538 10731722
882.96539 891.21442 4492.5415 11060939
922.27655 903.64545 4555.2056 11455691
951.41425 905.68518 4565.4873 11718348
980.92487 907.95709 4576.9399 11981004
1001.2983 901.87689 4546.29 12243149
1030.8541 904.16931 4557.8457 12440014
1060.1294 906.10468 4567.6021 12505295
1096.9554 914.237 4608.5962 12701648
1123.344 913.48633 4604.8125 12701903
1168.6759 927.81055 4677.0195 12767697
1182.6658 917.16504 4623.3564 12636624
1202.1077 911.13391 4592.9541 12506064
1244.1758 922.13977 4648.4336 12309711
1277.5673 926.3772 4669.7944 12243921
1293.9631 918.37268 4629.4438 11784401
1330.7593 924.87848 4662.2393 11389905
1363.2957 928.21954 4679.0811 10468296
1363.8517 910.0871 4587.6768 9743292
1361.5404 890.78741 4490.3892 7044238
1377.9908 884.26733 4457.5215 6056570
1395.1229 878.42163 4428.0542 2896701
1414.4976 874.17786 4406.6611 2040357
1439.1355 873.28162 4402.1436 1382424
1456.7217 868.21448 4376.6006 1645594
1468.6619 860.01837 4335.2847 2631975
1508.3174 868.05469 4375.7949 1118733
1538.7992 870.62885 4388.7715 1184786
1571.579 874.39618 4407.7622 4803402
1606.0995 878.99298 4430.9341 2565926
1605.0629 864.29498 4356.8423 1579031
1629.8243 863.73425 4354.0161 1974044
1638.8491 854.9812 4309.8926 1381649
1684.5424 865.33295 4362.0752 854791
1727.0873 873.77911 4404.6514 1381645
1752.6735 873.52161 4403.3535 1710353
1766.8433 867.66522 4373.8315 5263428
1792.291 867.43652 4372.6787 4474171
1810.8607 863.93298 4355.0181 2105626
1869.2954 879.2796 4432.3789 921355
1923.496 892.23688 4497.6953 592390
1930.1606 883.09106 4451.5923 1579282
1935.1119 873.41864 4402.8345 3223850
1909.3099 850.30768 4286.334 3355692
1937.6561 851.60187 4292.8574 1513236
1954.7777 847.99304 4274.666 1974041
1993.8787 853.88947 4304.3892 3092521
2050.6406 867.1048 4371.0068 5132104
2090.8213 873.06647 4401.0591 3751222
2126.9409 877.20642 4421.9282 4869445
2147.801 875.02875 4410.9507 5856339
2167.5598 872.46027 4398.0029 7501422
2163.6958 860.55725 4338.001 6974822
2188.2419 860.10046 4335.6987 6909028
2201.4182 855.23737 4311.1841 6909028
2292.9963 880.59503 4439.0098 7435371
2294.7925 871.28882 4392.0981 6514013
2302.9956 864.59692 4358.3647 5461581
2342.687 869.74347 4384.3081 4540479
2372.6824 871.21704 4391.7363 5987927
2397.6353 870.82721 4389.771 8356730
2435.9512 875.24707 4412.0513 5461326
2386.0293 848.20544 4275.7368 5724498
2461.0139 865.66852 4363.7666 5461068
2525.5027 879.11487 4431.5483 6777442
2587.9094 891.56702 4494.3188 6842977
2592.6682 884.10742 4456.7153 6776927
2647.0134 893.53687 4504.2485 7171685
2715.9468 907.65338 4575.4087 6119509
2725.658 901.89465 4546.3794 4540220
2657.2412 870.64978 4388.877 5592394
2751.3376 892.74243 4500.2441 1184779
2848.8762 915.51697 4615.0488 3355946
2783.2463 885.9212 4465.8584 6514266
2796.8726 881.87274 4445.4507 7303783
2793.8291 872.69293 4399.1763 5987923
2773.0671 858.1994 4326.1152 6711645
2821.8105 865.28461 4361.8315 5987664
2847.4768 865.22906 4361.5513 3882287
2914.2603 877.55585 4423.6899 6448465
2986.3838 891.25665 4492.7544 7237984
3003.2844 888.38013 4478.2539 9408897
3034.3579 889.70972 4484.9561 8092524
3020.3806 877.92139 4425.5322 6579795
3067.4856 883.93774 4455.8604 5263679
3151.2319 900.32013 4538.4424 5395009
3168.0583 897.46759 4524.063 5658694
3278.9807 921.0954 4643.1689 6777176
3314.2939 923.26727 4654.1172 6513747
3314.1772 915.61511 4615.5435 4210223
3220.7842 882.52948 4448.7612 4474422
3298.7214 896.54633 4519.4189 2763549
3308.2334 891.89008 4495.9473 5197635
3391.1897 906.95044 4571.8652 2566175
3319.1206 880.64008 4439.2373 4803391
3395.29 893.76556 4505.4014 4606268
3353.1543 875.78693 4414.7725 6448213
3374.387 874.50903 4408.3311 4869437
3402.7241 875.07819 4411.1997 5855817
3462.938 883.77356 4455.0327 4408372
3543.97 897.61035 4524.7827 5263937
3547.0435 891.64227 4494.6982 6251089
3618.2144 902.75378 4550.7104 6053711
3562.6868 882.32306 4447.7207 4342581
3579.0786 879.87305 4435.3701 4342839
3537.4011 863.28705 4351.7617 4210997
3614.5979 875.742 4414.5459 5000512
3707.8416 891.87775 4495.8853 4540218
3673.8669 877.40088 4422.9082 3816495
3748.927 888.98438 4481.2998 4277047
3700.4211 871.30981 4392.2041 4342841
3794.5132 887.22412 4472.4268 4737598
3792.0068 880.48798 4438.4702 5856079
3792.5339 874.54407 4408.5073 5000514
3827.2664 876.51508 4418.4434 4079154
3841.3152 873.7547 4404.5283 4144948
3832.8276 865.93994 4365.1348 4276535
3885.0532 871.8548 4394.9507 3487019
3916.365 873.02869 4400.8687 4013363
4071.2551 901.5528 4544.6562 3289642
4076.3262 896.74347 4520.4131 2960422
4136.5259 904.04559 4557.2222 2631969
4194.7266 910.81866 4591.3647 3224365
4163.0352 898.11169 4527.3101 5461070
4136.1201 886.59131 4469.2368 5329484
4172.9858 888.80225 4480.3818 5000518
4203.1323 889.56305 4484.2168 4803140
4294.6841 903.22858 4553.104 5658449
4220.8096 882.14935 4446.8452 5987414
4372.8442 908.25397 4578.436 6447965
0 0 0 0
0 0 0 0
0 0 0 0
0 0 0 0
0 0 0 0
0 0 0 0
-3196.0623 725.66949 3551.9336 8484982
-3219.8462 735.91644 3602.0891 6840929
-3250.511 747.88336 3660.6638 6906722
-3252.1055 753.27753 3687.0667 6314844
-3207.4824 747.96716 3661.0737 7565424
-3146.5874 738.76392 3616.0269 8091512
-3144.6406 743.36945 3638.5696 7566196
-3122.8682 743.31958 3638.3252 7961209
-3140.1646 752.633 3683.9119 8355968
-3083.3491 744.18939 3642.583 8881799
-3052.6558 741.97601 3631.749 9013383
-3033.54 742.56512 3634.6326 9342349
-3040.4861 749.58789 3669.0068 9342092
-3053.1167 758.12329 3710.7852 9736080
-3052.0842 763.3653 3736.4431 9603722
-3040.5154 766.0293 3749.4827 9998220
-3005.1428 762.69135 3733.1443 9602947
-3006.2183 768.62274 3762.1768 7429976
-2983.8162 768.59528 3762.0422 8021857
-2922.6995 758.5199 3712.7263 8152926
-2980.6426 779.42529 3815.052 7494743
-3049.9819 803.65314 3933.6401 7757402
-3049.7344 809.7771 3963.6152 7691607
-3028.5874 810.40393 3966.6831 7493716
-3051.2664 822.85931 4027.6487 7559508
-3024.9976 822.20709 4024.4558 7625557
-2996.0991 820.82385 4017.6855 7691349
-2992.344 826.36212 4044.7937 7757142
-2940.0918 818.48877 4006.2559 7559506
-2941.8206 825.63727 4041.2456 7888471
-2907.5037 822.70367 4026.8865 7954522
-2892.7175 825.29364 4039.5637 7888727
-2859.978 822.76202 4027.1721 7626068
-2812.1494 815.8103 3993.1455 6113349
-2769.4604 810.24438 3965.9021 985610
-2731.1821 805.88464 3944.5623 196609
-2679.3484 797.41522 3903.1072 327680
-2656.687 797.55609 3903.7966 4733244
-2663.3728 806.58704 3948.0007 2892580
-2644.7537 808.04669 3955.1453 7167584
-2604.7756 802.94849 3930.1909 4996159
-2586.8596 804.6203 3938.374 5851725
-2555.9768 802.25269 3926.7854 6970720
-2569.4248 813.88373 3983.7156 6312532
-2531.844 809.41675 3961.8513 6049359
-2502.7014 807.58917 3952.9058 7496547
-2469.0857 804.2699 3936.6592 7232605
-2465.9915 810.92413 3969.2292 8548203
-2435.696 808.67548 3958.2229 7166547
-2449.0449 821.01434 4018.6179 8021340
-2448.4175 828.86407 4057.04 8941414
-2406.7703 822.84534 4027.5803 8940901
-2388.291 824.7063 4036.6887 8940644
-2365.0654 824.94928 4037.8782 9006436
-2388.5332 841.6507 4119.6265 9138024
-2330.8618 829.81049 4061.6726 8809830
-2300.1514 827.42194 4049.9814 8283230
-2267.7671 824.37451 4035.0649 7165004
-2256.1628 828.89655 4057.199 4402727
-2197.075 815.883 3993.5012 10258041
-2204.7424 827.64551 4051.0752 5258289
-2180.6199 827.60181 4050.8613 9073510
-2165.6323 831.06268 4067.8018 8350040
-2122.6768 823.74811 4031.9985 7429194
-2105.4883 826.38013 4044.8818 9600617
-2066.3049 820.34058 4015.3201 11245955
-2074.6577 833.25244 4078.5195 8482397
-2018.0254 820.06085 4013.9509 6376767
-1977.8737 813.33167 3981.0134 6968651
-2048.9932 852.74884 4173.9487 6968908
-2013.5662 848.24493 4151.9033 6967885
-1966.7198 838.75946 4105.4751 6704968
-1953.8975 843.7287 4129.7979 6836298
-1936.1003 846.64856 4144.0894 6902348
-1915.8281 848.54706 4153.3823 6112320
-1891.4447 848.65039 4153.8882 6244163
-1868.1398 849.24689 4156.8076 7362389
-1820.2026 838.51196 4104.2632 2691344
-1771.4446 827.10291 4048.4192 6440258
-1706.3594 807.65247 3953.2156 4465955
-1685.0826 808.68475 3958.2681 6308413
-1669.225 812.38354 3976.3726 10058868
-1646.4576 812.77716 3978.2993 8216661
-1626.0962 814.38715 3986.1799 8151115
-1615.6583 821.08795 4018.978 5717021
-1571.2949 810.49005 3967.1045 8414262
-1547.2832 810.22736 3965.8186 7756329
-1543.2456 820.57709 4016.4775 8085548
-1517.9833 819.7887 4012.6189 7098653
-1495.9337 820.73792 4017.2649 6572314
-1477.4525 823.70715 4031.7986 8086073
-1455.7932 824.97321 4037.9954 9073230
-1424.2645 820.59515 4016.5662 9007952
-1420.9346 832.59131 4075.2837 7495231
-1409.1475 839.96118 4111.3569 8087122
-1362.0813 826.19128 4043.9575 5323569
-1371.9302 847.06921 4146.1484 5783870
-1331.422 837.04956 4097.1055 5914943
-1345.1362 861.38 4216.1958 5256757
-1311.641 855.82794 4189.02 5980223
-1277.384 849.55499 4158.3159 5454394
-1254.943 851.04828 4165.625 4467754
-1227.5179 849.15375 4156.3521 4204326
-1170.9131 826.58276 4045.8738 4205354
-1171.9384 844.60138 4134.0693 5980994
-1155.0302 850.18909 4161.4194 6244424
-1125.3765 846.43439 4143.041 6310216
-1112.6288 855.51111 4187.4692 5652286
-1087.3042 855.11102 4185.5107 6112580
-1055.203 849.2384 4156.7661 6178373
-1033.6992 851.81769 4169.3911 5849664
-1017.1772 858.72925 4203.2207 5586492
-989.58472 856.40698 4191.854 8021346
-984.17407 873.65613 4276.2837 6376264
-947.4754 863.30841 4225.6348 6901839
-920.84058 861.81769 4218.3379 6967888
-910.67786 876.09033 4288.1982 7164752
-867.56531 858.57391 4202.4609 7296338
-855.51398 871.67004 4266.562 6243650
-807.48645 847.79193 4149.686 7165007
-791.15454 856.73663 4193.4678 7888730
-763.53949 853.64673 4178.3438 8678247
-736.54608 851.06812 4165.7222 8809576
-715.17914 855.03735 4185.1504 9073005
-687.28107 851.203 4166.3823 8086624
-658.758 846.27991 4142.2852 7691867
-629.56006 840.0752 4111.915 8415591
-610.11206 846.90479 4145.3438 7823197
-586.12756 847.74622 4149.4624 8810604
-566.211 854.80255 4184.001 9271923
-541.5611 855.0321 4185.1245 9601144
-512.27893 847.61908 4148.8398 9140336
-488.02533 848.19836 4151.6753 8679787
-459.07379 840.24048 4112.7241 5389885
-447.22983 864.45782 4231.2607 3352871
-420.64432 861.36548 4216.1245 6245710
-394.91907 859.75531 4208.2432 6837845
-365.92596 850.33435 4162.1304 6772564
-338.8493 844.32678 4132.7251 3155494
-314.26562 844.07898 4131.5122 5129030
-289.24094 842.50476 4123.8066 4733764
-262.37173 834.7713 4085.9541 4010815
-242.63667 850.47131 4162.8008 4142661
-219.98796 858.35669 4201.3975 4208457
-198.28015 872.39453 4270.1084 2827313
-173.55835 875.33875 4284.5195 3024682
-146.8246 867.40601 4245.6914 4406607
-123.55518 880.89111 4311.6968 3157309
-97.619659 877.44427 4294.8257 3091518
-71.869362 873.81812 4277.0762 3354949
-46.61874 875.62579 4285.9243 2039082
-20.80125 858.36914 4201.458 1907242
4.1010189 859.10913 4205.0806 3552332
29.003771 858.59253 4202.5518 4933984
54.109974 861.79352 4218.2197 4539228
79.377647 864.73065 4232.5957 3619670
105.08437 869.8916 4257.8574 5002865
130.15561 868.81201 4252.5732 5596286
154.65834 864.90332 4233.4414 6321295
178.96344 861.13489 4214.9961 7242657
204.17754 862.12775 4219.8555 7638185
230.03345 865.31818 4235.4717 8164532
253.53032 859.88 4208.8535 8098482
278.50793 859.98816 4209.3828 8691389
304.65149 863.38287 4225.999 8823233
331.95013 869.28668 4254.8965 9020611
