# .PCD v0.7 - Point Cloud Data file format
VERSION 0.7
FIELDS x y z rgb
SIZE 4 4 4 4
TYPE F F F U
COUNT 1 1 1 1
WIDTH 1258
HEIGHT 1
VIEWPOINT 0 0 0 1 0 0 0
POINTS 1258
DATA ascii
2547.8599 838.81012 3045.5979 9084077
2564.7363 838.42688 3044.2063 9215662
2574.2241 835.65039 3034.1255 9215148
2588.7803 834.54639 3030.1169 9280943
2597.3003 831.52502 3019.147 9215408
2619.03 832.74536 3023.5776 9084077
2637.1897 832.82159 3023.8542 9149357
2659.8362 834.30408 3029.2371 9084079
2672.2871 832.59015 3023.0142 8952236
2709.5767 838.5863 3044.7854 8886443
2717.7188 835.54205 3033.7322 8755370
2736.887 835.90546 3035.0515 8755370
2748.1357 833.86096 3027.6284 8755626
2765.5022 833.68744 3026.9983 8755367
2803.092 839.5733 3048.3689 8821159
2814.728 837.65997 3041.4219 8689318
2799.7751 827.90845 3006.0156 8820904
2873.3447 844.29138 3065.4995 8821161
2860.6335 835.27533 3032.7637 8821161
2898.521 841.05383 3053.7446 8821419
2897.4507 835.52661 3033.676 9084332
0 0 0 0
0 0 0 0
0 0 0 0
0 0 0 0
0 0 0 0
0 0 0 0
0 0 0 0
-3127.1838 984.2594 3498.4265 10861770
-3110.8586 985.65576 3503.3899 10795977
-3092.8782 986.54291 3506.5432 10730185
-3076.1973 987.85944 3511.2227 10664394
-3060.9861 989.66901 3517.6545 10664650
-3048.2595 992.31226 3527.0498 10730187
-3039.3865 996.25525 3541.0645 10861770
-3004.3586 991.6203 3524.5901 10927819
-2988.5142 993.29639 3530.5476 10862025
-2963.2979 991.85931 3525.4395 10928071
-2941.8049 991.65698 3524.7205 11059144
-2918.6262 990.87933 3521.9565 11059656
-2886.1216 986.90155 3507.8179 10928071
-2830.092 974.76337 3464.6743 11190472
-2841.3774 985.80243 3503.9111 10993607
-2815.4983 984.01501 3497.5581 11124679
-2796.5559 984.64349 3499.7917 11124934
-2767.5403 981.70807 3489.3584 11321543
-2747.74 982.02197 3490.4739 11584969
-2726.4487 981.80377 3489.6987 11782345
-2693.4446 977.33209 3473.8044 12110796
-2698.3459 986.65179 3506.9302 12045002
-2659.7039 980.07074 3483.5388 11782088
-2642.551 981.36749 3488.1477 11716553
-2626.3943 983.05731 3494.1541 11585223
-2619.0872 988.11279 3512.123 11716297
-2590.6428 985.21094 3501.8086 11913675
-2573.6479 986.65137 3506.9287 11979724
-2557.6301 988.49292 3513.4744 12045001
-2538.6768 989.22101 3516.062 12176585
-2568.4648 1009.1108 3586.7578 12242378
-2506.4026 992.94482 3529.2979 12307913
-2485.6191 992.9975 3529.4851 12439239
-2474.6001 996.98511 3543.6584 12569799
-2449.6472 995.37909 3537.9502 12701642
-2427.8743 995.04858 3536.7756 12898252
-2411.613 996.99091 3543.6794 12898251
-2386.8469 995.42065 3538.0979 12964302
-2364.6897 994.91998 3536.3186 13029837
-2345.9856 995.87634 3539.7178 13095629
-2321.6819 994.45148 3534.6531 13161166
-2302.2637 995.1123 3537.0022 13160397
-2282.4563 995.6156 3538.7908 13225933
-2263.0066 996.28564 3541.1724 13291470
-2244.0713 997.19678 3544.4111 13357006
-2221.4038 996.45093 3541.76 13357006
-2196.502 994.67908 3535.4622 13422543
-2175.0391 994.44543 3534.6318 13422799
-2148.5535 991.88855 3525.5437 13422799
-2132.2791 994.04181 3533.197 13422799
-2109.0181 992.9483 3529.3103 13422799
-2086.9404 992.39563 3527.3459 13423312
-2065.4956 992.13568 3526.4221 13423311
-2043.0127 991.36688 3523.6895 13357775
-2022.098 991.35095 3523.6328 13357775
-1997.8894 989.703 3517.7751 13226705
-1976.3225 989.34259 3516.4941 13226705
-1951.991 987.57574 3510.2144 13226962
-1931.1936 987.57837 3510.2236 13357522
-1907.7104 986.19244 3505.2976 13423314
-1884.4537 984.89453 3500.6841 13488850
-1861.7662 983.86835 3497.0366 13488850
-1839.551 983.07166 3494.2048 13488850
-1867.1207 1009.1649 3586.9504 13488850
-1796.7971 982.33948 3491.6025 13423314
-1775.4679 981.98694 3490.3496 13423314
-1751.7384 980.28296 3484.2932 13357777
-1729.7581 979.52887 3481.6128 13292242
-1706.4751 978.01007 3476.2144 13292242
-1682.8495 976.25537 3469.9773 13292242
-1665.4015 978.08521 3476.4812 13226451
-1638.4413 974.30457 3463.0435 13095891
-1609.8932 969.47162 3445.8655 12899027
-1586.3236 967.55115 3439.0393 12702418
-1563.6957 966.1626 3434.1038 12440017
-1539.5377 963.77942 3425.6333 12308690
-1517.8702 962.9126 3422.5522 11914959
-1496.2101 962.02704 3419.4045 12046290
-1473.0455 960.13647 3412.6848 11915215
-1451.2325 959.08649 3408.9529 11981007
-1427.7081 956.85992 3401.0388 11915215
-1404.0226 954.46008 3392.5088 11849679
-1379.4246 951.36121 3381.4941 11652300
-1359.2451 951.26318 3381.1458 11652045
-1335.9865 948.9751 3373.0129 11520460
-1314.6893 948.0318 3369.6604 11520459
-1289.929 944.52368 3357.1912 11783118
-1260.5187 937.44757 3332.04 12112082
-1240.7533 937.43323 3331.989 12111826
-1220.5553 937.08624 3330.7556 11585740
-1206.8182 941.76984 3347.4028 11453899
-1192.3846 946.05737 3362.6423 11256521
-1170.6001 944.55902 3357.3167 11124938
-1149.696 943.73175 3354.3762 11124939
-1128.795 942.87787 3351.3411 11124683
-1111.0205 944.65161 3357.646 10993612
-1086.6353 940.76691 3343.8381 11059404
-1067.8412 941.66833 3347.0422 10993868
-1048.1847 941.82898 3347.6133 11059149
-1027.2544 940.8291 3344.0593 10927564
-1004.4578 938.04712 3334.1709 10862027
-982.37781 935.83612 3326.3123 11059150
-960.62183 933.84955 3319.2512 10927563
-938.61377 931.52972 3311.0056 11124942
-917.44196 929.9585 3305.4211 11124942
-896.21777 928.26447 3299.3997 11059150
-876.8338 928.44336 3300.0356 11058638
-857.78436 928.9928 3301.9885 10927565
-834.30426 924.65735 3286.5786 10927565
-813.82935 923.52484 3282.5535 10993358
-792.53137 921.38013 3274.9302 10861772
-772.60266 920.75934 3272.7239 10795981
-751.0246 918.09052 3263.2378 10730444
-730.74438 916.90906 3259.0386 10532555
-711.24243 916.66656 3258.1765 10729677
-691.54407 916.15027 3256.3413 10532555
-677.21814 922.92596 3280.4248 10598348
-650.76013 913.07983 3245.4277 10466762
-630.92499 912.20923 3242.3335 10269382
-611.14996 911.37372 3239.3638 10203331
-590.93237 909.80273 3233.7798 10005952
-570.76819 908.21136 3228.1233 10005952
-551.53693 908.04553 3227.5339 9874367
-531.12622 905.8562 3219.7524 9940159
-510.67496 903.43195 3211.1357 9743037
-490.40887 901.16034 3203.0615 9808573
-470.19266 898.80115 3194.676 9808573
-450.45532 897.19769 3188.9768 9808573
-431.07849 896.20343 3185.4429 9808573
-412.25452 896.32013 3185.8574 9808573
-393.38351 896.3407 3185.9307 9610426
-374.19769 895.60992 3183.3333 9742010
-354.07101 892.43024 3172.0312 9939389
-334.93427 891.52887 3168.8276 9939900
-316.11523 891.41644 3168.428 9873850
-297.56586 892.09814 3170.8511 9742265
-278.68921 891.82452 3169.8784 9808057
-259.55728 890.63538 3165.6519 9808057
-236.8015 875.85748 3113.1255 8689579
-220.06944 882.74457 3137.605 8623786
-203.18962 890.25555 3164.302 9413815
-184.56215 890.85828 3166.4441 9545401
-166.01392 892.02313 3170.5845 9545401
-146.88875 889.98975 3163.3569 9545658
-128.83858 894.82758 3180.5525 9611194
-109.73508 892.75403 3173.1824 9611194
-90.793159 891.4093 3168.4028 9873598
-72.251511 894.31799 3178.7412 9676220
-53.35078 893.26587 3175.0017 9610426
-34.490623 892.11688 3170.9177 9479098
-15.658339 889.80139 3162.6875 9282231
3.0822625 889.17847 3160.4734 9282231
21.8319 889.99371 3163.3711 9282232
40.474365 887.70514 3155.2368 9282231
59.140263 887.21448 3153.4927 9282233
78.131775 890.67133 3165.7795 9281976
96.346069 885.64508 3147.9143 9216441
115.10111 886.41382 3150.647 9216441
134.01477 888.01904 3156.3525 9216184
152.24414 885.2522 3146.5178 9150391
170.68857 884.20306 3142.7891 9216441
188.65388 881.1228 3131.8406 9347770
204.90111 871.28845 3096.8857 9281976
224.18175 874.90955 3109.7563 9216694
241.93773 872.48218 3101.1287 9742523
260.29538 872.41412 3100.8867 7501955
284.48337 890.6076 3165.5532 9217724
302.92944 889.6864 3162.2788 9479867
324.1488 896.54303 3186.6497 9479609
340.84216 890.81549 3166.2922 9479354
358.15256 887.21442 3153.4924 9544892
376.6561 886.77948 3151.9465 9676221
395.35941 886.8338 3152.1396 9610428
415.6333 890.24713 3164.272 9610429
433.71069 888.86432 3159.3569 9544636
453.45428 890.86938 3166.4836 9675966
470.30209 887.25201 3153.626 9741759
489.41675 888.02417 3156.3706 9675966
506.99115 886.04779 3149.3457 9610173
526.83844 888.04285 3156.437 9610173
546.29535 889.26569 3160.7834 9544637
564.9574 889.15637 3160.3948 9610173
584.51453 890.4176 3164.8779 9610428
604.27301 891.89771 3170.1384 9676478
622.49835 891.09375 3167.2812 9676221
639.43134 888.54114 3158.208 9544635
644.22052 869.73871 3091.3774 9807807
681.03082 894.01141 3177.6514 9807807
699.66437 893.75861 3176.7529 9742014
719.74823 895.32306 3182.3137 9676221
739.64392 896.57965 3186.78 9807807
759.56152 897.79956 3191.116 9742270
780.01715 899.58063 3197.4468 9807806
794.89124 894.99292 3181.1401 9873599
815.1131 896.49939 3186.4949 9939135
836.12286 898.78467 3194.6174 9807292
858.07306 901.95728 3205.894 9872829
878.24487 903.16351 3210.1816 9938878
890.80182 896.65363 3187.0432 10004925
900.14484 887.24646 3153.6062 9675961
922.77631 891.05341 3167.1377 10005180
957.91003 906.54053 3222.1846 9938873
971.65961 901.5802 3204.554 9873081
1009.1325 918.40051 3264.3396 10070459
1033.7291 923.08984 3281.0073 10004668
1047.9939 918.55035 3264.8723 10070461
1068.8815 919.87506 3269.5808 10201791
1086.0825 918.03644 3263.0454 10267327
1091.3442 906.34674 3221.4958 10662341
1111.0734 906.86731 3223.3462 10728643
1125.9821 903.50244 3211.386 11189193
1143.2395 902.1026 3206.4106 11583692
1167.7983 906.41571 3221.7412 11649482
1166.9189 891.16339 3167.5286 11649480
1199.0223 901.18359 3203.144 11978186
1218.1206 901.26923 3203.4487 11912392
1235.7333 900.26996 3199.8967 12373197
1259.8137 903.94159 3212.9473 12438988
1281.5302 905.83301 3219.6699 12636366
1298.4911 904.35681 3214.4231 12767952
1318.2377 904.83533 3216.1238 12767953
1333.8042 902.47211 3207.7239 12702160
1353.8199 903.14325 3210.1094 12702160
1371.9216 902.53656 3207.9531 12636624
1392.7673 903.72705 3212.1846 12570574
1408.8168 901.81531 3205.3894 12702160
1426.6305 901.0686 3202.7354 12636624
1441.175 898.30389 3192.9087 12636625
1457.8142 896.89948 3187.9167 12570575
1477.7573 897.53778 3190.1855 12636368
1496.1815 897.24896 3189.1589 12636368
1508.2253 893.18884 3174.728 12636368
1527.2251 893.29736 3175.1138 12702161
1547.5594 894.17456 3178.2314 12702161
1558.8679 889.87811 3162.9602 12636368
1574.2418 887.97693 3156.2029 12570576
1596.5455 889.9834 3163.3345 12570833
1617.1312 890.9967 3166.936 12505555
1634.1874 890.06427 3163.6221 12505298
1648.4353 887.64093 3155.0085 12307921
1658.7697 883.18829 3139.1821 12307666
1674.6539 881.75653 3134.0933 11978703
1681.5171 875.65845 3112.4182 11912657
1697.1986 874.23505 3107.3589 11781584
1708.0497 870.38074 3093.6592 11715792
1714.4858 864.38245 3072.3391 11584206
1726.5519 861.3186 3061.4492 11386830
1734.1304 856.10333 3042.9121 11320781
1747.2906 853.72247 3034.4497 10991817
1779.0137 860.36761 3058.0688 10728133
1779.1427 851.75323 3027.4502 4937317
1799.0398 852.68011 3030.7449 4215138
1818.7867 853.51831 3033.7239 10795207
1823.5895 847.39581 3011.9622 10531780
1839.2275 846.37805 3008.3447 10597060
1858.2581 846.92609 3010.2927 10531269
1874.3146 846.12109 3007.4316 10597062
1893.474 846.71893 3009.5564 10531525
1909.4563 845.89807 3006.6387 10399682
1926.6685 845.63208 3005.6934 10136766
1939.5609 843.49249 2998.0884 10004923
1955.9678 842.90625 2996.0046 9873338
1972.428 842.35333 2994.0393 9742008
1986.2533 840.69501 2988.145 9741751
2004.6813 840.99689 2989.218 9676214
2022.1577 840.89771 2988.8657 9610165
2039.2919 840.6593 2988.0181 9544371
2063.4673 843.30255 2997.4133 9412785
2095.2019 848.96375 3017.5352 9412785
2099.9539 843.68823 2998.7842 9412783
2120.9543 844.97467 3003.3567 9478578
2137.6782 844.55011 3001.8477 9412784
2157.9844 845.53619 3005.3523 9478576
2176.0554 845.63739 3005.7122 9084077
2203.0151 849.16327 3018.2446 9412787
2225.1155 850.77441 3023.9709 9346993
2249.7598 853.32458 3033.0354 9084078
2269.1487 853.85687 3034.9272 9018028
2288.8586 854.50061 3037.2153 9018028
2313.9307 857.12054 3046.5276 8886442
2331.6191 856.98608 3046.0496 8886442
2350.0374 857.11969 3046.5247 8820649
2371.8547 858.48181 3051.366 8754856
2391.8833 859.18066 3053.8499 8754856
2411.9385 859.87842 3056.3303 8623273
2431.4788 860.38367 3058.126 8689066
2446.0486 859.13562 3053.6899 8820651
2461.2219 858.11639 3050.0671 8886445
2476.9155 857.29205 3047.137 9083824
2488.375 855.02478 3039.0784 9149617
2499.0281 852.51495 3030.1575 9018030
2500.9854 847.09558 3010.8953 9083823
2517.9136 846.7879 3009.8015 9149873
2534.9526 846.52148 3008.8545 9215666
2545.5044 844.10767 3000.2749 9281202
2558.822 842.638 2995.0513 9215667
2567.0557 839.526 2983.99 9084080
2582.0908 838.66583 2980.9326 9018544
2596.5081 837.61786 2977.2078 9084081
2614.0217 837.57623 2977.0598 9018288
2633.8049 838.25751 2979.4812 9149873
2646.7188 836.758 2974.1514 9084337
2659.877 835.35492 2969.1646 9084080
2681.4739 836.60327 2973.6016 9018287
2699.3083 836.66907 2973.8354 9018288
2736.1086 842.57446 2994.8254 8820907
2745.3613 839.97528 2985.5867 8755626
2759.0947 838.77142 2981.3079 8821162
2781.4006 840.17242 2986.2876 8689577
2803.5859 841.51947 2991.0757 8689577
2822.4385 841.85565 2992.2703 8557991
2935.5059 870.11377 3092.7102 8689574
2826.1001 832.487 2958.9709 8492195
0 0 0 0
0 0 0 0
0 0 0 0
0 0 0 0
0 0 0 0
0 0 0 0
0 0 0 0
-3066.0173 985.33453 3429.9988 10664652
-3038.3579 982.9624 3421.741 10664395
-3029.79 986.77625 3435.0173 10730187
-3010.2188 987.03369 3435.9136 10861516
-3002.3208 991.14844 3450.2371 10927565
-2986.3569 992.63849 3455.4243 10862027
-2979.0864 997.05872 3470.8113 10927563
-2961.2971 997.99542 3474.072 10862025
-2936.8159 996.67426 3469.4729 10796233
-2908.6655 994.08032 3460.4434 10730441
-2899.2883 997.91125 3473.7791 10796233
-2857.1907 990.45428 3447.821 10795976
-2831.4238 988.59192 3441.3376 10796232
-2809.1648 987.93597 3439.0544 10796488
-2783.1287 985.9325 3432.0803 10862023
-2759.0859 984.6109 3427.4797 11124680
-2724.5007 979.47949 3409.6172 11322315
-2728.7876 988.35071 3440.498 11322571
-2691.3035 982.11243 3418.7825 11124682
-2667.1831 980.69312 3413.8418 10861513
-2648.7039 981.34222 3416.1013 10729928
-2621.7749 978.84662 3407.4138 10729674
-2598.2551 977.59491 3403.0566 10663881
-2584.3882 979.98401 3411.3733 10664137
-2565.4219 980.46179 3413.0366 10598344
-2549.7607 982.22046 3419.1584 10598344
-2543.6897 987.73114 3438.3413 10729929
-2514.9885 984.47235 3426.9976 10729929
-2495.9106 984.95831 3428.689 10861257
-2486.1514 989.15973 3443.3142 10861512
-2473.0833 992.10339 3453.5613 11058633
-2448.0015 990.23645 3447.0625 11255754
-2424.8401 989.12146 3443.1812 11452618
-2425.6975 997.86829 3473.6294 11387336
-2391.1316 992.06781 3453.4375 11321544
-2361.2092 988.11047 3439.6621 11387080
-2352.4717 993.02673 3456.7756 11388362
-2327.1716 990.97656 3449.6389 11453898
-2319.8127 996.59766 3469.2063 11453384
-2296.0486 995.20862 3464.3708 11584969
-2277.1987 995.94366 3466.9297 11782603
-2258.595 996.80072 3469.9131 11848137
-2235.9336 995.86633 3466.6604 11914187
-2219.697 997.80273 3473.4011 11979977
-2201.3403 998.81342 3476.9194 12045514
-2182.2231 999.49475 3479.2913 12242379
-2165.0715 1001.0981 3484.8723 12373451
-2133.1267 995.82623 3466.5208 12569802
-2117.385 998.08966 3474.3999 12701389
-2102.8352 1000.9647 3484.4082 12504011
-2071.3726 995.76642 3466.3127 12570059
-2054.7012 997.64594 3472.8555 12635596
-2036.2676 998.69904 3476.5212 12635596
-2014.871 998.3056 3475.1519 12570058
-1995.1239 998.72992 3476.6287 12570315
-1970.084 996.48572 3468.8167 12767183
-1950.4847 996.97528 3470.5208 12898767
-1925.3502 994.61572 3462.3071 12767439
-1905.6228 995.02881 3463.7449 12964303
-1883.4254 994.14709 3460.6755 12964047
-1861.6639 993.47845 3458.3481 13095119
-1837.53 991.51483 3451.5127 13291727
-1815.0573 990.41357 3447.6792 13357262
-1797.1205 991.79041 3452.4719 13423055
-1771.306 988.80145 3442.0674 13422799
-1747.6262 986.9483 3435.6165 13488592
-1725.931 986.18561 3432.9612 13685457
-1705.2621 985.99786 3432.3079 13685457
-1679.7644 982.97998 3421.8025 13619921
-1655.6083 980.68298 3413.8066 13488592
-1631.28 978.22601 3405.2537 13488848
-1607.2899 975.91278 3397.2012 13488848
-1587.1169 975.88794 3397.1147 13357518
-1561.1997 972.28503 3384.5728 13423058
-1538.9561 970.90594 3379.772 13357521
-1517.0013 969.67517 3375.4875 13357522
-1493.6925 967.5343 3368.0354 13357777
-1469.8673 964.99658 3359.2014 13423314
-1444.0188 961.04254 3345.437 13357777
-1423.433 960.5296 3343.6516 13357777
-1401.6056 959.15271 3338.8584 13357522
-1378.0266 956.52045 3329.6953 13226706
-1357.3094 955.82709 3327.2817 13160912
-1336.1072 954.76648 3323.5898 13160914
-1308.7213 949.18945 3304.1758 13226450
-1293.401 952.32672 3315.0969 13357778
-1271.437 950.59369 3309.064 13161170
-1245.7533 945.98169 3293.0095 13030354
-1231.3252 949.90594 3306.6699 12701904
-1210.7963 949.17474 3304.1245 12439761
-1193.2161 950.76886 3309.6741 12308689
-1175.7814 952.53424 3315.8193 12177617
-1155.8308 952.28693 3314.9583 12177619
-1134.078 950.52032 3308.8088 11979985
-1114.4446 950.49921 3308.7354 11585998
-1092.3757 948.36304 3301.2991 11651280
-1071.4202 947.13306 3297.0176 11453903
-1053.3895 948.49115 3301.7451 11453903
-1031.0511 945.94836 3292.8936 11256784
-1016.1836 950.29382 3308.0203 11125199
-983.43396 937.75879 3264.3853 10927819
-968.62677 942.1731 3279.7517 10598598
-942.66559 935.69666 3257.2068 10861770
-922.24298 934.56195 3253.2568 10861770
-900.95612 932.48425 3246.0244 10861770
-880.84723 931.56195 3242.8135 10861771
-862.59802 932.60883 3246.458 10992589
-841.32581 930.36078 3238.6321 10795980
-820.94489 929.01624 3233.9519 10795980
-800.71075 927.77747 3229.6399 10861773
-781.12372 927.24634 3227.7908 10861774
-760.9729 926.00238 3223.4607 10862031
-740.48444 924.27295 3217.4402 10795982
-721.47125 924.34222 3217.6814 10861775
-700.03094 921.22125 3206.8171 10861775
-682.41522 923.09949 3213.3555 10795981
-660.72656 919.41797 3200.54 10729933
-641.0166 918.3537 3196.8352 10664142
-624.5838 922.06268 3209.7461 10664141
-602.20477 916.9505 3191.9504 10664397
-580.95874 913.28796 3179.2009 10730190
-562.63599 914.12921 3182.1296 10598605
-542.07141 911.26038 3172.1428 10598348
-522.23975 909.46167 3165.8816 10532298
-503.77878 910.00488 3167.7725 10334920
-482.95764 906.1618 3154.3945 10269383
-462.71622 903.14081 3143.8782 10269127
-442.40732 899.72906 3132.0017 10269127
-425.10287 902.39618 3141.2861 10203333
-404.58072 898.16437 3126.5549 10137541
-385.35553 896.54382 3120.9138 10137541
-365.82782 894.02057 3112.1301 10203331
-347.638 894.67242 3114.3994 10071745
-329.3295 895.07495 3115.8005 10202562
-310.44675 893.87183 3111.6125 10071231
-291.04013 890.91321 3101.3132 9808058
-274.06015 895.4845 3117.2263 9742263
-254.37869 891.25183 3102.4922 9676214
-235.5825 889.70276 3097.0999 6385795
-217.46704 890.68011 3100.502 8424863
-200.33443 896.23474 3119.8379 9872566
-183.92773 906.49652 3155.5598 9742009
-164.15723 900.62628 3135.125 9413559
-145.68806 901.30841 3137.4995 9676989
-126.87329 899.73907 3132.0366 9676989
-108.54032 901.63428 3138.634 9545917
-89.544975 897.67316 3124.8452 9611713
-71.033447 897.76129 3125.1519 9676992
-52.587757 899.03699 3129.5928 9676993
-34.087204 900.25409 3133.8293 9479357
-15.474644 897.88556 3125.5845 9544893
3.0425227 896.20233 3119.7251 9479357
21.491455 894.56958 3114.0415 9347771
39.910133 893.76794 3111.251 9479357
58.275875 892.66217 3107.4016 9413563
76.735779 893.18341 3109.2161 9150392
95.040466 892.04596 3105.2563 9281978
113.03658 888.85107 3094.1348 9479613
131.58133 890.26001 3099.0396 9414077
150.16931 891.58044 3103.636 9479870
166.22607 879.22437 3060.624 9545663
186.57944 889.78979 3097.4026 9479870
204.51131 887.94879 3090.9941 9545663
222.13922 885.1994 3081.4233 9545918
239.24278 880.93677 3066.585 10664139
257.51102 881.2619 3067.7168 1778739
275.80368 881.62219 3068.9709 9414334
297.29947 891.54352 3103.5076 9611455
315.02295 889.65546 3096.9351 9545407
334.77682 893.39362 3109.9478 9874372
351.5694 889.25134 3095.5283 9676994
371.08389 892.06335 3105.3171 9676738
389.96234 893.15277 3109.1094 9545152
407.04117 890.20813 3098.8591 9479358
427.2204 894.00568 3112.0784 9545150
444.01074 890.6908 3100.5391 9281722
461.50519 888.99561 3094.6382 9742016
480.66919 890.52319 3099.9556 9676480
502.1499 896.07245 3119.2727 9873602
521.45447 897.48212 3124.1802 9808065
526.9306 875.81097 3048.7417 9808066
553.9165 890.14288 3098.6318 9742272
575.21136 894.70294 3114.5054 9874115
593.48047 894.41931 3113.5183 9676992
611.78308 894.20197 3112.7617 9545406
631.04663 895.36066 3116.7952 9610942
649.1297 894.82623 3114.9348 9676735
668.42322 895.94373 3118.825 9742528
687.31683 896.47955 3120.6902 9742528
705.14203 895.63019 3117.7334 9676735
723.17712 895.08405 3115.8323 9742272
743.82849 897.72272 3125.0176 9873345
762.6662 898.09735 3126.3218 9807808
779.41675 896.05475 3119.2114 9873345
800.41327 898.87506 3129.0291 9807807
817.01398 896.74292 3121.6069 9939137
838.88855 900.3656 3134.2175 9808064
856.45746 899.31006 3130.5435 9742271
861.96631 885.90454 3083.8779 10005441
876.97131 882.61279 3072.4192 10136512
896.7666 884.17798 3077.8677 9675961
928.83234 897.53784 3124.374 9544117
960.28729 909.79669 3167.0479 9675702
979.04095 909.78284 3166.9995 9609651
1003.9248 915.35883 3186.4099 9872824
1024.6284 916.98798 3192.0808 9872824
1045.0227 918.28607 3196.5996 9873080
1060.0623 914.9165 3184.8699 9938617
1073.9922 910.72375 3170.2749 10004411
1088.8206 907.42407 3158.7886 9938875
1114.984 913.52289 3180.0188 10136000
1117.5876 900.43683 3134.4656 10201794
1168.1093 925.75488 3222.5991 10070207
1151.8527 898.1864 3126.6318 10070207
1138.4014 873.64374 3041.1975 10201794
1196.1733 903.6731 3145.731 10398919
1206.3662 897.38776 3123.8516 10530761
1233.2494 903.52039 3145.1995 10662603
1248.5066 901.07941 3136.7026 10662602
1254.53 892.14374 3105.5969 10464963
1257.5089 881.3327 3067.9631 10728389
1299.7087 897.92621 3125.7261 11320779
1318.8861 898.37152 3127.2761 11518157
1337.1027 898.15894 3126.5361 11518155
1357.8077 899.60101 3131.5562 11452618
1371.9653 896.72467 3121.5435 11518154
1379.3325 889.54572 3096.5532 11452362
1388.1409 883.47247 3075.4119 11715276
1419.3809 891.64813 3103.8716 11649480
1411.1893 875.16077 3046.4783 11518148
1446.7516 885.88147 3083.7976 12175819
1476.5281 892.83606 3108.0071 12241610
1500.6477 896.24097 3119.8594 12373709
1517.9709 895.55316 3117.4653 12373710
1533.2687 893.70135 3111.019 12308173
1550.9368 893.25879 3109.4783 12176588
1566.7808 891.78833 3104.3596 12176587
1585.9513 892.22345 3105.8743 12176844
1602.6598 891.2793 3102.5879 12177100
1616.1995 888.61444 3093.3113 12177100
1607.0138 873.65466 3041.2356 11979723
1644.4016 884.06555 3077.4763 12176846
1660.1234 882.72778 3072.8196 12177103
1674.7107 880.82227 3066.1863 12045519
1689.2441 878.92963 3059.5979 12045262
1695.8146 872.97809 3038.8804 11979729
1704.4032 868.1795 3022.1763 11979218
1719.1113 866.56555 3016.5579 11781839
1734.0247 865.0871 3011.4114 11649999
1741.0588 859.74799 2992.8257 11584209
1765.5132 863.03204 3004.2576 11321036
1772.2317 857.6673 2985.5828 10990787
1765.9744 846.19104 2945.6333 1910065
1800.6542 854.3631 2974.0806 9545146
1809.2948 850.1416 2959.3853 11057869
1823.4977 848.58954 2953.9827 10926283
1841.545 848.83911 2954.8513 10860235
1859.8721 849.21161 2956.1482 10860234
1879.5903 850.2066 2959.6116 10926028
1900.4758 851.70618 2964.8318 10728905
1910.8025 848.48962 2953.635 10531526
1925.7496 847.36469 2949.7188 10268611
1937.9971 845.0827 2941.7751 10202301
1956.1532 845.39496 2942.8621 10005180
1971.1608 844.35297 2939.2349 9939130
1988.2119 844.19702 2938.6921 9873337
2009.1852 845.69458 2943.9053 9807544
2025.9565 845.41302 2942.9248 9675958
2045.1624 846.14331 2945.4673 9675958
2064.2373 846.80774 2947.78 9610165
2084.4573 847.92676 2951.6753 9413043
2104.5559 848.97821 2955.3354 9346993
2125.467 850.33722 2960.0664 9346993
2145.9858 851.51849 2964.1785 9346995
2165.1965 852.16559 2966.4309 9018030
2185.1482 853.09161 2969.6545 9018031
2215.0325 857.84967 2986.2175 9083824
2233.8201 858.26862 2987.676 9083824
2257.6575 860.60608 2995.8127 9083823
2280.7173 862.61292 3002.7986 9018030
2299.4521 862.96564 3004.0264 8952236
2316.4209 862.65509 3002.9453 8952236
2339.4739 864.59784 3009.7083 8886442
2356.2734 864.21765 3008.3848 8820648
2371.7131 863.34814 3005.3579 8755115
2389.2053 863.23315 3004.9578 8755115
2406.1714 862.93121 3003.9065 8754858
2420.189 861.58398 2999.217 8886444
2439.7021 862.19867 3001.3567 8886701
2447.5891 858.7254 2989.2661 8820652
2459.3149 856.63922 2982.0039 9018030
2474.5623 855.80066 2979.0847 9215409
2479.4382 851.4126 2963.8098 9281202
2489.3384 848.79932 2954.7129 9346995
2503.7119 847.7373 2951.0159 9346996
2512.8606 844.93317 2941.2546 9281459
2529.8904 844.79932 2940.7886 9281459
2534.614 840.58606 2926.1221 9149873
2548.1145 839.32117 2921.7188 9149873
2568.4524 840.31018 2925.1616 9084080
2585.5857 840.24463 2924.9336 9018287
2599.8838 839.26465 2921.5222 9018288
2615.8193 838.82281 2919.9839 9084082
2626.6018 836.74512 2912.7515 9018289
2648.7905 838.30444 2918.1797 8886958
2669.5923 839.40753 2922.0195 8886702
2696.2212 842.31677 2932.1467 9084080
2713.3789 842.2489 2931.9104 9149873
2729.9316 841.99518 2931.0273 9018287
2749.4014 842.63873 2933.2673 8886701
2764.1206 841.82745 2930.4434 8821163
2869.4448 868.44824 3023.1116 8755368
2780.4094 836.27991 2911.1321 8557989
0 0 0 0
0 0 0 0
0 0 0 0
0 0 0 0
0 0 0 0
0 0 0 0
0 0 0 0
-3013.4026 988.40369 3371.1377 10599372
-3000.0728 990.59888 3378.625 10730956
-2981.7837 991.17499 3380.5901 10665419
-2963.0679 991.61621 3382.095 10731213
-2947.5723 993.14844 3387.3208 10599627
-2927.6035 993.18414 3387.4426 10533576
-2915.5254 995.91571 3396.759 10401991
-2896.7998 996.39874 3398.4065 10730443
-2881.0957 997.93512 3403.6467 10664904
-2858.4578 997.07452 3400.7114 10664648
-2826.2725 992.84778 3386.2954 10862025
-2810.3123 994.30109 3391.2522 10862025
-2774.5916 988.73358 3372.2632 11059405
-2757.696 989.84253 3376.0452 11125196
-2725.6104 985.47534 3361.1504 11190990
-2698.8826 982.99542 3352.6919 10927818
-2679.5759 983.20166 3353.3955 10730184
-2666.4836 985.70813 3361.9443 10664391
-2642.5811 984.22626 3356.8899 10467271
-2630.8555 987.29156 3367.3447 10467015
-2605.176 985.12714 3359.9624 10598602
-2580.3345 983.2486 3353.5554 10664393
-2559.3345 982.81616 3352.0806 10664137
-2535.2573 981.1861 3346.5208 10663880
-2522.0964 983.78833 3355.3962 10729673
-2505.2461 984.98138 3359.4653 10729673
-2486.6294 985.49353 3361.2122 10664138
-2473.145 988.06427 3369.9805 10532295
-2449.7385 986.68073 3365.2615 10269122
-2437.0859 989.64124 3375.3589 10663881
-2419.6208 990.68042 3378.9031 10729674
-2395.4668 988.97528 3373.0874 10663882
-2378.5759 990.26544 3377.4878 10861261
-2365.1279 993.02289 3386.8926 10861005
-2337.7957 989.94843 3376.4065 10729674
-2316.3296 989.32611 3374.2839 10663625
-2298.6414 990.32068 3377.6763 10729418
-2279.6816 990.78015 3379.2432 10663882
-2256.7932 989.52521 3374.9629 10598346
-2243.1355 992.33118 3384.5334 10729674
-2221.4009 991.58252 3381.98 10664394
-2198.3516 990.22809 3377.3604 10664391
-2175.3562 988.87329 3372.7395 10730440
-2152.1743 987.40765 3367.741 10730439
-2133.0757 987.80566 3369.0981 10795975
-2117.0469 989.64612 3375.3755 10927562
-2093.7566 988.09485 3370.0845 10927818
-2071.0488 986.79126 3365.6384 10862026
-2042.0312 982.4267 3350.7522 10664133
-2021.9856 982.33521 3350.4402 10993354
-2028.4891 995.26807 3394.5503 11124425
-1995.9565 989.11536 3373.5652 11190216
-1991.2181 996.7511 3399.6084 11387593
-1968.7616 995.58307 3395.6245 11519434
-1952.8599 997.73987 3402.9807 11454154
-1932.2722 997.52264 3402.2397 11651018
-1910.4688 996.66644 3399.3198 11651273
-1892.924 998.03748 3403.9958 11651784
-1876.1123 999.82874 3410.1052 11847880
-1858.8568 1001.4199 3415.532 12176587
-1832.4103 998.04004 3404.0046 12242378
-1815.3582 999.75873 3409.8665 12438986
-1792.5089 998.28754 3404.8486 12635337
-1769.7767 996.84882 3399.9417 12897483
-1745.5641 994.53351 3392.0447 13160398
-1722.6763 992.9278 3386.5681 13291469
-1704.0298 993.75763 3389.3984 13357006
-1681.2446 992.16498 3383.9663 13357262
-1657.202 989.78271 3375.8413 13422799
-1630.0785 985.47974 3361.165 13357519
-1610.3705 985.60883 3361.6055 13357775
-1585.1741 982.34003 3350.4568 13357519
-1564.2311 981.65747 3348.1287 13423311
-1540.5863 979.24017 3339.884 13423314
-1514.0674 974.9093 3325.1128 13423314
-1492.3318 973.58478 3320.5952 13423058
-1469.48 971.48694 3313.4399 13423057
-1448.7373 970.74548 3310.9114 13423057
-1429.2322 970.82428 3311.1799 13357520
-1406.1958 968.47327 3303.1614 13488592
-1383.6803 966.41962 3296.1572 13488336
-1360.4379 963.79218 3287.1958 13554384
-1340.0326 963.12769 3284.9294 13685457
-1317.8246 961.12872 3278.1113 13685457
-1298.6287 961.29968 3278.6946 13685457
-1277.5767 960.08087 3274.5376 13685456
-1255.6008 958.11957 3267.8484 13488592
-1236.801 958.55841 3269.345 13357519
-1216.3038 957.67474 3266.3311 13423055
-1196.7374 957.50714 3265.7595 13357775
-1177.8923 957.92072 3267.1699 13357777
-1155.9111 955.75494 3259.7832 13357777
-1137.8325 956.7973 3263.3384 13292242
-1119.4384 957.60577 3266.0957 13161170
-1098.2074 955.97327 3260.5278 13226450
-1076.7982 954.12439 3254.2219 13161426
-1052.5953 949.6875 3239.0891 13095633
-1034.5342 950.7301 3242.6448 12899025
-1015.3523 950.76245 3242.7554 12702160
-995.10175 949.77631 3239.3918 12571088
-974.88086 948.78015 3235.9944 12440274
-960.55408 953.5954 3252.4175 12308946
-926.20435 938.323 3200.3281 11914960
-904.94849 935.95453 3192.25 11848913
-890.48828 940.66327 3208.3103 11651535
-864.1228 932.72736 3181.2432 11651794
-845.30133 932.76178 3181.3608 11388113
-825.30011 931.46625 3176.9421 11322064
-811.47424 937.24286 3196.6443 11256271
-788.82092 932.85614 3181.6826 11124687
-769.45441 932.23688 3179.5703 11059152
-750.06189 931.55414 3177.2417 10993616
-729.52289 929.37579 3169.812 10993616
-710.21582 928.69299 3167.4834 11059152
-690.70239 927.69611 3164.0833 11059153
-671.68573 927.32941 3162.8325 11058898
-652.59369 926.83447 3161.1445 11058642
-632.79608 925.27875 3155.8384 10993106
-614.57251 925.99988 3158.2979 11058900
-594.51886 923.9223 3151.2119 11059153
-575.21259 922.909 3147.7559 11124945
-555.45142 921.07355 3141.4956 11190482
-535.84943 919.38373 3135.7324 11190484
-516.44086 917.91656 3130.728 11124690
-497.71652 917.60126 3129.6528 10927312
-478.58835 916.48822 3125.8567 10993105
-458.53131 913.4353 3115.4441 10861518
-438.41537 910.00391 3103.7407 10663885
-418.73581 907.21741 3094.2368 10598348
-400.36368 907.13812 3093.9663 10598092
-380.70129 903.98737 3083.22 10597577
-362.4837 904.12262 3083.6814 10137026
-343.57782 902.46429 3078.0254 10334403
-324.29739 899.58112 3068.1917 9873338
-303.86871 892.98108 3045.6809 9742265
-286.5191 895.16718 3053.1372 9807546
-267.96463 893.63007 3047.8945 9807546
-250.26283 894.9198 3052.2935 10201276
-233.34355 899.42682 3067.6655 9938106
-217.21239 907.98975 3096.8711 8687269
-200.84256 917.04364 3127.751 9345202
-182.32858 917.15295 3128.124 8555942
-164.48277 921.02844 3141.342 8425384
-142.60257 900.41949 3071.051 9412536
-124.70467 902.60382 3078.5012 9149877
-106.59518 903.74304 3082.3867 8755119
-88.122444 901.63684 3075.2031 8623534
-69.98243 902.72424 3078.9119 8360105
-51.761715 903.17035 3080.4336 8228520
-33.473442 902.2818 3077.4028 8228519
-15.221559 901.42072 3074.4661 7833761
2.9884772 898.44257 3064.3083 8228519
21.124094 897.41748 3060.8123 7438489
39.192089 895.79401 3055.2749 7043988
57.382896 897.11658 3059.7859 7964833
75.149345 892.76263 3044.936 7439003
93.384727 894.58698 3051.1582 7306647
110.77111 889.00568 3032.1223 6715022
129.25383 892.55316 3044.2214 7569305
146.49077 887.68256 3027.6096 7040650
163.28918 881.50763 3006.5486 3092042
178.71133 869.84894 2966.7844 3025989
195.82533 867.77594 2959.7141 4277083
217.90239 886.229 3022.6516 8094873
238.48753 896.27167 3056.9043 10990533
259.15393 905.1803 3087.2888 2436411
273.94803 893.75555 3048.3225 6910600
293.5332 898.40826 3064.1914 6976651
310.39645 894.6734 3051.4529 5726329
325.86847 887.56036 3027.1926 6318468
343.14362 885.84454 3021.3403 6581383
359.70892 882.55725 3010.1287 6317955
380.67838 889.87585 3035.0898 6581128
400.08533 893.04626 3045.9033 6317955
418.34796 893.49896 3047.4475 6515079
438.10693 896.97784 3059.3127 5594490
451.41193 887.49146 3026.9575 5265526
472.2511 892.97632 3045.665 5002354
485.64331 884.49463 3016.7366 4871026
507.7366 891.89966 3041.9924 4147561
523.77521 888.5257 3030.4851 4279405
544.87659 893.67914 3048.062 4543093
561.5047 891.40051 3040.2903 5332351
577.85461 888.83557 3031.542 5530240
592.04932 883.21033 3012.356 4674162
606.51172 878.302 2995.6152 5134710
622.08093 875.23004 2985.1377 5858690
637.61005 872.27301 2975.0522 5923711
658.16998 876.17236 2988.3518 6055806
672.21484 871.42157 2972.1484 6318465
694.49084 877.3114 2992.2366 7107470
709.81927 874.34998 2982.136 5725817
736.44147 885.10596 3018.8215 7107726
756.79626 887.99786 3028.6848 8358050
772.29065 885.18475 3019.0903 7766427
792.23126 887.47998 3026.9185 7042191
809.73877 887.0083 3025.3096 6910606
827.43835 886.76282 3024.4724 7042193
851.14606 892.83014 3045.1663 7371416
866.63361 890.20178 3036.2017 7174804
872.69757 878.19739 2995.2583 9872829
904.5705 892.12549 3042.7627 10333636
930.02887 899.30646 3067.2549 9873340
947.41547 898.55664 3064.6975 9675451
967.55542 900.39716 3070.9751 9544121
983.98242 898.77838 3065.4539 9544120
1015.2545 910.5321 3105.5422 9807035
1040.0265 916.14154 3124.6741 9873083
1051.9143 910.40375 3105.1042 9741497
1047.1372 890.68817 3037.8606 9544377
1054.7794 882.02423 3008.3105 9280947
1082.3088 890.00195 3035.5203 9938879
1097.5836 887.80646 3028.032 9741499
1128.3988 898.04944 3062.9678 9807036
1135.4064 889.32068 3033.1965 9873086
1161.7872 895.80176 3055.3015 10004672
1181.5752 897.07849 3059.656 9938878
1192.4233 891.63196 3041.0793 9741499
1203.519 886.52972 3023.6775 10070208
1233.2432 895.09802 3052.9014 10136771
1252.911 896.22522 3056.7456 9807807
1268.3726 894.35431 3050.3645 9807550
1279.7517 889.69769 3034.4824 10005185
1293.2001 886.58893 3023.8794 10268355
1311.8875 887.10767 3025.6487 10202562
1332.2776 888.74847 3031.2449 10530757
1347.5475 886.97522 3025.1968 10464964
1359.8602 883.32776 3012.7566 10464964
1373.9309 880.90186 3004.4827 10859978
1401.5978 887.14386 3025.772 10860234
1426.7649 891.66589 3041.1953 11057611
1450.6691 895.29565 3053.5752 11254988
1469.5638 895.78241 3055.2356 11255500
1486.9877 895.37177 3053.8347 11386828
1503.7992 894.60663 3051.2251 11452876
1518.9764 892.89893 3045.4009 11584460
1532.3538 890.18585 3036.1472 11387337
1554.2275 892.41418 3043.7476 11321288
1569.9886 891.12189 3039.3398 11649995
1588.5746 891.44403 3040.4387 11584201
1583.5277 878.646 2996.7886 11716297
1616.8521 887.18652 3025.9177 11650763
1633.6744 886.58417 3023.8633 11519176
1646.395 883.79315 3014.3438 11584713
1663.2548 883.25995 3012.5254 11518664
1674.6178 879.85022 3000.896 11518664
1686.0439 876.54492 2989.6223 11518666
1702.5409 875.91718 2987.4814 11452874
1716.6608 874.09198 2981.2563 11452877
1729.7762 871.79773 2973.4312 11452879
1732.3588 864.2948 2947.8411 11189964
1744.918 861.86945 2939.5688 11123658
1756.0421 858.79022 2929.0667 10794951
1762.3236 853.42609 2910.7712 3358291
1774.9482 851.20801 2903.2061 8556967
1781.3484 846.07611 2885.7026 10861261
1812.356 852.61829 2908.0161 10992589
1830.3528 852.97394 2909.2292 10992078
1845.0948 851.82037 2905.2947 10794699
1856.672 849.2406 2896.4958 10663114
1874.8177 849.685 2898.0115 10663115
1891.8051 849.60101 2897.7251 10728906
1906.4823 848.49042 2893.9373 10399941
1922.2169 847.86609 2891.8079 10202562
1940.2587 848.26141 2893.1562 10136768
1958.3719 848.68085 2894.5869 10004925
1976.9292 849.28369 2896.6428 9939388
1995.7584 849.99207 2899.0588 9939131
2017.1249 851.75964 2905.0874 9939130
2035.7678 852.35706 2907.125 9741751
2056.5166 853.8186 2912.1101 9610165
2077.4814 855.34497 2917.3159 9675958
2100.2725 857.59174 2924.979 9544374
2120.3877 858.71802 2928.8203 9544374
2142.123 860.47693 2934.8193 9478582
2162.9519 861.84613 2939.4895 9478581
2186.6479 864.3269 2947.9507 9412788
2201.5623 863.32465 2944.5322 9346995
2221.4036 864.25507 2947.7056 9215409
2246.8918 867.35077 2958.2639 9018287
2266.7065 868.2254 2961.2471 8886701
2284.8149 868.43805 2961.9724 8886444
2305.0557 869.45166 2965.4294 8689323
2321.5945 869.06427 2964.1082 8886444
2338.0735 868.66046 2962.731 8688812
2355.616 868.65479 2962.7117 8688811
2369.1477 867.18121 2957.6855 8754603
2383.8562 866.1568 2954.1919 8689066
2395.7097 864.11755 2947.2363 8623273
2408.8689 862.57544 2941.9768 8688555
2421.2151 860.7663 2935.8064 8689066
2430.7112 857.97705 2926.2932 8886446
2434.6099 853.26562 2910.2239 9149362
2450.9055 852.93469 2909.0952 9149361
2455.0984 848.42596 2893.7173 9149617
2469.4456 847.46442 2890.438 9214899
2483.4958 846.41504 2886.8586 9215668
2497.6277 845.40765 2883.4229 8820911
2505.8176 842.41632 2873.2202 9149875
2524.3977 842.93488 2874.9888 9084083
2538.8965 842.09265 2872.1165 9018544
2555.7354 842.03278 2871.9121 8886702
2566.7319 840.06146 2865.1887 8886960
2585.113 840.51715 2866.7427 8886703
2604.0261 841.13873 2868.8628 8820910
2623.5383 841.94446 2871.6108 8820911
2642.752 842.64453 2873.9988 8755117
2661.8416 843.29645 2876.2222 8886701
2680.0447 843.66101 2877.4656 8886702
2698.6626 844.15063 2879.1355 8886958
2715.1304 843.96582 2878.5051 8887211
2817.4407 870.2998 2968.3223 8821162
2719.5032 834.83484 2847.3623 8689577
0 0 0 0
0 0 0 0
0 0 0 0
0 0 0 0
0 0 0 0
0 0 0 0
0 0 0 0
-2963.4243 991.65741 3315.2266 10797008
-2949.5269 993.59418 3321.7012 10731215
-2930.0093 993.65094 3321.8911 10665166
-2918.9177 996.58533 3331.7012 10730958
-2904.252 998.33105 3337.5374 10730701
-2890.5652 1000.4396 3344.5864 10665165
-2864.8459 998.38403 3337.7144 10533576
-2850.2014 1000.1863 3343.7393 10796235
-2833.2363 1001.1935 3347.1067 10599626
-2808.4792 999.44226 3341.252 10665162
-2787.3953 998.98242 3339.7146 11059404
-2746.3647 991.3161 3314.0854 11256784
-2726.438 991.21185 3313.7368 11125198
-2704.5911 990.40302 3311.0327 10730183
-2672.5186 985.8103 3295.679 10795721
-2657.8367 987.61206 3301.7024 10729674
-2645.373 990.27106 3310.5916 10598089
-2627.7505 991.02405 3313.1091 10532298
-2610.5369 991.94385 3316.1841 10466762
-2592.502 992.56311 3318.2544 10795726
-2577.2134 994.25146 3323.8984 10992849
-2546.645 990.02551 3309.7708 11256273
-2537.7329 994.21826 3323.7878 10992589
-2520.2585 995.09619 3326.7227 10926539
-2497.7859 993.99866 3323.0535 10663368
-2500.9541 1003.1687 3353.71 10202816
-2472.7993 999.82086 3342.5178 9413043
-2447.1924 997.45746 3334.6165 10005182
-2447.3577 1005.6456 3361.9907 10597319
-2404.5659 996.17188 3330.3188 10860746
-2388.0242 997.50616 3334.7795 10598087
-2364.8352 996.06299 3329.9548 10531783
-2338.2197 993.1402 3320.1836 10597834
-2335.927 1000.5863 3345.0767 10269382
-2317.1941 1001.0574 3346.6519 10334920
-2287.9673 996.96417 3332.9675 10400457
-2262.5923 994.49268 3324.7051 10729678
-2251.2395 998.19513 3337.0828 11058384
-2228.7461 996.97955 3333.019 10926542
-2219.782 1001.8486 3349.2966 10729418
-2181.0396 993.24438 3320.5317 10597832
-2161.803 993.44733 3321.2102 10334662
-2139.0642 992.02985 3316.4714 10005956
-2124.0918 994.22107 3323.7971 9940164
-2097.8943 991.15021 3313.5308 10203335
-2070.0579 987.2395 3300.457 10400714
-2055.5557 989.67438 3308.5969 10465993
-2033.4767 988.47302 3304.5806 10268613
-2014.8917 988.96313 3306.2192 10400452
-1988.4447 985.56622 3294.8628 10531268
-1964.3269 983.26776 3287.1787 10070719
-1941.8058 981.73047 3282.0396 9478327
-1923.1703 982.14642 3283.4302 9280947
-1899.0667 979.74988 3275.4182 9412279
-1884.1447 982.08966 3283.2402 9478328
-1865.6477 982.59534 3284.9309 9543607
-1848.0245 983.57684 3288.2122 9544119
-1831.9299 985.40137 3294.3118 9544632
-1819.3978 989.20221 3307.0186 9873340
-1795.4316 986.80145 3298.9924 10267329
-1771.297 984.25421 3290.4766 9478070
-1750.7334 983.65668 3288.479 9214897
-1741.5438 989.50818 3308.0413 9412275
-1722.8311 990.02051 3309.7539 9741495
-1692.9843 984.07251 3289.8694 9675700
-1669.1201 981.50427 3281.2832 10069684
-1648.5586 980.84021 3279.0635 10529462
-1621.231 976.08685 3263.1724 10858428
-1604.0592 977.40704 3267.5857 10792124
-1568.0579 967.14569 3233.2808 10923710
-1553.4448 969.98553 3242.7749 10594746
-1530.2703 967.48364 3234.4109 10594747
-1511.5172 967.74921 3235.2986 10265781
-1483.0636 961.73096 3215.179 10331830
-1463.098 961.13208 3213.1765 9739694
-1441.6746 959.54706 3207.8777 9805228
-1417.7052 956.20245 3196.6963 9541797
-1404.8229 960.34644 3210.5503 9738919
-1379.5778 956.03699 3196.1431 10001834
-1359.2355 955.05231 3192.8513 10725558
-1341.0431 955.5719 3194.5884 10593202
-1326.3613 958.64368 3204.8577 11317183
-1306.3094 957.867 3202.261 11382974
-1296.4731 964.66852 3224.9995 12896720
-1271.0417 959.89618 3209.0449 10527918
-1248.0383 956.84021 3198.8284 10001577
-1231.7471 958.91541 3205.7661 10133423
-1207.1375 954.47839 3190.9326 9738151
-1191.4297 957.05084 3199.5325 10791093
-1174.6635 958.84241 3205.522 10330799
-1154.1022 957.54431 3201.1821 10594482
-1132.5938 955.40363 3194.0259 10989496
-1112.9811 954.81677 3192.0637 10265518
-1098.4045 958.60461 3204.7271 10791350
-1085.2772 963.81287 3222.1387 10462644
-1061.66 959.72498 3208.4724 10397109
-1042.7666 959.836 3208.8435 10199733
-1028.1143 963.92755 3222.5222 9081510
-1001.2175 956.47662 3197.613 9147562
-979.90637 954.17719 3189.9258 8555425
-956.77655 949.98163 3175.8994 7897238
-930.29999 942.22791 3149.9778 7372177
-904.98303 935.35522 3127.0017 8753060
-884.43628 933.22858 3119.8921 7569040
-865.93652 933.2171 3119.8538 7634063
-844.38806 929.84796 3108.5901 7896723
-833.85052 938.72424 3138.2646 7567243
-807.67444 929.99841 3109.0933 9475754
-796.46954 938.50623 3137.5359 6449019
-780.77728 942.0069 3149.239 6185845
-769.71204 951.39813 3180.635 6645881
-752.79913 953.85144 3188.8367 6250865
-734.91809 955.17279 3193.2542 5461091
-713.20898 951.45721 3180.8325 5394270
-689.35492 944.60077 3157.9106 4867926
-661.23181 931.34869 3113.6072 3223613
-634.28577 919.04114 3072.4617 6052457
-620.5882 925.76971 3094.9561 5723747
-608.11957 934.79724 3125.1362 6052455
-591.63684 938.02759 3135.9358 4934230
-575.10077 941.38025 3147.144 4671316
-561.79675 950.42554 3177.3833 3947595
-540.61591 946.31012 3163.6252 5395299
-523.07721 948.5036 3170.9583 4935007
-498.79752 938.18152 3136.4502 3816530
-481.18216 940.08032 3142.7981 3882580
-456.6528 928.08026 3102.6807 4409181
-434.49017 920.08533 3075.9526 3027272
-415.0473 917.40161 3066.9807 2499641
-394.22263 911.27808 3046.5088 2960964
-373.43155 904.64801 3024.344 2566462
-358.88239 913.23309 3053.0447 9802918
-340.58029 912.67279 3051.1714 3157823
-320.83694 907.97089 3035.4524 4077897
-304.62399 913.29474 3053.251 4867413
-284.45996 906.69739 3031.1951 3880516
-267.21255 909.13379 3039.3403 4143688
-246.75722 900.21918 3009.5378 3617343
-229.35556 901.92401 3015.2371 2892844
-213.90633 912.24323 3049.7354 4603980
-195.13696 909.0011 3038.8967 1643805
-173.75911 891.71332 2981.1016 1775138
-156.24356 892.57654 2983.9873 1774880
-138.52876 892.37653 2983.3186 1050388
-120.58134 890.40009 2976.7114 656651
-103.49454 895.19061 2992.7266 1379355
-86.529915 903.23761 3019.6287 1970974
-68.32019 899.09534 3005.7805 1971748
-50.229725 894.1543 2989.2622 1708565
-32.464848 892.78284 2984.6772 590854
-14.687047 887.34717 2966.5051 722699
2.902245 890.15381 2975.8879 919566
20.514544 889.13757 2972.4905 1050382
38.00808 886.29095 2962.9739 393482
55.317532 882.30719 2949.656 1181198
73.015915 884.9505 2958.4927 1312784
90.351402 883.02344 2952.0505 1049871
107.93919 883.78748 2954.6047 2102554
126.00837 887.72949 2967.7834 1576725
143.97597 890.07812 2975.635 1510677
162.0636 892.57513 2983.9827 786956
179.80049 892.83911 2984.8655 590089
197.77583 894.13391 2989.1941 2036256
213.89201 887.50165 2967.0215 1905432
228.99159 877.97906 2935.1865 2102305
250.38644 892.23389 2982.842 2299426
268.16019 892.55615 2983.9192 1838871
286.14258 893.48981 2987.0408 2693414
305.18243 897.42444 3000.1946 1641491
319.34692 887.37848 2966.6099 1707031
335.63098 883.96332 2955.1924 3023146
355.57816 890.05609 2975.5613 2495517
372.37735 888.06573 2968.9072 2429984
385.89456 878.78094 2937.8672 3088172
397.9726 867.16193 2899.0234 2232864
422.73697 883.00348 2951.9836 2760493
438.12988 878.78906 2937.8943 2298915
456.62286 880.87714 2944.875 2496294
476.94415 886.20862 2962.6987 2102048
491.71628 881.21667 2946.0103 2102047
512.02661 886.15204 2962.5095 1312530
522.16486 873.73901 2921.0115 1904666
542.90015 879.28589 2939.5552 1115922
563.15533 883.73431 2954.427 2299682
583.27051 887.70135 2967.6892 985104
596.85266 881.78442 2947.9082 1115661
610.27112 875.96906 2928.4666 2628643
625.45551 872.93994 2918.3401 2431782
645.79065 877.06927 2932.1448 721166
661.47205 874.82739 2924.6501 1313558
673.2453 867.66327 2900.6995 919057
693.20551 871.14435 2912.3372 1182481
715.42126 877.22198 2932.6553 459016
731.80176 876.026 2928.6572 1380116
752.20117 879.58496 2940.5552 2300711
774.13165 884.7326 2957.7644 1972003
791.83301 884.92603 2958.4109 1445914
811.56201 887.32794 2966.4409 1182225
828.12384 886.23859 2962.7991 919306
837.39874 877.55798 2933.7788 1115926
860.50812 883.43365 2953.4219 1313561
876.10498 881.51617 2947.0112 2168360
896.37329 884.28204 2956.2581 3419197
911.11603 881.59534 2947.2761 4603214
932.48236 885.2981 2959.6548 2234410
957.86938 892.61096 2984.1025 2169131
964.69202 882.67273 2950.8777 2826547
989.53064 889.27893 2972.9634 3090235
1003.795 886.3175 2963.0627 2498613
1015.5928 881.31726 2946.3464 1973037
1034.8412 882.84241 2951.4453 2829117
1044.6007 876.35638 2929.7615 3223872
1049.8467 866.35754 2896.3345 3948372
1071.0315 869.62195 2907.2478 3092546
1098.7424 877.99811 2935.25 3158600
1110.6731 873.69977 2920.8801 3290441
1117.551 865.61957 2893.8672 3290700
1125.4894 858.59265 2870.3752 4541026
1146.3177 861.46179 2879.9673 1382703
1175.395 870.35486 2909.698 4475744
1200.1638 875.84674 2928.0576 6055291
1230.5271 885.20636 2959.3481 6318723
1250.3652 886.83801 2964.8027 6581895
1262.449 883.00061 2951.9741 5792892
1266.7303 873.8855 2921.5012 7437973
1285.8192 875.09381 2925.5408 7700632
1297.8379 871.52228 2913.6006 6451080
1322.097 876.15625 2929.0925 6648973
1334.9496 873.20892 2919.2393 7109526
1355.395 875.23993 2926.0293 6780304
1370.8638 874.04675 2922.0403 8491179
1394.0516 877.74347 2934.3989 8030625
1410.7373 877.3056 2932.9348 8820141
1435.2987 881.71643 2947.6809 9149362
1442.4938 875.48114 2926.8357 9346741
1470.0728 881.61859 2947.3538 9610170
1492.0939 884.31787 2956.3777 9346999
1506.1814 882.30713 2949.6555 9610171
1527.3228 884.42706 2956.7429 9741758
1540.7183 882.06451 2948.8447 10004674
1560.2703 883.24005 2952.7744 10070723
1600.5037 895.96698 2995.322 10333895
1599.0417 885.32947 2959.7598 10333895
1617.6746 885.92786 2961.7603 10136259
1633.6774 885.08844 2958.9541 10202307
1645.4792 882.0152 2948.6797 10531272
1661.6204 881.30811 2946.3157 10926030
1679.9768 881.77832 2947.8877 10860236
1694.1394 880.06024 2942.144 10860236
1707.0416 877.72925 2934.3511 10992591
1713.6414 872.2373 2915.991 10926543
1732.6921 873.12921 2918.9727 10795726
1738.588 867.44 2899.9531 10597320
1747.1334 863.1712 2885.6821 11057615
1760.8667 861.5235 2880.1736 5661815
1774.8942 860.04993 2875.2473 4742259
1792.1654 860.16113 2875.6191 10597836
1797.7296 854.70447 2857.3767 10795469
1817.2968 855.94501 2861.5239 10860491
1827.2202 852.66229 2850.5496 10729677
1842.7927 852.05176 2848.5085 10597834
1852.6666 848.84143 2837.7759 10597322
1840.0682 835.48523 2793.1245 9676219
1818.0918 818.14697 2735.1609 9281461
1906.75 850.46112 2843.1909 10005182
1927.5853 852.22345 2849.0823 10202562
1948.3757 853.93549 2854.8059 10268098
1966.347 854.39301 2856.3354 10202561
1987.9891 856.42419 2863.126 9939646
2009.2717 858.26733 2869.2878 10005439
