# .PCD v0.7 - Point Cloud Data file format
VERSION 0.7
FIELDS x y z rgb
SIZE 4 4 4 4
TYPE F F F U
COUNT 1 1 1 1
WIDTH 1272
HEIGHT 1
VIEWPOINT 0 0 0 1 0 0 0
POINTS 1272
DATA ascii
2606.9854 841.97491 4989.6172 4866867
2607.5894 832.72491 4934.8008 6314312
2640.8167 833.98267 4942.2544 3024659
2681.7056 837.60577 4963.7256 3353367
2692.1951 831.75836 4929.0732 3550490
2691.5127 822.62201 4874.9302 3023631
2723.1338 823.44781 4879.8242 3944733
2772.7456 829.6394 4916.5161 3549975
2803.6831 830.17273 4919.6768 3682331
2823.6807 827.48907 4903.7734 3944735
2885.8491 837.09259 4960.6846 6707782
2965.8845 851.63275 5046.8506 3813148
3015.3374 857.18866 5079.7754 4668456
2991.1541 841.90869 4989.2251 4076320
3082.4658 859.11755 5091.2065 4997420
3035.8699 837.92908 4965.6411 5194798
3028.2961 827.81439 4905.7007 5852984
3080.8198 834.16406 4943.3296 5261617
3101.0188 831.72443 4928.8721 5195825
3199.6626 850.17352 5038.2031 4735531
3279.0249 863.20581 5115.4336 7762008
3239.5107 844.99152 5007.4941 6512455
3319.1143 857.89648 5083.9702 7630425
3273.4858 838.49158 4968.9751 6249031
3257.1199 826.86139 4900.0532 5854788
3165.2297 796.43335 4719.7339 6052424
3338.6941 832.72186 4934.7827 5657668
3451.4651 853.37366 5057.1675 8223338
3518.5613 862.47412 5111.0977 8289390
3510.9753 853.26935 5056.5488 7302495
3514.3733 846.86707 5018.6089 6710359
3573.302 853.84137 5059.9395 5525829
3574.5388 847.02893 5019.5679 4604468
3650.1655 857.81091 5083.4629 4276016
3628.7559 845.79895 5012.2788 5196347
3714.77 858.81726 5089.4268 3157275
3697.5715 847.95648 5025.0645 3617570
3703.7507 842.5874 4993.2471 4802355
3680.0862 830.56805 4922.0195 4670513
3723.1746 833.68488 4940.4897 5197114
3748.6487 832.83972 4935.4814 4473648
3798.2959 837.33655 4962.1299 3815208
3918.8347 857.2724 5080.2715 3618344
3885.5964 843.52087 4998.7788 4341811
3934.3892 847.65063 5023.2524 4012846
3915.5002 837.24622 4961.5947 3882032
3957.209 839.85785 4977.0713 3948081
4032.2769 849.45837 5033.9653 5131586
4160.6606 870.06726 5156.0952 6250325
4206.5117 873.24231 5174.9111 4868157
4249.2759 875.73541 5189.6851 5920331
4199.2402 859.20477 5091.7231 5986124
4306.2979 874.82355 5184.2812 3025182
4387.1533 884.93585 5244.2075 3945513
4314.564 864.172 5121.1592 4932406
4359.6533 867.1037 5138.5327 4735027
4342.4834 857.69781 5082.7925 4603442
4398.6777 862.81195 5113.0996 4998201
4343.4121 846.14258 5014.3154 4340014
4408.8335 853.05115 5055.2563 5261117
4495.5781 863.96436 5119.9292 5524290
4450.6289 849.59192 5034.7563 4932408
4444.3115 842.73633 4994.1294 5327164
4461.1782 840.33832 4979.9189 5590337
4460.7056 834.72742 4946.668 5655617
4444.0229 826.17609 4895.9922 4471602
4412.3867 814.97369 4829.606 4471601
4421.8052 811.44983 4808.7231 4800310
4544.4248 828.61163 4910.4258 4801080
4687.0674 849.18286 5032.332 4801079
4768.7861 858.5257 5087.6987 4537907
4859.7744 869.40948 5152.1968 5787974
4805.6357 854.35632 5062.9907 4405809
4801.8926 848.39392 5027.6567 4011307
0 0 0 0
0 0 0 0
0 0 0 0
0 0 0 0
0 0 0 0
-4092.0203 789.14856 4517.8984 5526334
-4221.8628 819.55103 4691.9536 6118214
-4130.3096 807.09424 4620.6382 6249544
-4057.0115 798.06219 4568.9292 5591867
-4009.1621 793.94843 4545.3779 4868145
-4191.0781 835.58807 4783.7661 7500123
-4045.8687 812.13074 4649.4722 6776401
-4058.7986 820.31274 4696.3145 6250057
-3996.9048 813.38098 4656.6299 6447436
-4032.5203 826.33411 4730.7871 5789506
-3992.397 823.83978 4716.5068 5855042
-3926.0688 815.86475 4670.8496 5526333
-3903.4119 816.91608 4676.8687 6118214
-3885.3506 818.95111 4688.519 4275756
-3846.9192 816.69098 4675.5796 4933940
-3785.4968 809.48163 4634.3062 5591870
-3687.2717 794.23969 4547.0454 6710607
-3701.8806 803.25671 4598.668 6447436
-3693.1887 807.31396 4621.896 4539439
-3696.4075 814.05493 4660.4883 4473646
-3614.5173 802.01306 4591.5479 5197111
-3655.627 817.28723 4678.9932 4802353
-3625.8364 816.82281 4676.3345 4538927
-3476.031 789.10614 4517.6558 5657408
-3432.3035 785.22736 4495.4492 6644558
-3437.1353 792.48376 4536.9927 7302488
-3397.3176 789.479 4519.7905 8092004
-3413.9451 799.64758 4578.0054 7170902
-3372.6865 796.31165 4558.9077 7105363
-3307.2051 787.1568 4506.4956 5525305
-3359.9126 806.21216 4615.5879 5985854
-3302.6963 798.98761 4574.2275 5591350
-3251.2849 793.05945 4540.2886 5525301
-3217.103 791.27014 4530.0444 5591351
-3152.0059 781.78271 4475.729 6841161
-3215.6736 804.34259 4604.8848 5788730
-3193.5532 805.64667 4612.3506 6117181
-3163.8823 805.05188 4608.9458 5919545
-3153.6714 809.44165 4634.0771 5788216
-3097.1335 801.91351 4590.978 5656632
-3092.1689 807.72351 4624.2407 5656373
-3061.9456 806.98059 4619.9873 5656629
-3051.8513 811.57703 4646.3022 5393201
-3036.8716 814.94629 4665.5913 5129517
-2988.1523 809.24023 4632.9238 5327666
-2953.5105 807.276 4621.6787 5985341
-2963.3367 817.54315 4680.4585 5327667
-2909.7651 810.34857 4639.269 5327667
-2866.4258 805.89349 4613.7637 5590837
-2841.5178 806.58435 4617.7192 6446146
-2808.311 804.91022 4608.1343 5919802
-2795.2029 809.02032 4631.665 6446405
-2763.7239 807.8421 4624.9199 7630424
-2768.2654 817.27472 4678.9214 7169872
-2743.0559 818.02588 4683.2217 6907470
-2675.8269 806.13336 4615.1367 6710092
-2629.1089 800.23822 4581.3872 6775885
-2624.5005 807.17096 4621.0776 6775628
-2598.3396 807.55164 4623.2568 7499607
-2546.4771 799.86731 4579.2637 5591610
-2546.1704 808.38586 4628.0327 6709579
-2552.9856 819.37573 4690.9502 4933170
-2526.1553 819.69019 4692.7505 4472619
-2483.738 814.89777 4665.3135 5064499
-2406.7288 798.52026 4571.5518 4341031
-2389.1838 801.72388 4589.8926 4669739
-2422.6609 822.31958 4707.8037 6511943
-2384.9255 818.9422 4688.4678 5656891
-2354.4124 817.99426 4683.041 5920063
-2360.3291 829.8316 4750.8101 6577993
-2372.3931 844.14197 4832.7373 5130291
-2351.3193 846.86707 4848.3389 6511945
-2312.5308 843.20032 4827.3467 6973521
-2227.7297 822.45435 4708.5752 6644556
-2217.5818 829.0929 4746.5811 7105108
-2151.8518 814.85443 4665.0654 6644814
-2150.7075 825.02063 4723.2671 7039571
-2167.3689 842.37549 4822.624 7039315
-2177.938 857.79443 4910.8984 6381898
-2091.2593 834.81085 4779.3164 7368535
-2072.8176 838.80975 4802.21 5855040
-2013.9082 826.31561 4730.6812 7368023
-2026.8333 843.35901 4828.2549 6907215
-1963.7457 828.80896 4744.9556 6183489
-1968.4031 842.84363 4825.3042 6117694
-1922.0659 835.13501 4781.1724 5722935
-1859.377 819.98468 4694.436 6907211
-1828.2147 818.4884 4685.8701 6776142
-1805.3425 820.71472 4698.6157 5591869
-1798.8671 830.58154 4755.1035 7105106
-1805.8646 847.08228 4849.5708 8552552
-1801.9664 858.9231 4917.3599 7829085
-1757.6021 851.54767 4875.1353 8289636
-1677.6611 826.401 4731.1699 8158310
-1644.9375 824.05365 4717.731 8223847
-1579.6075 805.008 4608.6943 7829604
-1559.9421 808.97345 4631.397 7040088
-1544.3634 815.2384 4667.2637 6974036
-1530.6771 822.74896 4710.2617 7894881
-1486.5267 813.85974 4659.3706 6513227
-1466.8021 818.25995 4684.562 6974035
-1440.5675 819.12823 4689.5332 7039316
-1430.0632 829.15112 4746.9146 7828832
-1423.1643 841.70874 4818.8071 7697503
-1368.3115 825.8382 4727.9478 8881776
-1325.7523 816.87897 4676.6558 8157797
-1308.0002 823.14868 4712.5503 8355434
-1281.0229 823.75977 4716.0488 9671295
-1281.0143 842.12701 4821.2017 4737076
-1241.4648 834.74554 4778.9429 5921092
-1205.3853 829.40717 4748.3799 6184005
-1190.7615 838.92963 4802.8965 7170902
-1165.478 841.22455 4816.0352 3880997
-1128.9683 835.32825 4782.2788 3485723
-1079.7629 819.49304 4691.6216 3090965
-1045.2253 814.24707 4661.5884 4209443
-1011.7137 809.53729 4634.6245 4078114
-976.04602 802.79126 4596.0034 7828571
-958.21393 810.74878 4641.5601 6446920
-929.24237 809.47278 4634.2554 6578507
-899.2951 807.24329 4621.4917 5722939
-881.34283 815.97919 4671.5049 5130546
-866.47607 828.2312 4741.6475 2695952
-867.21716 856.72321 4904.7651 2433039
-825.11835 843.40228 4828.5024 4275240
-783.33453 829.45789 4748.6704 3156761
-749.92462 823.67139 4715.543 4472619
-724.79425 826.88287 4733.9287 5262134
-688.64197 817.27228 4678.9077 5722683
-652.51605 806.88782 4619.4561 6906955
-629.42072 812.4129 4651.0874 7235917
-621.91022 839.48108 4806.0537 3024911
-580.68658 821.45587 4702.8589 5986112
-560.03961 832.18915 4764.3071 4999217
-537.5639 841.20044 4815.897 4933428
-501.38165 828.57111 4743.5938 4801844
-479.4288 839.35327 4805.3223 3814949
-449.21838 836.12756 4786.855 3552034
-421.77502 837.9646 4797.3716 5657408
-392.40652 835.96564 4785.9277 5196341
-361.80798 830.83081 4756.5308 4669998
-333.52417 830.59277 4755.168 4274983
-313.05576 851.57007 4875.2637 5262135
-286.55215 858.72711 4916.2378 5394492
-259.31146 865.04529 4952.4097 6184011
-229.21306 862.22644 4936.2715 5723976
-197.78665 852.85632 4882.6274 5723465
-168.52393 851.20349 4873.165 4407604
-141.1899 860.62347 4927.0947 4933948
-110.7425 851.02997 4872.1714 5855050
-81.076469 842.79187 4825.0078 6118479
-52.802837 847.93683 4854.4634 6644822
-23.962191 845.39453 4839.9082 6447444
4.6818695 838.54065 4800.6694 6907994
32.687725 827.30493 4736.3447 5723721
60.072651 817.99561 4683.0488 6578773
90.41716 842.13501 4821.2476 6907480
118.43737 838.23157 4798.9004 4276272
147.19577 840.05267 4809.3262 5394499
179.55093 858.48004 4914.8232 3749414
209.13123 860.34772 4925.5156 3749158
237.78368 858.40839 4914.4131 5196350
270.77219 870.83759 4985.5708 7236190
298.24908 864.83905 4951.229 6710359
328.62726 867.57446 4966.8892 7762791
369.62726 895.5965 5127.3159 8025964
400.08026 895.7475 5128.1807 7236705
428.23984 891.1048 5101.6011 8288879
457.42282 889.06366 5089.9155 7697253
472.45483 861.47223 4931.9536 7302495
498.67181 856.30206 4902.3545 7763046
531.03766 861.67865 4933.1353 7762788
570.76978 877.82312 5025.563 3683624
599.7807 876.69519 5019.1055 5591363
631.99713 880.13794 5038.8154 5394497
659.77802 877.3717 5022.9785 6775382
684.57983 871.05371 4986.8081 8223341
709.07343 864.88275 4951.479 6183754
732.24432 857.65295 4910.0884 8749679
768.85669 866.11761 4958.5488 6051908
810.70337 879.63849 5035.9561 3749414
834.9339 873.76385 5002.3232 5525575
863.11261 872.2821 4993.8403 6710617
901.85797 881.22357 5045.0308 7763564
921.99487 871.99188 4992.1792 7171426
965.23761 884.50763 5063.832 5658186
1000.1474 888.86273 5088.7651 7171426
1015.0855 875.73303 5013.5972 8618870
1035.7764 868.17188 4970.3096 7105374
1070.1394 872.172 4993.21 8026732
1083.2152 859.07422 4918.2251 6776407
1140.3806 880.71326 5042.1089 5986633
1166.2987 877.73114 5025.0366 6052682
1174.9001 862.18988 4936.062 6907736
1201.8716 860.55682 4926.7129 7039324
1249.1852 873.22113 4999.2163 6513497
1277.7268 872.48035 4994.9756 6118995
1305.4058 871.19745 4987.6309 7171683
1319.6792 861.22284 4930.5259 4671292
1368.5166 873.74829 5002.2344 7039839
1418.5364 886.48151 5075.1323 7039840
1409.9641 862.83032 4939.729 6447959
1430.0715 857.33496 4908.2681 5461318
1456.6138 855.83954 4899.7065 6776151
1495.0813 861.2724 4930.8096 6513746
1504.476 850.06989 4866.6753 7696991
1533.2698 850.04388 4866.5259 6644301
1565.8832 852.09717 4878.2808 7170132
1593.245 851.27014 4873.5464 6249030
1633.892 857.44434 4908.894 5722944
1666.9371 859.48303 4920.5654 4933430
1704.4839 863.73291 4944.896 5525825
1734.2324 863.95404 4946.1621 6184013
1772.2739 868.23059 4970.6455 5394756
1789.4675 862.32098 4936.8125 6316371
1794.2172 850.70135 4870.29 5987406
1791.8004 836.10565 4786.729 6908507
1832.3129 841.68463 4818.6689 5855820
1868.5952 845.17902 4838.6748 5855820
1929.8641 859.69873 4921.8003 7302240
1941.4221 851.97095 4877.5586 4867643
1948.1335 842.37427 4822.6172 4407092
1982.5483 844.86078 4836.8525 5525573
1994.9143 838.01434 4797.6562 4999227
2046.4896 847.59961 4852.5327 3946542
2037.7764 832.29553 4764.916 4604473
2049.9292 825.81561 4727.8184 3485992
2087.6531 829.67291 4749.9014 4472885
2138.415 838.54016 4800.667 3683367
2160.6626 836.13995 4786.9258 4340782
2156.9695 823.89355 4716.8145 5656384
2197.2715 828.55017 4743.4741 5130037
2240.7959 834.28894 4776.3286 3814176
2283.7783 839.68524 4807.2227 3682851
2313.5093 840.13635 4809.8052 5262390
2382.0491 854.49829 4892.0273 3353625
2420.2136 857.74939 4910.6401 3419677
2408.7278 843.53571 4829.2666 4998451
2411.2646 834.50891 4777.5879 4538159
2405.7893 822.95093 4711.418 3222557
2488.644 841.52655 4817.7642 9604740
2566.407 857.97864 4911.9526 3353117
2608.0798 862.13171 4935.729 1643270
2605.5422 851.74048 4876.2388 3681821
2634.7778 851.84973 4876.8643 4931888
2612.6433 835.52826 4783.4238 2761231
2627.6851 831.31873 4759.3242 4011295
2659.5842 832.4751 4765.9443 3419158
2709.5864 839.21411 4804.5254 3682074
2806.553 860.20734 4924.7124 2760974
2833.9653 859.66974 4921.6343 2102278
2870.0366 861.74286 4933.5029 3813408
2918.811 867.54993 4966.7485 3879458
2960.8872 871.27002 4988.0464 6313026
2969.5674 865.18658 4953.2183 4536871
2965.7522 855.61743 4898.4346 3353113
2981.658 851.86798 4876.9688 4997678
3014.4487 852.96832 4883.2686 5523764
3045.4119 853.53552 4886.5161 4142110
3095.9392 859.52368 4920.7983 5326640
3109.4226 855.21155 4896.1113 5260336
3083.6633 840.28577 4810.6602 4471076
3102.7742 837.74823 4796.1328 4800041
3194.8179 854.76984 4893.5825 4207390
3167.7222 839.89636 4808.4312 4668713
3205.9346 842.44971 4823.0493 4406056
3253.9233 847.50421 4851.9863 5197370
3265.5605 843.08514 4826.687 6184009
3334.189 853.3288 4885.332 5591875
3429.9067 870.26923 4982.3169 7894120
3432.8306 863.57703 4944.0039 6315344
3433.2942 856.38446 4902.8262 6841945
3442.9058 851.57526 4875.293 6644052
3489.7639 855.98206 4900.5225 5920328
3536.1038 860.19006 4924.6128 5920585
3573.76 862.23401 4936.3149 5328443
3525.4436 843.67072 4830.0396 5130293
3597.563 853.99585 4889.1509 5064756
3600.7546 847.92444 4854.3921 4209448
3628.4204 847.66681 4852.9175 3222553
3675.853 851.995 4877.6963 4077862
3736.8601 859.37732 4919.96 4538159
3739.3752 853.29791 4885.1558 4406316
3743.5288 847.68286 4853.0093 4735539
3838.2827 862.51263 4937.9102 4932919
3856.626 860.07733 4923.9678 4012843
3891.3477 861.30377 4930.9893 3683622
3941.5708 865.91742 4957.4028 5986377
4028.4724 878.46118 5029.2158 5920584
4069.7725 880.94958 5043.4619 6775637
4123.3896 886.0484 5072.6528 5723463
4062.021 866.54376 4960.9883 5197376
4066.4282 861.25043 4930.6841 7039323
4138.918 870.3493 4982.7754 7302750
4092.9434 854.58459 4892.5215 5722433
4238.1514 878.67871 5030.4614 4208681
4238.3281 872.57758 4995.5322 4405801
4259.54 870.86176 4985.709 4405805
4221.9341 857.22693 4907.6494 4603185
4180.5835 843.02374 4826.3354 4340271
4218.4473 844.87872 4836.9556 3024156
4294.2397 854.25391 4890.6284 2826780
4227.6997 835.37885 4782.5684 3879465
4284.6401 840.99207 4814.7041 4932409
4255.0562 829.66022 4749.8291 4405550
4354.4863 843.46765 4828.877 5392697
4285.1143 824.61108 4720.9224 4997938
4274.249 817.18481 4678.4067 5326646
4354.7021 827.20074 4735.7485 4471597
4373.644 825.47888 4725.8906 4471343
4488.5884 841.78302 4819.2324 4011051
4541.7412 846.36603 4845.4702 3747622
4624.0854 856.29706 4902.3257 2958363
4598.9849 846.3316 4845.2729 2168848
4665.6792 853.27759 4885.0391 3550500
0 0 0 0
0 0 0 0
0 0 0 0
0 0 0 0
0 0 0 0
0 0 0 0
-4030.4492 808.93848 4479.2266 7565661
-4003.7515 808.90765 4479.0557 7960676
-3963.7708 806.1748 4463.9233 8223847
-3949.7966 808.7301 4478.0728 6381642
-4057.7256 836.44867 4631.5552 7829088
-4023.5747 835.0575 4623.8521 8487019
-3828.1641 799.94971 4429.4541 6907987
-3818.8813 803.51978 4449.2222 8552812
-3836.7922 812.90088 4501.167 6973780
-3851.5793 821.74695 4550.1489 8289896
-3855.1709 828.31226 4586.5024 6579022
-3773.4299 816.50635 4521.1309 7039830
-3759.3093 819.26807 4536.4229 8421227
-3699.2341 811.9826 4496.082 7894883
-3696.125 817.1861 4524.895 8157797
-3685.5278 820.7981 4544.895 8552811
-3638.9724 816.39606 4520.52 8815726
-3664.3096 828.17731 4585.7549 8421481
-3609.2664 821.83209 4550.6201 8026465
-3598.4048 825.52704 4571.0801 8684396
-3566.5615 824.42804 4564.9946 8026723
-3540.9873 824.77258 4566.9023 8289382
-3410.4014 800.47437 4432.3594 8420968
-3355.7463 793.7597 4395.1787 9605240
-3332.4241 794.40918 4398.7749 8881516
-3317.2737 797.03223 4413.2998 8749674
-3323.5603 804.88873 4456.8022 8289380
-3313.0374 808.76746 4478.2793 6841934
-3269.7495 804.64587 4455.4575 6776398
-3241.665 804.22888 4453.1484 5855040
-3262.427 816.02301 4518.4546 6446919
-3163.3218 797.7821 4417.4517 5723196
-3148.3074 800.62122 4433.1724 5131059
-3153.2781 808.63318 4477.5356 5591610
-3105.3955 803.11218 4446.9653 6644555
-3100.5859 808.73163 4478.0811 5986112
-3021.4451 794.89264 4401.4521 6117443
-3031.9978 804.61511 4455.2871 6841418
-2976.7837 796.90222 4412.5796 6182976
-2934.8545 792.64056 4388.9819 6117183
-2924.4507 796.89319 4412.5293 5196081
-2988.793 821.77399 4550.2988 5261874
-2959.9265 821.24677 4547.3794 5787961
-2929.4829 820.26819 4541.9609 5656372
-2921.5461 825.6319 4571.6606 4208672
-2916.1655 831.82526 4605.9541 4077597
-2816.9492 811.11627 4491.2852 4998699
-2783.7891 809.21405 4480.7524 5064235
-2739.4978 804.00842 4451.9277 5590580
-2718.8267 805.70111 4461.3003 5261872
-2767.259 828.10632 4585.3618 5064493
-2733.012 825.96863 4573.5254 5787959
-2682.1743 818.72394 4533.4102 6051133
-2645.498 815.6991 4516.6611 5657145
-2619.1919 815.84259 4517.4556 4933421
-2542.4832 800.12714 4430.4365 5196337
-2557.1272 813.13275 4502.4507 6512455
-2562.3938 823.39917 4559.2979 4538408
-2525.4419 820.17346 4541.4365 5196337
-2521.0894 827.57941 4582.4443 5920060
-2485.9451 824.92877 4567.7671 5920574
-2448.5405 821.46149 4548.5684 5131318
-2409.3101 817.29761 4525.5122 5723454
-2370.179 813.07416 4502.126 5591868
-2373.5659 823.50604 4559.8892 6184007
-2340.0701 821.23438 4547.3105 5986372
-2303.3169 817.75323 4528.0352 4735788
-2319.3433 833.14954 4613.2871 6249027
-2303.0769 837.17456 4635.5742 6841165
-2268.8789 834.69989 4621.8716 6906958
-2244.6653 835.88281 4628.4219 3946274
-2191.7864 826.28839 4575.2959 6446920
-2183.667 833.53894 4615.4434 7236949
-2127.7869 822.51129 4554.3813 6381127
-2134.6228 835.75494 4627.7139 6315334
-2134.8225 846.71149 4688.3818 5657403
-2079.6768 835.71625 4627.4995 5525557
-2069.343 842.6756 4666.0342 5657145
-2011.9646 830.40643 4598.0981 4538409
-2029.9937 849.35089 4702.9966 5788475
-2017.405 855.83411 4738.895 5920573
-1971.8041 848.29797 4697.1665 5262900
-1939.1305 846.18701 4685.478 5196339
-1924.1946 851.86768 4716.9326 4275495
-1850.0697 831.12567 4602.0806 4342059
-1828.9987 833.95349 4617.7388 5130549
-1796.2821 831.47662 4604.0239 2367242
-1742.6045 819.07111 4535.3325 4538406
-1728.9343 825.3761 4570.2441 5722935
-1692.3685 820.77765 4544.7817 6841418
-1707.7433 841.62842 4660.2358 6052160
-1698.959 851.06262 4712.4746 8289637
-1653.326 842.04498 4662.5425 8026209
-1583.6083 820.24579 4541.8369 7631450
-1574.1869 829.46393 4592.8789 3091734
-1540.1565 825.8114 4572.6548 8025952
-1520.1383 829.67578 4594.0522 3288347
-1508.6455 838.41907 4642.4653 4143905
-1479.8214 837.67645 4638.353 5657145
-1446.4156 834.26312 4619.4531 8222818
-1415.3252 832.07935 4607.3608 7038545
-1398.571 838.40369 4642.3804 7104595
-1377.12 842.10992 4662.9019 8157027
-1333.2101 831.95294 4606.6611 7038289
-1285.3307 818.84247 4534.0664 8025695
-1273.8616 828.86322 4589.5532 9013362
-1237.4054 822.70831 4555.4722 9868670
-1228.089 834.72546 4622.0132 9210740
-1186.7152 825.00464 4568.1875 6644811
-1169.7136 832.16913 4607.8584 7894876
-1143.8661 833.23236 4613.7456 7696470
-1111.4552 829.44958 4592.7998 6709830
-1082.6659 828.2475 4586.1436 6709828
-1051.6749 825.25586 4569.5781 5657140
-1019.7729 821.37213 4548.0737 8289633
-997.7077 825.41577 4570.4639 9341810
-955.1889 812.29132 4497.7915 8091742
-931.90558 815.24072 4514.123 8223841
-902.67377 813.00702 4501.7544 7894875
-903.38861 838.43048 4642.5283 7236686
-875.55347 838.12177 4640.8188 6776393
-832.17535 822.43188 4553.9419 8420962
-803.03253 820.23059 4541.7529 7433555
-774.70392 818.73712 4533.4829 3485718
-761.29022 833.46515 4615.0347 4077087
-721.52875 819.37036 4536.9893 4340517
-711.03186 838.70355 4644.0405 2893330
-650.82898 798.60193 4421.9912 7433302
-637.1405 814.60559 4510.606 6446919
-614.95618 820.67285 4544.2017 6907213
-597.63007 834.07635 4618.4189 6775626
-569.54553 833.03082 4612.6299 4604457
-541.30237 831.63623 4604.9077 4670765
-513.83276 831.34509 4603.2954 7236951
-486.63379 831.48383 4604.0635 6184265
-465.11737 841.92505 4661.8784 3880996
-436.6188 840.24835 4652.5942 6117701
-410.20535 842.62872 4665.7749 5525821
-378.81747 834.39648 4620.1914 6710351
-356.03116 845.30347 4680.5854 7235668
-325.91687 839.1853 4646.708 3683103
-310.39673 872.98352 4833.8545 4011810
-279.53271 866.11255 4795.8086 4998962
-249.09904 859.17053 4757.3696 5064756
-220.3564 857.03351 4745.5366 4999220
-190.0098 847.1203 4690.6455 5854272
-162.0625 846.33948 4686.3218 5525053
-134.7052 848.95392 4700.7983 5591616
-106.92609 849.58014 4704.2661 5920583
-81.285683 873.6344 4837.4585 2433816
-50.650826 840.97473 4656.6167 1117959
-23.012405 839.43115 4648.0693 4670515
4.5093136 835.0365 4623.7354 5328443
31.925922 835.43854 4625.9619 8223338
59.440891 836.85388 4633.7988 6381648
86.951515 837.33301 4636.4517 7697253
114.85668 840.46906 4653.8164 7368032
142.58493 841.34674 4658.6763 6315601
170.77057 844.20074 4674.4795 7039581
206.45764 878.16534 4862.5469 4999741
236.59753 883.10492 4889.8984 3814953
263.20947 875.23529 4846.3228 4143918
293.54642 880.08203 4873.1602 4802104
322.95807 881.53485 4881.2046 5393983
355.75284 891.22424 4934.856 5262396
381.58545 883.32489 4891.1162 5788740
412.08295 886.57727 4909.125 5722434
425.89032 855.8606 4739.0415 6512464
462.0455 871.07574 4823.2905 6249547
487.28784 865.14313 4790.4409 5328700
507.1377 850.81677 4711.1138 6447693
546.51202 869.03229 4811.9761 7303004
583.98468 882.56726 4886.9209 5789508
613.90332 883.94617 4894.5566 6973528
645.14825 887.02429 4911.6006 7039069
670.52087 882.11121 4884.396 7170907
697.81909 880.0332 4872.8896 7631458
733.06769 887.74829 4915.6094 7105114
759.51221 884.61926 4898.2837 8947575
782.86981 878.25775 4863.0586 7894629
816.01819 882.94159 4888.9937 3486499
846.40094 884.41443 4897.1494 4933690
885.87347 894.97284 4955.6128 6117964
898.87097 878.96484 4866.9736 6315600
952.58606 902.53021 4997.4595 6710359
947.59332 870.72876 4821.3696 6907735
994.15216 886.77234 4910.2056 7763043
1001.3628 867.80353 4805.1719 6973524
1042.2351 878.24896 4863.0098 6710612
1083.275 888.26971 4918.4966 6776401
1122.2819 896.14197 4962.0864 6841937
1140.9474 887.78442 4915.8096 7697246
1156.3667 877.37994 4858.1982 6775889
1177.4797 871.69604 4826.7256 6512974
1229.6816 888.7514 4921.1636 8684144
1271.4857 897.67535 4970.5771 4736824
1290.8483 890.71021 4932.0098 4407857
1317.3053 888.84039 4921.6567 5789253
1332.7921 879.81 4871.6533 5723204
1348.5645 871.34686 4824.792 5262654
1384.682 876.10791 4851.1548 6184013
1420.6785 880.60022 4876.0293 7236443
1446.4498 878.70184 4865.5176 5854534
1470.574 875.89642 4849.9839 5986632
1472.4042 860.17468 4762.9297 6644050
1516.0178 868.995 4811.769 8552302
1522.0851 856.36493 4741.8345 6117447
1582.049 873.9668 4839.2988 5525568
1593.8378 864.80249 4788.5547 7039064
1609.6367 858.09662 4751.4229 7631460
1644.8945 861.81653 4772.0205 8750200
1678.6484 864.63593 4787.6323 7434340
1688.9552 855.48529 4736.9639 7500133
1721.722 857.82428 4749.915 7565926
1769.2059 867.30267 4802.3989 8684663
1818.4326 877.32178 4857.876 8553077
1816.4371 862.70099 4776.9185 5987149
1862.8798 871.18134 4823.875 5657670
1857.7452 855.64954 4737.873 5197120
1911.8971 867.4801 4803.3809 6117965
1937.0919 866.01764 4795.2832 7894634
1981.6757 873.1405 4834.7236 7170654
1974.1357 857.42157 4747.6851 4604984
1996.3477 854.88477 4733.6387 6710104
2012.8865 850.02271 4706.7163 5262657
2045.262 851.88965 4717.0542 6052173
2108.9497 866.57257 4798.356 4407605
2142.5791 868.67822 4810.0151 4407348
2151.1609 860.7066 4765.875 4473141
2133.981 842.76752 4666.5435 7104601
2146.7231 836.95343 4634.3501 5920582
2204.228 848.51764 4698.3828 6117705
2233.7097 849.14044 4701.8311 7104856
2248.9236 844.39075 4675.5312 6380876
2251.5354 835.08264 4623.9907 5591873
2316.2966 848.77197 4699.791 4934200
2358.8047 854.07874 4729.1753 5657412
2396.6792 857.60278 4748.6885 6710099
2379.502 841.57452 4659.9375 5130298
2412.7214 843.53369 4670.7856 5327677
2458.6729 849.84924 4705.7559 7235676
2459.7749 840.69464 4655.0654 7367773
2545.0447 860.19067 4763.0181 7301979
2515.2288 840.78827 4655.584 6183241
2567.8931 849.0791 4701.4917 5064502
2602.093 851.15228 4712.9712 4077605
2598.3057 840.88763 4656.1338 5195827
2626.675 841.13605 4657.5098 4603434
2708.7654 858.40363 4753.123 3419159
2722.3579 853.83215 4727.8101 3615515
2726.8391 846.52539 4687.3511 2760462
2801.0381 860.79102 4766.3423 2957843
2864.9333 871.6369 4826.3979 3615771
2872.4751 865.29266 4791.269 3813662
2863.4126 854.11993 4729.4033 5130035
2869.1938 847.5484 4693.0161 5261365
2959.9053 865.95038 4794.9106 5656635
2952.3188 855.51776 4737.1436 5458744
2970.1641 852.58179 4720.8867 5787710
3017.5801 858.10974 4751.4956 2103564
3014.5825 849.33173 4702.8906 4274215
3049.9785 851.43256 4714.5234 4471594
3058.0623 845.94006 4684.1104 3287575
3104.4377 851.04358 4712.3691 2497292
3142.9919 853.93109 4728.3579 3353369
3189.0349 858.78412 4755.23 4603692
3154.7773 842.11731 4662.9429 5261622
3204.2058 847.88464 4694.8774 5788226
3295.9209 864.646 4787.688 5130554
3381.3105 879.47595 4869.8042 5130554
3374.5388 870.28674 4818.9219 4999224
3441.8857 880.20636 4873.8486 5656643
3446.3267 874.00775 4839.5254 6511951
3472.3716 873.34491 4835.8555 4670003
3441.5728 858.51312 4753.729 4012071
3375.7871 835.26532 4625.0024 4077864
3478.2971 853.69794 4727.0669 5327929
3536.2424 860.98553 4767.4194 6051393
3515.1914 849.07642 4701.4771 6643787
3560.9756 853.3714 4725.2588 7498839
3643.5945 866.35773 4797.1665 4933171
3689.9666 870.59119 4820.6074 4275241
3751.3601 878.27637 4863.1616 4406573
3754.0742 872.211 4829.5767 5130296
3820.2563 880.87177 4877.5327 5130295
3741.9333 856.3327 4741.6562 4472366
3804.8831 864.24866 4785.4878 5524797
3905.0789 880.44482 4875.1689 4208425
3887.1362 869.9632 4817.1304 4997685
3947.2644 876.97968 4855.9814 3616289
3923.8027 865.4574 4792.1812 4669488
4031.9326 882.91687 4888.8569 2959128
4025.1665 875.14667 4845.832 4932918
4069.6936 878.55963 4864.73 6051143
4128.4639 884.97772 4900.2681 6841171
4080.3135 868.54675 4809.2871 6775121
4102.0112 867.10858 4801.3242 6577486
4170.6055 875.5354 4847.9844 4274476
4124.498 859.93213 4761.5869 4866613
4102.0234 849.43488 4703.4614 5919556
4140.0659 851.52637 4715.0425 5393213
4032.803 823.90393 4562.0923 5261370
4129.5552 838.05212 4640.4331 5722175
4144.313 835.48328 4626.2095 5656125
4219.6079 845.07208 4679.3042 5261365
4205.4688 836.74152 4633.1763 5261107
4216.1094 833.41736 4614.77 5392179
4307.9468 846.08313 4684.9023 5260593
4298.8623 838.89233 4645.0859 5589558
4303.5806 834.46954 4620.5962 5655352
4379.7393 843.86749 4672.6343 4208676
4362.3677 835.23969 4624.8604 5063986
4453.5571 847.37524 4692.0571 4734767
4529.4307 856.46429 4742.3848 4668720
0 0 0 0
0 0 0 0
0 0 0 0
0 0 0 0
0 0 0 0
0 0 0 0
-3925.7754 813.78528 4362.8979 9079413
-3935.4309 821.19525 4402.6245 8618348
-3914.2434 822.22522 4408.1465 8486760
-3861.8901 816.67841 4378.4087 8618347
-3735.533 795.30109 4263.7993 8355432
-3691.0645 791.18536 4241.7344 9670778
-3644.4177 786.54321 4216.8467 9539192
-3681.4641 800.02441 4289.1226 9078638
-3692.5125 808.00415 4331.9038 9275759
-3657.344 805.9115 4320.6846 10065273
-3628.9185 805.28571 4317.3296 8881257
-3669.3328 820.03552 4396.4067 8420706
-3662.0671 824.2644 4419.0791 6249796
-3610.6091 818.53571 4388.3662 8157536
-3598.2544 821.65308 4405.0791 8421221
-3555.4924 817.82178 4384.5386 8684393
-3577.2686 828.88824 4443.8687 8815977
-3524.9727 822.82831 4411.3799 9145201
-3487.7117 820.21362 4397.3618 8948078
-3454.5056 818.52032 4388.2837 8355685
-3464.439 827.10059 4434.2842 5855807
-3432.7205 825.79181 4427.2676 5592124
-3382.1379 819.89001 4395.627 7499863
-3324.9116 812.27356 4354.793 8223587
-3261.25 802.95337 4304.8257 8749673
-3256.9365 808.21375 4333.0273 7368019
-3251.4429 813.26227 4360.0942 8091998
-3222.7625 812.54596 4356.2534 8947051
-3201.3008 813.65271 4362.187 8552551
-3177.1169 814.07996 4364.4775 8749929
-3133.0164 809.36896 4339.2212 9210483
-3145.2776 819.2608 4392.2534 8552552
-3104.3721 815.35358 4371.3062 8092002
-3115.7117 825.21826 4424.1929 5065524
-3055.0662 816.02271 4374.8931 7302486
-3031.738 816.72266 4378.646 5986625
-2905.9355 789.5907 4233.1851 4735789
-2952.0493 809.10559 4337.8091 7104080
-2961.311 818.77405 4389.644 5130547
-2870.8293 800.79132 4293.2344 7235923
-2864.0269 806.03729 4321.3594 7367508
-2907.905 825.77002 4427.1509 7170384
-2906.7419 832.9549 4465.6709 4998445
-2879.9688 832.86566 4465.1924 4472356
-2828.9993 825.71252 4426.8428 6116923
-2776.3623 817.93408 4385.1406 4340769
-2758.0049 820.20319 4397.3057 5064492
-2728.2717 819.10028 4391.3926 5196078
-2695.6748 817.10797 4380.7114 5656886
-2653.4683 812.13574 4354.0542 5196078
-2708.5007 837.11963 4487.999 5657142
-2689.4761 839.48328 4500.6709 5591092
-2667.2422 840.88232 4508.1719 3222549
-2621.0879 834.69232 4474.9854 3551767
-2572.894 827.71954 4437.603 4012320
-2544.3738 826.99731 4433.731 5788988
-2515.0256 825.9881 4428.3203 6447175
-2506.7727 831.95886 4460.3306 6183234
-2476.4922 830.66815 4453.4111 3288088
-2456.801 832.94 4465.5908 5591096
-2425.4534 831.26624 4456.6177 6775372
-2382.9521 825.69098 4426.7271 7236695
-2356.1089 825.47736 4425.582 6644556
-2363.4143 837.35791 4489.2764 4407340
-2348.0139 841.37274 4510.8008 5065013
-2291.5447 830.59418 4453.0142 5064755
-2269.1201 832.04803 4460.8091 5064755
-2286.5173 848.3103 4547.9946 5393718
-2254.967 846.58411 4538.7402 6183235
-2198.4456 835.32806 4478.394 5854013
-2208.4297 849.37543 4553.7051 4801324
-2192.9934 853.87262 4577.8154 4538153
-2105.6658 830.13989 4450.5786 6117442
-2061.8389 823.1723 4413.2241 5130290
-1999.0284 808.34937 4333.7549 4998705
-2059.4539 843.62231 4522.8613 3617051
-2022.1589 839.26788 4499.5166 4472360
-2038.1705 857.21686 4595.7451 5196083
-1981.7906 844.79327 4529.1392 4603947
-1954.0081 844.38623 4526.957 5197113
-1927.3949 844.48022 4527.4609 6184007
-1920.3167 853.2569 4574.5146 5920835
-1911.8175 861.64447 4619.4824 4670770
-1876.51 858.01788 4600.0396 3947304
-1808.4608 839.09283 4498.5776 1775884
-1748.6538 823.48291 4414.8892 2039057
-1747.8082 835.58679 4479.7812 2762260
-1738.8359 844.11908 4525.5244 1971974
-1709.2706 842.76514 4518.2656 5393970
-1657.5118 830.25128 4451.1758 5788473
-1651.67 840.70447 4507.2183 4670507
-1626.688 841.59888 4512.0132 6709836
-1609.6405 846.6969 4539.3447 6776142
-1553.1462 830.86584 4454.4707 7170898
-1574.1997 856.68933 4592.9165 7499863
-1540.1228 852.89136 4572.5547 6644555
-1520.4607 857.08282 4595.0264 5921089
-1495.1227 858.16949 4600.8521 6052418
-1446.6167 845.75146 4534.2764 4209957
-1418.6947 845.12543 4530.9199 5393975
-1384.5062 840.67029 4507.0347 4078117
-1369.6215 847.99158 4546.2861 6118214
-1344.4761 849.12646 4552.3701 4670768
-1295.4254 834.90076 4476.103 5393718
-1256.525 826.75897 4432.4531 5065009
-1227.2434 824.73358 4421.5942 5854522
-1231.188 845.43561 4532.583 6907210
-1209.9529 849.38507 4553.7568 7630678
-1170.5662 840.48157 4506.0229 7565655
-1148.1299 843.61713 4522.8335 7631704
-1104.0244 830.59998 4453.0454 7433814
-1081.2841 833.41272 4468.1255 6907470
-1054.8481 833.44678 4468.3081 7039316
-1020.9219 827.41217 4435.9546 7828833
-1001.4623 833.09277 4466.4102 8815218
-966.47845 825.81708 4427.4033 6709574
-954.55322 838.38788 4494.7983 7367761
-918.26422 829.66724 4448.0449 8288864
-910.80664 847.25073 4542.314 8815466
-886.43134 849.68872 4555.3848 8420968
-831.20264 821.77631 4405.7397 10000513
-803.80145 820.45782 4398.6709 10132098
-782.68024 825.67578 4426.6455 8947048
-773.35254 844.12842 4525.5747 7433809
-747.65057 845.39209 4532.3496 9012328
-724.07874 849.24829 4553.0234 7236175
-691.18256 842.04352 4514.397 7959640
-637.81433 808.31384 4333.564 9275499
-617.83234 815.84009 4373.9146 7894098
-612.98029 844.87939 4529.6011 8880991
-576.99323 831.6994 4458.9399 8354646
-557.30865 841.88098 4513.5259 6380857
-526.52124 835.47162 4479.1636 6249274
-496.1853 829.13605 4445.1968 6381121
-465.9548 822.27606 4408.4189 7433555
-449.00143 839.4231 4500.3486 9407863
-429.39023 853.45312 4575.5669 7565660
-394.10754 836.12646 4482.6743 5854785
-374.60123 852.185 4568.7681 6841936
-347.38022 851.82825 4566.8555 9144430
-318.49634 846.98901 4540.9111 7302480
-289.48752 840.89355 4508.2319 5065260
-270.83746 866.70782 4646.6284 4143903
-241.72748 861.10406 4616.5854 2696206
-214.78456 862.7749 4625.543 4735787
-186.00238 856.46558 4591.7173 5262132
-159.11253 858.20038 4601.0181 5722936
-131.16527 853.77002 4577.2656 7105102
-103.36455 848.23193 4547.5747 7105113
-76.163589 845.44495 4532.6333 5921357
-50.760677 870.45471 4666.7163 1644300
-23.081678 869.58649 4662.0615 4407346
4.4917407 859.07672 4605.7163 5722944
31.236113 844.20972 4526.0107 5394235
58.114204 845.02386 4530.3755 7170908
84.882263 844.22906 4526.1143 6579030
112.71726 851.87952 4567.1304 6973531
136.39281 831.21832 4456.3608 6578773
165.45032 844.73907 4528.8486 6973786
194.11597 852.7641 4571.8726 7499874
224.96582 867.24323 4649.499 5920841
255.79419 878.48889 4709.7896 6973786
286.27341 886.44067 4752.4209 4078637
313.26672 883.14069 4734.729 4012843
335.44653 867.92902 4653.1753 5986633
364.04807 870.38153 4666.3242 5920842
393.01376 873.29718 4681.9551 3157280
415.01572 861.37463 4618.0356 3815466
442.40335 861.41388 4618.2461 4802362
470.99222 863.65131 4630.2417 7697764
498.52032 863.80426 4631.0615 9210747
535.0061 878.65277 4710.668 8224108
563.55774 879.64423 4715.9834 6907735
598.40906 889.91034 4771.0229 7368544
625.69104 888.50159 4763.4697 6709847
668.88782 908.83832 4872.5 5919813
671.52258 874.65973 4689.2603 5788485
720.1424 900.71295 4828.938 6906965
751.87366 904.45892 4849.021 7367773
758.69977 879.07251 4712.9185 6973784
787.08575 879.58228 4715.6514 6447699
822.75519 887.91748 4760.3384 6578773
850.5918 887.52704 4758.2451 5920844
878.3421 887.07458 4755.8193 5920843
909.36768 889.85516 4770.7271 7302496
940.97369 893.01892 4787.6885 6775893
963.89087 887.99286 4760.7427 6907480
1006.1564 900.5705 4828.1743 7236444
1030.8123 897.12671 4809.7114 7302493
1075.3251 910.68506 4882.4009 7894887
1064.4714 877.87189 4706.4819 7499875
1119.8688 899.97687 4824.9917 9802629
1157.2214 906.84045 4861.7891 8223600
1166.2393 891.70593 4780.6489 7763299
1212.9642 905.43622 4854.2603 6381647
1231.7489 898.15704 4815.2354 9407870
1263.8173 900.67438 4828.7314 7236703
1305.7511 909.95532 4878.4883 6841946
1282.134 874.1424 4686.4868 6249809
1339.5986 893.95648 4792.7148 5460292
1336.714 873.51099 4683.1016 5855303
1347.4932 862.64453 4624.8438 5855047
1415.4556 888.08942 4761.2603 7302234
1431.8232 880.8006 4722.1831 8091750
1464.8457 883.84027 4738.4795 5525823
1493.7389 884.32092 4741.0566 6512719
1541.7069 895.86804 4802.9634 6775635
1564.6451 892.7157 4786.0625 6183755
1556.2437 872.11285 4675.606 3288865
1586.0845 873.2868 4681.8999 7696996
1631.6296 882.91846 4733.5376 7696996
1651.4497 878.53925 4710.0596 6447186
1658.7262 867.74353 4652.1812 6052430
1661.1155 854.78607 4582.7129 7236446
1759.0449 890.61816 4774.8174 8223595
1759.144 876.56757 4699.4888 6710870
1769.9297 868.1969 4654.6118 7369056
1816.7853 877.50507 4704.5146 7631973
1818.9812 865.28711 4639.0117 7566437
1840.6396 862.55347 4624.356 7368802
1863.0677 860.25549 4612.0361 8684919
1929.5013 878.04944 4707.4331 7894628
1936.4452 868.65015 4657.0415 9013110
1958.276 866.09918 4643.3652 6776150
1977.5094 862.48596 4623.9941 7565668
1993.1945 857.44519 4596.9692 5789257
2008.1184 852.21735 4568.9414 6842203
2068.821 866.29791 4644.4307 8487028
2095.8108 866.07727 4643.2476 7960427
2095.9021 854.89069 4583.2739 7697766
2112.4631 850.62225 4560.3896 6907991
2168.3176 862.08405 4621.8389 6644819
2223.1611 872.86285 4679.627 6512977
2230.407 864.91852 4637.0352 2960158
2256.2715 864.2995 4633.7168 6841685
2284.0779 864.43054 4634.4189 7696994
2317.1514 866.52802 4645.6646 7762531
2337.9443 864.03784 4632.314 5656898
2357.811 861.26697 4617.4585 6182985
2370.6777 856.03204 4589.3931 7235673
2418.7356 863.47906 4629.3184 7630689
2446.2034 863.49091 4629.3818 7301721
2492.7131 870.1496 4665.0806 3748900
2507.2471 865.62262 4640.8101 4472367
2520.5178 860.76239 4614.7534 2169872
2587.1067 874.01941 4685.8276 2629650
2599.0815 868.74017 4657.5244 1774344
2630.9827 870.16217 4665.1479 1445380
2624.8206 859.09662 4605.8232 2694929
2667.6118 864.11633 4632.7349 3549466
2724.2368 873.46918 4682.8779 3352856
2703.125 857.96008 4599.73 2826513
2808.9194 882.63818 4732.0347 3023634
2825.5635 879.09167 4713.021 2958353
2847.5146 877.24963 4703.1455 4208933
2816.0325 859.1413 4606.0625 5722173
2893.2471 874.22461 4686.9277 5327414
2916.54 872.883 4679.7349 5459258
2947.6626 873.88782 4685.1221 6116932
3026.4954 888.88654 4765.5337 6775376
3013.312 876.8324 4700.9087 6906450
3012.3958 868.53601 4656.4297 4998452
3056.3225 873.20215 4681.4458 3814177
3062.7578 867.16919 4649.1016 4142628
3083.614 865.29028 4639.0288 4735534
3106.0547 863.88538 4631.4966 4209191
3138.0046 865.12683 4638.1523 4472621
3208.6628 876.9256 4701.4082 6709330
3263.8416 884.32703 4741.0894 3551011
3258.1365 875.2467 4692.4072 3814439
3267.6096 870.36292 4666.2241 4538163
3354.4768 886.00287 4750.0737 3419682
3374.5291 883.88202 4738.7031 3485474
3313.627 860.76672 4614.7769 4011305
3313.7859 853.76178 4577.2212 2629651
3349.4988 855.95624 4588.9863 3616800
3385.7537 858.25281 4601.2988 4866866
3491.2148 877.91541 4706.7148 4538155
3551.0703 885.88916 4749.4639 6775631
3634.0525 899.46149 4822.2285 7368027
3623.605 889.87775 4770.8481 7959908
3580.9409 872.5921 4678.1753 7499099
3604.5039 871.58594 4672.7812 5393979
3633.6909 871.9447 4674.7046 4143655
3760.5657 895.56195 4801.3223 5854273
3695.4248 873.44019 4682.7222 4471850
3721.2451 872.9873 4680.2944 5129780
3759.9048 875.53094 4693.9312 4405800
3777.6902 873.21204 4681.499 4208678
3836.0249 880.23163 4719.1328 3879459
3835.7493 873.79803 4684.6406 4142631
3814.3613 862.68182 4625.0439 3879716
3951.1787 887.24976 4756.7588 3287580
3971.4419 885.48254 4747.2842 4143144
4033.9412 893.091 4788.0747 5919300
4003.5256 880.16602 4718.7808 5392958
4054.0081 885.08215 4745.1377 5787716
4015.531 870.64246 4667.7231 6248267
4030.4697 867.90271 4653.0347 4735285
4021.5808 860.10419 4611.2246 5195322
4042.3479 858.71063 4603.7534 4997942
3955.645 834.65918 4474.8076 4668974
3990.9802 836.50702 4484.7148 5392180
4034.196 839.97144 4503.2881 4931369
4106.4556 849.39783 4553.8252 4667426
4117.1709 846.05408 4535.8984 5259305
4143.707 845.9837 4535.5215 5062183
4147.7129 841.34412 4510.6475 4997160
4233.7183 853.29065 4574.6953 5194795
4250.1963 851.16138 4563.2798 5523764
4194.7363 834.74335 4475.2593 6445637
4260.291 842.46204 4516.6411 5261108
4314.5361 847.86206 4545.5913 5195315
4397.5522 858.81366 4604.3057 4998193
0 0 0 0
0 0 0 0
0 0 0 0
0 0 0 0
0 0 0 0
0 0 0 0
-3798.1211 812.3382 4221.0298 6973787
-3747.978 806.9281 4192.918 6710099
-3751.8115 813.14435 4225.2188 7302236
-3707.8916 809.02484 4203.8135 7170648
-3676.6375 807.63196 4196.5752 6381386
-3616.0491 799.73218 4155.5273 8092002
-3581.46 797.51373 4144 8354660
-3547.1228 795.32117 4132.6069 7960414
-3536.5747 798.46918 4148.9644 8552293
-3543.0439 805.53009 4185.6538 7960157
-3536.6714 809.75037 4207.583 7630936
-3552.6553 819.18555 4256.6099 7368020
-3531.0471 820.0257 4260.9751 7170384
-3572.0977 835.53412 4341.5591 7960414
-3537.0938 833.34894 4330.2046 9078895
-3504.981 831.81793 4322.2495 8618342
-3458.4258 826.81165 4296.2358 8881514
-3438.3381 828.10559 4302.9595 8684136
-3407.8059 826.88464 4296.6152 8815466
-3376.238 825.39215 4288.8599 9342579
-3392.2141 835.5882 4341.8403 9671544
-3377.0681 838.21545 4355.4917 9013357
-3312.45 828.50903 4305.0562 6710602
-3252.8245 819.91058 4260.377 9539446
-3200.2651 812.97253 4224.3262 9473653
-3165.4158 810.45959 4211.2681 8486758
-3146.958 812.13678 4219.9834 8617830
-3122.8606 812.37384 4221.2148 8881259
-3082.377 808.3175 4200.1377 8618343
-3101.0652 819.83862 4260.0034 9210477
-3112.7734 829.68848 4311.1846 9605494
-3063.3853 823.28174 4277.894 9342321
-3085.1953 836.06219 4344.3032 9737080
-3026.1042 826.94971 4296.9536 9802873
-2960.0371 815.76001 4238.8101 8750184
-2905.1648 807.49042 4195.8403 8815723
-2841.6326 796.65021 4139.5127 7960158
-2828.8958 799.98566 4156.8442 7696728
-2813.9128 802.73901 4171.1509 7499348
-2820.6433 811.79028 4218.1826 6644040
-2807.2788 815.16833 4235.7354 8354658
-2787.2727 816.66138 4243.4937 4999215
-2777.9985 821.35474 4267.8809 7894107
-2775.0986 828.03613 4302.5986 8091997
-2788.7224 839.81757 4363.8169 7236689
-2725.6987 828.52136 4305.1201 6578501
-2698.8374 828.10767 4302.9702 5788726
-2620.3813 811.7038 4217.7334 6643779
-2591.8301 810.59167 4211.9546 6446657
-2547.209 804.38318 4179.6943 5920313
-2562.2957 817.09302 4245.7368 6380863
-2604.7861 838.88049 4358.9473 6446657
-2609.4128 848.78809 4410.4287 6183487
-2587.6204 850.21558 4417.8462 4867627
-2566.8547 852.01318 4427.187 4801836
-2496.0286 837.05963 4349.4863 5393973
-2485.7126 842.2984 4376.7075 5459766
-2452.9263 839.95312 4364.521 5920830
-2434.5413 842.54175 4377.9722 6315590
-2393.8132 837.37048 4351.1016 6249800
-2417.7888 854.9668 4442.5347 6315592
-2342.0652 837.30725 4350.7729 5855043
-2324.1943 840.16766 4365.6357 6381130
-2311.533 844.9967 4390.7285 6513228
-2268.1567 838.58002 4357.3862 5986628
-2261.8782 845.88904 4395.3652 4999733
-2221.3459 840.40918 4366.8906 5985599
-2198.6841 841.64069 4373.29 6051649
-2181.5176 845.03033 4390.9028 6249541
-2159.9768 846.78687 4400.0303 5920833
-2141.0754 849.63379 4414.8232 6710348
-2109.4697 847.44727 4403.4619 6118211
-2073.5059 843.43341 4382.605 6578507
-2020.1455 832.15143 4323.9824 6512716
-1967.46 820.86127 4265.3169 7960673
-1915.8231 809.72028 4207.4268 5986369
-1952.4869 836.09796 4344.4888 2893842
-1943.825 843.51154 4383.0112 3156758
-1918.4169 843.76074 4384.3062 6117442
-1885.9521 840.87061 4369.2881 5460284
-1840.9741 832.24292 4324.458 6315591
-1823.5876 836.02106 4344.0898 5789504
-1832.9978 852.36829 4429.0322 6710606
-1796.3578 847.46545 4403.5562 4737330
-1787.889 855.90417 4447.4053 8290153
-1800.7212 874.94519 4546.3452 6053191
-1736.4979 856.55597 4450.792 2828565
-1725.8407 864.4292 4491.7026 5394491
-1695.0059 862.28448 4480.5581 6052421
-1636.7216 845.88507 4395.3442 6249799
-1606.2153 843.54358 4383.1777 7170902
-1570.1591 838.16248 4355.2168 5460284
-1545.4696 838.77057 4358.3765 5394491
-1522.3595 840.27112 4366.1733 6644558
-1474.4318 827.88849 4301.8315 6052421
-1472.3978 841.29272 4371.4819 6315336
-1454.3296 845.85144 4395.1699 5657660
-1421.5398 841.85815 4374.4199 6315590
-1391.6991 839.49542 4362.1426 4670766
-1358.5677 835.02069 4338.8911 3354907
-1338.1348 838.32867 4356.0801 3683103
-1307.7664 835.41992 4340.9658 4801584
-1282.5507 835.75208 4342.6919 4011811
-1268.4739 843.50494 4382.9771 4472619
-1230.0861 835.07788 4339.1885 4406824
-1203.1675 834.24329 4334.8521 6381128
-1174.9224 832.43237 4325.4424 4473128
-1157.6097 838.45929 4356.7588 5986363
-1135.2983 841.05792 4370.2617 5591348
-1106.4053 838.78809 4358.4673 5722678
-1083.2456 840.86029 4369.2349 5262385
-1061.4385 844.10962 4386.1187 8354404
-1027.8556 837.92218 4353.9683 4669999
-1012.9398 847.02588 4401.272 3025429
-986.61322 846.81671 4400.1851 2893584
-956.55121 843.30292 4381.9272 2695949
-924.12964 837.45483 4351.5396 2433032
-903.79828 842.54175 4377.9722 4998957
-879.88013 844.48694 4388.0796 8025441
-853.73694 844.34991 4387.3677 6512714
-828.01178 844.63086 4388.8271 5657146
-789.67419 831.64709 4321.3618 6117441
-757.8855 824.92108 4286.4126 8749162
-749.40326 843.97638 4385.4263 7630681
-730.78656 852.57727 4430.1182 8157279
-700.19415 847.32703 4402.8369 8881001
-666.03333 837.18494 4350.1372 6973003
-639.53223 836.24176 4345.2363 7433553
-604.49426 823.58856 4279.4883 8552032
-589.17065 837.86304 4353.6606 8157273
-566.08759 841.90479 4374.6621 8288601
-540.80365 842.90417 4379.8555 6972737
-510.44016 835.68829 4342.3604 4867616
-487.00616 839.65332 4362.9634 6775357
-471.02252 857.62842 4456.3647 5789236
-441.38361 851.39899 4423.9951 9342063
-415.54147 852.1687 4427.9951 9737079
-391.69562 857.41211 4455.2407 7039566
-366.06497 859.22437 4464.6572 7565658
-333.89603 844.77661 4389.5845 6446406
-305.97409 839.54053 4362.377 7959891
-284.07416 851.38629 4423.9292 8420188
-257.90161 851.53351 4424.6943 6973249
-232.82103 855.72748 4446.4873 2894095
-205.93896 853.52582 4435.0469 6973255
-180.34207 856.78552 4451.9849 3880990
-153.34286 853.3587 4434.1782 6841674
-126.03855 846.46521 4398.3589 7894623
-100.67352 852.39709 4429.1816 5789505
-74.089706 848.55408 4409.2129 9145201
-48.117592 851.34637 4423.7222 9079670
-22.410149 871.11157 4526.4253 5921352
4.3524685 858.88812 4462.9102 9474432
30.268175 844.04053 4385.7598 8092010
56.241081 843.7699 4384.3535 5920840
83.345535 855.28204 4444.1724 6447184
109.08044 850.58612 4419.772 7105370
137.11905 862.19427 4480.0894 7565665
162.22121 854.56738 4440.459 9539456
189.57738 859.28613 4464.978 8947318
219.15567 871.68744 4529.4175 6973530
248.28133 879.7785 4571.4595 6513233
275.0737 878.823 4566.4946 5657926
303.48889 882.75897 4586.9468 4999999
328.26294 876.32739 4553.5273 5526599
356.56256 879.56995 4570.376 3881777
384.49231 881.50653 4580.439 6842203
411.04288 880.23444 4573.8286 6710616
436.82239 877.57043 4559.9863 3156768
466.91144 883.37048 4590.124 5591619
498.60129 891.39368 4631.814 6511951
521.10181 883.0083 4588.2422 6182729
548.14618 882.77234 4587.0161 5130039
576.15375 884.03656 4593.585 3288860
596.0354 873.28107 4537.6978 5920842
619.86176 868.98419 4515.3706 6513750
647.04352 869.55225 4518.3228 7039322
667.68512 861.63519 4477.1846 4604719
713.1662 885.15308 4599.3867 6314565
733.90393 877.35956 4558.8906 5788220
763.28558 880.08612 4573.0581 5261622
781.71472 870.43024 4522.8848 5919807
822.02173 884.96753 4598.4229 9078392
860.65234 896.82532 4660.0376 4276018
881.81616 890.31055 4626.186 3354658
920.11823 900.97034 4681.5757 3025694
936.77325 890.42993 4626.8062 5196860
968.11914 894.05603 4645.6479 5854789
995.57837 893.99152 4645.3125 5986377
1026.2673 896.75256 4659.6592 6446929
1062.3059 903.92096 4696.9072 7762788
1074.7699 891.17572 4630.6812 6381390
1102.9569 891.77777 4633.8096 6249803
1143.9146 902.42523 4689.1353 7302747
1160.4624 893.76758 4644.1489 6578771
1211.4263 911.40363 4735.7886 7368029
1233.224 906.79517 4711.8423 7433823
1263.2515 908.30804 4719.7031 8092009
1261.2401 887.21765 4610.1147 9144698
1293.875 890.87689 4629.1284 8026985
1296.7632 874.32764 4543.1362 7039833
1348.2987 890.58447 4627.6089 6052938
1388.9158 899.12488 4671.9863 8158571
1418.7927 900.51477 4679.2085 9079161
1441.6726 897.49536 4663.519 9276799
1480.6434 904.4184 4699.4922 8486770
1474.4247 883.99237 4593.3555 8223340
1476.7069 869.3111 4517.0698 6973271
1519.938 878.82953 4566.5288 4867123
1552.2014 881.78424 4581.8818 4867377
1597.365 891.8399 4634.1323 5591352
1565.0072 859.00537 4463.519 6512968
1581.3595 853.55396 4435.1929 6250056
1617.6177 858.84967 4462.7104 7303003
1626.0248 849.42572 4413.7422 6973784
1694.9918 871.43561 4528.1084 5065532
1693.4164 857.05695 4453.395 7302493
1761.6213 877.89435 4561.6689 7368285
1792.2328 879.65051 4570.7944 4934201
1810.9645 875.61029 4549.8013 7631459
1845.7776 879.35022 4569.2344 6907737
1880.8162 883.08783 4588.6553 7302239
1874.551 867.60217 4508.1895 8618355
1914.6832 873.72412 4540 7433825
1936.7274 871.53668 4528.6338 7499875
1967.2131 873.15594 4537.0479 6578773
1970.4929 862.81879 4483.3345 6512981
2001.7606 864.84869 4493.8823 6447187
2022.0525 862.14557 4479.8364 9802887
2012.4331 846.92456 4400.7456 8947320
2041.3859 848.11816 4406.9478 9013625
2065.3337 847.22864 4402.3257 7566433
