# .PCD v0.7 - Point Cloud Data file format
VERSION 0.7
FIELDS x y z rgb
SIZE 4 4 4 4
TYPE F F F U
COUNT 1 1 1 1
WIDTH 1276
HEIGHT 1
VIEWPOINT 0 0 0 1 0 0 0
POINTS 1276
DATA ascii
-2288.9478 760.19507 3423.0486 6775621
-2273.9834 761.97821 3431.0779 5854775
-2213.4067 748.37164 3369.8093 6906694
-2213.1484 755.09711 3400.093 6643778
-2198.7681 757.08362 3409.0381 8946276
-2152.0261 747.86084 3367.5093 4933159
-2171.2283 761.59637 3429.3584 5525296
-2162.4495 765.68402 3447.7644 4801061
-2119.0852 757.48669 3410.8533 6116664
-2122.8152 766.12799 3449.7634 3681810
-2112.8386 769.94244 3466.9395 4537375
-2088.5002 768.54681 3460.655 5327403
-2096.9683 779.31573 3509.146 5262123
-2069.8494 776.94232 3498.459 5393455
-2042.5433 774.44989 3487.2358 6183228
-1998.1528 765.36261 3446.3171 6511936
-1996.276 772.5401 3478.6362 6051642
-1982.408 775.17834 3490.5161 5656629
-1969.0364 778.06854 3503.53 5262383
-1965.7333 785.0412 3534.927 4274978
-1958.7539 790.68011 3560.3181 2761739
-1929.5468 787.37158 3545.4204 4077598
-1917.137 790.91998 3561.3984 4669735
-1856.1558 774.28613 3486.4985 5064494
-1886.6715 795.87482 3583.7092 7432790
-1864.785 795.59808 3582.4631 8617322
-1855.4106 800.71472 3605.5027 6972493
-1810.7467 790.54358 3559.7034 4998963
-1760.8595 777.8255 3502.4355 4604200
-1768.9374 790.71423 3560.4722 4537894
-1746.045 789.9035 3556.821 5722423
-1745.349 799.23706 3598.8491 6051644
-1715.7706 795.41211 3581.6255 4077855
-1707.2145 801.35895 3608.4036 5919801
-1728.1262 821.46436 3698.9353 5459251
-1691.3646 814.31909 3666.7612 6841160
-1682.0306 820.36487 3693.9844 6380865
-1640.8121 810.81433 3650.9797 6644036
-1607.9388 805.18744 3625.6426 6643778
-1576.3312 800.05048 3602.5115 6511934
-1545.4127 795.12695 3580.3418 6972485
-1521.2009 793.56525 3573.3093 6314811
-1513.5411 800.71588 3605.5076 6248763
-1488.702 798.8526 3597.1179 5919542
-1474.031 802.47095 3613.4104 4208925
-1421.9235 785.51477 3537.0593 4932649
-1495.9783 838.79004 3776.95 5130028
-1451.4199 826.16748 3720.1128 4406819
-1431.4166 827.34827 3725.4297 4143393
-1366.1262 801.98035 3611.2017 3288085
-1358.2587 810.05139 3647.5444 3485462
-1319.632 799.74249 3601.1245 5788216
-1291.7192 795.69434 3582.8965 6577731
-1279.2087 801.15717 3607.4949 7696726
-1261.8021 803.68713 3618.887 6315075
-1240.3654 803.69324 3618.9146 7170127
-1228.6824 810.13086 3647.9021 7301460
-1200.2719 805.5722 3627.375 6841164
-1181.5344 807.45776 3635.8655 7301715
-1150.7108 801.00031 3606.7886 6117186
-1147.7706 814.07532 3665.6633 7301971
-1122.514 811.521 3654.1619 6249285
-1126.3684 830.32599 3738.8379 2894110
-1103.3037 829.64368 3735.7654 4078117
-1076.8156 826.30615 3720.7371 5328180
-1038.8352 813.82611 3664.5415 5591094
-1012.9377 810.48114 3649.4795 4867115
-979.06738 800.47168 3604.4082 4406565
-967.53894 808.68945 3641.4119 4011807
-955.43903 816.7937 3677.9038 6380611
-942.09912 824.19153 3711.2151 5722938
-911.27826 816.2843 3675.6101 5525305
-891.505 818.12817 3683.9128 4735790
-864.64496 813.39777 3662.6125 5591614
-863.13306 832.88361 3750.3545 6644302
-844.92883 836.86639 3768.2883 6907730
-826.95349 841.29828 3788.2446 6184008
-799.00909 835.55261 3762.3726 6776146
-764.18213 822.073 3701.6758 6250319
-724.64099 802.5755 3613.8813 6118477
-714.25952 815.16962 3670.5911 7302751
-682.40247 803.27551 3617.0337 7105114
-674.82391 820.11566 3692.8623 7499870
-654.96594 822.66138 3704.3252 7828578
-626.06494 813.63123 3663.6638 7368028
-615.25635 828.30988 3729.7595 6117961
-591.82483 826.45514 3721.408 6907477
-572.70892 830.71667 3740.5969 6447439
-555.19128 837.73303 3772.1907 6381135
-528.1864 830.42212 3739.2705 7302494
-490.26776 804.56061 3622.8201 6381392
-477.84683 820.09015 3692.7473 3486762
-454.47772 817.41907 3680.72 7499616
-439.54468 830.41675 3739.2463 8552815
-415.47388 826.61414 3722.124 6315339
-398.21591 836.69971 3767.5381 6446926
-375.30161 835.39301 3761.6541 6775890
-355.66312 841.6734 3789.9336 7368541
-331.78842 838.09973 3773.8418 6118730
-307.85901 833.86127 3754.7566 5526337
-288.27124 841.63831 3789.7756 7302238
-266.48633 843.77264 3799.3865 4538928
-241.65063 835.74988 3763.261 4736312
-222.19571 846.59723 3812.105 6315342
-199.42618 845.84149 3808.7019 3748643
-177.30447 847.99127 3818.3821 5065011
-152.5909 836.5603 3766.9099 6117185
-132.46741 850.68854 3830.5276 5985856
-107.98909 836.91077 3768.4883 5985084
-84.644325 827.02386 3723.969 5458740
-62.510445 826.16681 3720.1099 6577478
-41.486717 847.04218 3814.1084 8354147
-18.97258 851.03802 3832.1013 9933696
3.694037 841.19318 3787.7712 8684147
25.91165 833.80725 3754.5137 7828327
48.714874 843.38422 3797.6372 8224111
71.033264 841.16718 3787.6543 7960168
93.726006 843.38348 3797.6338 8552045
117.98099 856.07715 3854.7917 8092005
139.26237 846.57611 3812.01 4932913
159.52783 834.41351 3757.2434 6973267
189.53194 869.9295 3917.1665 9012594
211.29413 863.9931 3890.436 7236182
234.12079 863.14917 3886.636 7630942
252.33781 846.98401 3813.8467 6578767
275.49887 848.70728 3821.6062 7696993
304.69986 867.36212 3905.6062 8749681
319.28549 844.71576 3803.6331 8289641
343.44995 848.72723 3821.6963 8881779
364.36356 844.70605 3803.5891 10131592
383.73862 837.79431 3772.4666 9802883
411.86325 849.69434 3826.0508 10065799
449.19751 878.36108 3955.1328 6907996
467.63184 869.0603 3913.2529 9079164
477.82465 846.04584 3809.6221 7763045
505.40042 854.49811 3847.6814 8683889
537.11432 868.91498 3912.5986 9210233
566.19958 878.06213 3953.7869 4933948
579.65076 863.20056 3886.8672 4801843
589.98828 845.01532 3804.9817 6973012
617.65143 852.07031 3836.7493 7631454
652.41748 868.07495 3908.8162 8157538
681.71979 875.96161 3944.3286 6381124
701.13507 871.04242 3922.1782 5262387
720.04688 865.83356 3898.7231 6775633
758.87543 884.15314 3981.2139 6052681
782.1048 883.74176 3979.3611 6051910
798.74347 876.12518 3945.0647 6643535
809.36737 862.53192 3883.8564 6512713
835.44043 865.6991 3898.1177 7104076
867.90057 875.13611 3940.6116 6248510
871.01251 855.26129 3851.1177 5853497
909.2572 870.01794 3917.5647 5787963
909.05267 848.16565 3819.1675 6051137
961.35913 875.17889 3940.804 5854272
982.72522 873.41205 3932.8484 4341038
1009.3381 876.28223 3945.7722 5788738
1034.7008 877.96161 3953.3345 8354923
1052.2711 873.10114 3931.448 5657411
1055.7489 857.01147 3858.9988 6710098
1102.8412 876.25769 3945.6616 10197384
1145.0594 890.91254 4011.6504 5920837
1166.0968 888.82672 4002.2583 5722432
1180.2271 881.66425 3970.0066 4144170
1218.0315 892.1214 4017.0938 2762266
1228.2693 882.37396 3973.2026 5328701
1255.7538 885.15015 3985.7031 7499361
1261.7919 872.98584 3930.929 7894377
1282.7664 871.40912 3923.8291 6775639
1315.3 877.60114 3951.7109 6446928
1322.9692 867.27649 3905.2205 5394238
1338.088 862.10651 3881.9409 7499098
1368.624 866.87646 3903.4194 6841169
1403.6964 874.31342 3936.9067 6643534
1445.9163 885.88617 3989.0176 6446668
1472.2843 887.53088 3996.4233 6841169
1499.1294 889.40656 4004.8691 7499356
1526.2316 891.37384 4013.7278 7894114
1550.7274 891.78192 4015.5652 6249290
1559.3566 883.19104 3976.8816 6710097
1585.2429 884.48474 3982.707 6446671
1604.4609 882.07434 3971.8533 7038293
1655.8873 897.18469 4039.8928 5393471
1686.4637 900.72845 4055.8501 3814184
1695.0968 892.61755 4019.3276 1313799
1703.4983 884.61115 3983.2761 721920
1727.3125 884.71796 3983.7571 2235670
1741.1807 879.79626 3961.5952 1840397
1761.2415 878.09296 3953.9255 2827295
1804.6348 887.91425 3998.1497 1379850
1809.0364 878.54517 3955.9619 2169359
1816.9463 871.09772 3922.427 3617059
1828.8977 865.75159 3898.3542 5854017
1914.3711 894.90808 4029.6416 6511433
1940.1963 895.80585 4033.6843 5985600
1998.37 911.43573 4104.0635 4406568
1986.1489 894.96942 4029.918 4208933
1997.7379 889.49591 4005.2715 5985088
2047.9752 901.15704 4057.7798 4340262
2085.7964 907.14752 4084.7539 4340775
2130.3367 915.88928 4124.1172 4866865
2109.5896 896.68237 4037.6311 5985348
2119.7732 890.90588 4011.6204 4932917
2146.1821 892.00104 4016.5518 4932658
2161.5547 888.53564 4000.9475 5195572
2194.9795 892.4856 4018.7336 5129524
2225.7754 895.29321 4031.3757 4208934
2257.3479 898.35028 4045.1416 4668973
2318.0913 912.8302 4110.3423 3945762
2341.0513 912.28503 4107.8877 4669227
2356.1614 908.72369 4091.8513 6116930
2351.2947 897.6087 4041.802 2760978
2402.6533 907.96552 4088.4373 1642500
2397.7449 897.06421 4039.3506 2760466
2401.5593 889.60986 4005.7847 2365448
2405.6387 882.39862 3973.3135 4996393
2424.4089 880.66364 3965.5007 5391663
2469.0305 888.26215 3999.7161 4733989
2514.7075 896.09235 4034.9741 4667940
2518.8625 889.11841 4003.5715 5325873
2597.9565 908.48004 4090.7544 4997678
2616.228 906.41138 4081.4392 4734508
2651.271 910.13776 4098.2188 2695441
2685.8494 913.63855 4113.9824 4011299
2728.3357 919.74225 4141.4663 4340263
2653.9556 886.69177 3992.645 3945505
2716.9194 899.70685 4051.25 5195573
2757.7361 905.22406 4076.0933 4932141
2775.4814 903.13812 4066.7004 4997933
2774.6208 895.08588 4030.4421 4536868
2814.3049 900.13904 4053.1958 4602658
2874.2622 911.53607 4104.5151 4405279
2955.8516 929.54449 4185.6045 6444862
2958.7175 922.7027 4154.7969 5787188
2939.1423 909.03314 4093.2446 5721396
2963.2515 908.98761 4093.0398 5523761
2947.7747 896.89838 4038.6038 5458224
2976.5979 898.37408 4045.2488 5458486
2914.0847 872.47998 3928.6514 6248259
3060.3008 908.99487 4093.0725 5656379
3171.1619 934.5166 4207.9932 6445897
3189.9153 932.70856 4199.8516 5656380
3206.9529 930.43048 4189.5938 4932657
3240.8115 933.03021 4201.3003 5064243
3305.7102 944.45874 4252.7612 5129780
3359.2815 952.50238 4288.9805 5260595
3334.9968 938.51556 4226 4537385
3343.6809 933.94592 4205.4233 6050881
3436.1121 952.66278 4289.7026 6577484
3408.9446 938.18958 4224.5317 7564637
3516.0305 960.60626 4325.4712 4932662
3565.6011 967.09875 4354.7056 4867895
3587.7117 966.10333 4350.2236 6577226
3664.0588 979.62286 4411.1001 4537127
3654.2554 970.08081 4368.1338 5194800
3604.5747 950.16144 4278.4395 4734508
3554.0815 930.30762 4189.0405 4865581
3567.04 927.2229 4175.1509 4207650
3616.8494 933.69385 4204.2886 3615256
3622.3259 928.71014 4181.8472 4733736
3625.0134 923.08374 4156.5127 4141598
3627.7385 917.54279 4131.5625 5128493
3667.8818 921.47681 4149.2769 4470308
3700.0562 923.36957 4157.7998 3878427
3739.1917 926.9632 4173.981 3944221
3788.0017 932.89197 4200.6777 3746842
3791.0574 927.54883 4176.6182 3746842
3809.5344 926.02362 4169.7505 4405031
3858.8245 931.9599 4196.4805 4077093
3861.1428 926.54834 4172.1133 3681825
3897.8079 929.39545 4184.9331 5458748
3893.0698 922.39667 4153.4189 5787714
3935.5486 926.60278 4172.3584 4998196
3962.1958 927.05225 4174.3823 5129524
3961.647 921.17242 4147.9062 3944480
0 0 0 0
0 0 0 0
0 0 0 0
0 0 0 0
0 0 0 0
0 0 0 0
0 0 0 0
-3064.0496 781.56354 3427.7971 9999479
-3020.1692 775.51221 3401.2571 7236172
-2935.1108 758.73486 3327.6748 9473391
-2940.2612 765.20758 3356.063 5722933
-2926.2932 766.75891 3362.8669 4801574
-2892.0557 762.98413 3346.3113 5196845
-2856.2124 758.73053 3327.6558 5525552
-2866.8066 766.83942 3363.2197 6577983
-2825.9192 761.19458 3338.4626 7960149
-2819.6328 764.85608 3354.5212 7696976
-2783.6914 760.4682 3335.2769 9210216
-2754.7432 757.94165 3324.1958 7894870
-2753.2383 762.98389 3346.3103 8289371
-2704.8718 755.01874 3311.3765 9341803
-2663.9539 749.03143 3285.1172 9341802
-2631.7798 745.43256 3269.3333 10591868
-2667.2795 761.09064 3338.0068 8157271
-2655.3035 763.33453 3347.8481 11249796
-2608.6555 755.57001 3313.7942 11249796
-2589.8013 755.79877 3314.7976 7894356
-2566.313 754.66827 3309.8396 8091735
-2567.2976 760.77264 3336.6121 9407597
-2540.9939 758.82251 3328.0591 9210218
-2526.3313 760.34546 3334.7385 9276009
-2499.3484 758.15515 3325.1323 9670510
-2498.7424 763.99487 3350.7441 8947044
-2494.5425 768.8205 3371.9084 9473128
-2484.0605 771.77216 3384.854 9341286
-2454.6213 768.83429 3371.969 6249017
-2438.9438 770.19385 3377.9319 6841155
-2376.5442 756.69952 3318.748 8025687
-2390.676 767.55121 3366.3418 4736296
-2330.0784 754.39093 3308.623 8158046
-2317.6487 756.73456 3318.9019 9933687
-2303.3003 758.48651 3326.5857 9539185
-2278.0767 756.65656 3318.5596 8815719
-2256.5332 756.02771 3315.8018 7959896
-2248.2703 759.8764 3332.6814 9473390
-2218.0955 756.32178 3317.0916 8354909
-2197.8625 756.12396 3316.2239 7038790
-2210.3206 767.27051 3365.1106 7104584
-2176.7942 762.51221 3344.2415 7630930
-2168.5471 766.60291 3362.1826 8025685
-2176.5896 776.58136 3405.9463 6644285
-2133.9812 768.50586 3370.5286 5195812
-2120.3552 770.81372 3380.6504 4275222
-2110.8 774.65961 3397.5178 4735520
-2100.2224 778.20068 3413.0483 5130538
-2058.74 770.24811 3378.1697 7236686
-2058.7234 777.80548 3411.3149 6776135
-2051.219 782.6557 3432.5874 7236945
-2031.0793 782.73376 3432.9297 7039052
-2019.8503 786.2821 3448.4922 4406819
-1981.5911 779.27325 3417.7524 6775368
-1968.9858 782.31238 3431.0813 6972490
-1949.7584 782.75629 3433.0286 6511938
-1931.6641 783.66931 3437.0327 3616795
-1924.3031 789.00269 3460.4241 1314820
-1923.0771 796.99365 3495.4707 6182976
-1884.1332 789.35651 3461.9758 6643782
-1859.2841 787.5213 3453.927 2893325
-1852.3276 793.30835 3479.3079 5459253
-1861.6689 806.28412 3536.2173 4274722
-1816.4618 795.66162 3489.6289 6577478
-1786.9851 791.76422 3472.5354 5985597
-1776.5359 796.30469 3492.4492 6972492
-1748.2031 792.84167 3477.2612 7630935
-1725.1299 791.70996 3472.2976 4209700
-1734.4152 805.58026 3533.1304 4998956
-1697.2032 797.92914 3499.574 6577986
-1656.5391 788.44574 3457.9812 4669732
-1655.3777 797.7619 3498.8403 5853750
-1624.5219 792.82263 3477.1775 3089934
-1634.9111 808.14392 3544.374 5063721
-1607.75 805.06116 3530.8535 3484945
-1563.7233 793.34052 3479.4487 3616019
-1545.1301 794.38251 3484.0188 1971200
-1534.3868 799.54321 3506.6528 4602654
-1495.6707 790.06921 3465.1018 4273688
-1477.1052 791.12408 3469.728 3879445
-1449.4114 787.25067 3452.7397 6972230
-1441.2712 794.03888 3482.512 5788212
-1417.8011 792.45599 3475.5696 5262127
-1393.3445 790.26691 3465.9685 5919545
-1400.7621 806.36096 3536.5542 4537892
-1397.2689 816.56763 3581.3191 4735274
-1394.2972 827.39874 3628.822 4143138
-1358.6083 818.84998 3591.3289 3682844
-1329.1458 813.84161 3569.363 4669737
-1280.4237 796.68781 3494.1296 5130801
-1274.0278 805.73871 3533.825 6775624
-1236.0374 794.77649 3485.7471 7630932
-1233.8475 806.85303 3538.7124 6841418
-1190.4514 791.93506 3473.2849 5920316
-1170.3127 792.23621 3474.6055 6972492
-1135.2073 782.23486 3430.7415 6709833
-1137.3452 798.00006 3499.8848 6907469
-1135.3885 811.42462 3558.7627 6315075
-1125.7264 819.74634 3595.26 6446148
-1114.078 826.91479 3626.6997 5459254
-1100.0458 832.56104 3651.4631 4406567
-1080.2552 833.9884 3657.7234 4603689
-1054.527 830.7962 3643.7229 2827278
-1024.0621 823.66095 3612.429 3353366
-1004.7413 825.37555 3619.949 4669482
-973.67145 817.3028 3584.5432 4406310
-956.85724 821.10303 3601.2104 6643529
-938.31116 823.55658 3611.9712 6183235
-923.82758 829.77368 3639.238 5854271
-924.2038 849.95392 3727.7451 4801328
-888.41638 837.04974 3671.1499 1051651
-865.77197 836.19177 3667.3867 3880229
-837.75397 829.96582 3640.0808 5986633
-814.33691 828.08948 3631.8516 5855046
-792.89722 828.1767 3632.2344 5262653
-756.44611 812.15179 3561.9519 6315343
-734.67023 811.41516 3558.7212 4275759
-714.9472 812.96924 3565.5371 2828313
-696.14337 815.69513 3577.4919 5722950
-678.54047 820.04358 3596.5635 5854789
-653.79688 815.76428 3577.7954 4473136
-629.57123 811.86609 3560.6987 5722944
-609.89185 813.76355 3569.0205 5591357
-593.98346 821.00964 3600.8008 5920837
-574.88525 824.22247 3614.8916 8157800
-554.85736 826.2995 3624.001 7565919
-529.75623 820.68439 3599.3745 7631714
-507.65076 819.43378 3593.8894 7105370
-487.86285 821.97839 3605.0493 8355436
-464.16376 817.86438 3587.0061 7170906
-446.65564 824.78766 3617.3704 6841683
-427.16678 828.56702 3633.946 7039061
-405.21878 827.72449 3630.251 9012339
-393.77515 849.44745 3725.5239 6906964
-367.25772 839.30255 3681.03 6972758
-344.05261 835.92395 3666.2124 7104345
-327.51898 849.39191 3725.2803 8354924
-305.90851 850.68872 3730.9678 8157802
-285.71542 856.43622 3756.1753 6710098
-259.35883 843.11877 3697.7673 5262909
-236.66525 840.34973 3685.6228 4538930
-215.81416 844.22516 3702.6199 4736566
-194.43114 846.6615 3713.3052 6446927
-174.54428 857.06635 3758.9392 6973529
-149.40613 840.95782 3688.2898 6907736
-125.45802 827.17462 3627.8391 6710356
-104.46282 831.18585 3645.4319 5788994
-84.2883 845.52155 3708.3054 6380871
-62.182327 843.76074 3700.583 5525306
-40.512794 849.23004 3724.5703 4472619
-18.351576 845.14874 3706.6704 6051653
3.5880551 838.86255 3679.1003 5657410
25.768396 851.32452 3733.7563 6710099
48.150452 855.85742 3753.637 7763042
69.674011 847.08801 3715.1758 7104858
92.310677 852.81348 3740.2866 7762787
111.60871 831.45001 3646.5903 6248519
133.85638 835.427 3664.0325 7169618
157.7025 846.87744 3714.2524 3747874
181.06306 853.23499 3742.1353 2169096
205.24634 861.65887 3779.0813 5654836
226.57304 857.61285 3761.3359 3878680
246.17905 848.36176 3720.7625 4733990
267.82214 847.07489 3715.1179 5919033
292.4675 854.75757 3748.813 7893084
312.68729 849.33459 3725.0291 7301718
332.46384 843.50238 3699.45 6578510
355.37695 845.8573 3709.7781 10000006
377.3988 845.94006 3710.1411 10131593
403.20953 854.039 3745.6614 10395021
428.78445 860.81915 3775.3979 5592900
453.33994 864.98181 3793.6548 6447701
478.32156 869.52588 3813.5842 7829097
497.20282 863.07043 3785.2717 9013111
520.1145 863.86652 3788.7634 6973270
543.9278 866.03247 3798.2627 8421228
569.48059 870.68561 3818.6707 7500641
578.52753 850.71173 3731.0686 9079164
608.6955 862.12292 3781.1162 7763297
635.07965 867.55499 3804.9404 7039316
668.41687 881.78717 3867.3604 7894372
681.45496 869.18457 3812.0872 3551259
721.08667 890.22186 3904.3533 5986369
731.41315 874.89703 3837.1414 2762005
758.97308 880.48907 3861.6667 4801326
778.33636 876.52295 3844.272 2499346
792.04266 866.59302 3800.7212 4142873
804.25018 855.6178 3752.5857 4998435
826.33191 855.45538 3751.8735 5393192
859.34821 866.32477 3799.5449 5984819
865.84717 850.58911 3730.531 7301454
879.935 842.90643 3696.8362 5261617
919.01587 858.95685 3767.2305 4735017
944.91107 862.21429 3781.5168 4603693
977.1286 870.95599 3819.8564 7104079
1002.6109 873.43445 3830.7268 6643530
1017.7584 866.99933 3802.5032 8748907
1032.1956 860.25079 3772.9055 7235664
1051.3588 857.64392 3761.4719 8025181
1079.5729 862.37506 3782.2222 6906701
1105.5771 865.18451 3794.5437 6906703
1153.6324 884.79431 3880.5486 9209462
1187.2036 892.74585 3915.4229 7763043
1190.3617 877.96106 3850.5793 9802626
1207.0856 873.54974 3831.2324 9539198
1240.5226 881.17316 3864.6672 7368028
1260.8502 879.3772 3856.7903 7499871
1285.5758 880.65771 3862.4065 8815475
1280.938 862.13062 3781.1499 6117962
1309.9193 866.47888 3800.2205 7104596
1345.322 874.85577 3836.96 8156770
1370.7228 876.55817 3844.4265 4866864
1400.5393 880.98254 3863.8311 4077606
1428.5317 884.13562 3877.6599 5393208
1432.4768 872.54126 3826.8093 7038034
1485.609 890.802 3906.8972 5524794
1494.4653 882.36084 3869.8762 5656381
1507.672 876.70465 3845.0688 7103830
1546.6761 885.99463 3885.8132 9143671
1560.1299 880.59045 3862.1116 8485741
1591.2383 885.16345 3882.1677 6314572
1617.799 887.11224 3890.7151 7367259
1646.177 889.98895 3903.3318 6314829
1695.0442 903.70966 3963.5081 5261886
1692.0435 889.77997 3902.415 2301204
1735.0662 900.1015 3947.6833 3353631
1761.9939 901.90991 3955.6147 5064251
1789.4482 903.93677 3964.5044 4077612
1798.5671 896.7691 3933.0681 1775632
1764.8604 868.70496 3809.9841 5065275
1783.3256 866.70575 3801.2156 4736566
1803.9513 865.79333 3797.2141 2892049
1858.2007 880.84204 3863.2148 4668968
1839.5642 861.3949 3777.9231 5655604
1870.8751 865.52252 3796.0264 6642755
1955.8687 894.09216 3921.3276 3682074
2003.0438 904.90582 3968.7544 6314307
2023.4951 903.53577 3962.7454 4406054
2036.7975 899.04156 3943.0347 5195571
2055.7583 897.11865 3934.6013 6774604
2060.4902 889.099 3899.4287 6051395
2106.3567 898.81006 3942.0193 5590587
2131.1445 899.41223 3944.6602 5656383
2151.6177 898.19995 3939.3435 5656383
2198.8706 908.073 3982.645 6577741
2235.7478 913.49713 4006.4343 4274730
2261.281 914.22101 4009.6089 4735281
2274.615 910.04895 3991.311 4537903
2300.8145 911.05713 3995.7327 6314571
2325.7166 911.53625 3997.8342 2433046
2356.9426 914.45935 4010.6543 2366994
2368.6948 909.84393 3990.4119 196864
2360.8062 897.85004 3937.8088 1577735
2353.3301 886.24628 3886.917 4338980
2399.1677 894.75049 3924.2148 5062442
2440.4717 901.41687 3953.4521 5062441
2471.3489 904.14172 3965.4031 4668196
2482.6685 899.7276 3946.0435 5786935
2527.8997 907.57074 3980.4424 5457715
2541.1719 903.90112 3964.3479 3944479
2535.3242 893.56 3918.9934 2825742
2538.5269 886.56732 3888.3252 3286549
2549.8423 882.50842 3870.5232 2958611
2556.3047 876.85712 3845.7378 2695183
2653.8396 902.2691 3957.1902 1379587
2680.448 903.33313 3961.8569 2431751
2688.4727 898.1701 3939.2129 2629130
2695.1189 892.63965 3914.957 4931626
2748.1741 902.44312 3957.9534 4931369
2741.1399 892.51569 3914.4133 4668453
2746.4275 886.73309 3889.0518 4536609
2781.8738 890.703 3906.4631 4273438
2846.7925 903.96594 3964.6321 3483409
2852.1125 898.24188 3939.5273 3549202
2893.332 903.82501 3964.0142 5062440
2924.7234 906.27289 3974.7502 4075802
2937.8081 903.05444 3960.6345 4338459
2940.7688 896.79956 3933.2017 4404511
3025.0723 915.25385 4014.1387 4536354
3071.6189 922.08563 4044.1018 5786935
3134.6526 933.72278 4095.1401 5195056
3183.2139 940.9032 4126.6323 5787707
3239.4348 950.22095 4167.4985 6116416
3240.3542 943.29895 4137.1396 5721917
3240.2314 936.17981 4105.9165 5984832
3311.3528 949.59741 4164.7637 5129523
3323.51 946.03241 4149.1284 6116675
3363.9158 950.50165 4168.7295 5985345
3402.2632 954.32837 4185.5127 5985346
3423.5393 953.34595 4181.2041 5656124
3520.4548 973.28943 4268.6724 5656381
3504.2273 961.89117 4218.6816 7235158
3518.5195 958.97241 4205.8809 6182468
3536.5488 957.10632 4197.6963 5655866
3543.4358 952.27179 4176.4932 4931887
3549.6228 947.31757 4154.7646 5194545
3575.8586 947.74518 4156.6401 4799531
3603.8682 948.63397 4160.5381 2892052
3533.0571 923.67523 4051.0735 4734251
3554.9556 923.1275 4048.6716 4339237
3517.4509 907.26526 3979.1023 5194544
3618.1758 927.0307 4065.7898 5457972
3601.1902 916.57489 4019.9326 5128493
3732.8826 943.84937 4139.5537 5260082
3732.3792 937.56055 4111.9722 3681049
3762.127 938.90314 4117.8604 3878429
3787.7063 939.1947 4119.1392 4668202
3806.2634 937.7525 4112.814 4339751
3812.2043 933.24023 4093.0239 4602924
3744.9277 910.97437 3995.3699 4866097
3839.6592 928.15002 4070.6992 4471596
3850.2695 924.90393 4056.4622 4471596
3872.1182 924.38074 4054.168 3616544
0 0 0 0
0 0 0 0
0 0 0 0
0 0 0 0
0 0 0 0
0 0 0 0
0 0 0 0
-2942.0706 769.9549 3291.3376 7829078
-2929.5024 771.78247 3299.1499 7105356
-2901.6472 769.58014 3289.7356 7368526
-2896.3948 773.3833 3305.9929 8025943
-2861.9951 769.40247 3288.9763 6710339
-2884.7878 780.84778 3337.9016 7696977
-2822.6116 769.29315 3288.509 7499599
-2823.9854 775.01862 3312.9836 6907461
-2810.1472 776.62018 3319.8298 4604707
-2801.4238 779.66791 3332.8579 9078631
-2788.9192 781.69904 3341.5403 8617822
-2759.314 778.93182 3329.7114 8025940
-2742.4375 779.7439 3333.1829 9407594
-2724.8621 780.36755 3335.8489 7236169
-2670.1914 770.29913 3292.8091 9999988
-2647.7153 769.43829 3289.1292 9802353
-2643.4846 773.90619 3308.2283 9473386
-2621.3809 773.16925 3305.0781 10197110
-2596.0598 771.46521 3297.7939 7302218
-2585.0203 774.01147 3308.6782 9078630
-2551.25 769.73846 3290.4126 8091735
-2526.29 768.07837 3283.3162 8749667
-2482.7524 760.70038 3251.7773 10065525
-2455.5862 758.26239 3241.3555 10723455
-2422.3755 753.90472 3222.7275 8683614
-2435.0466 763.87079 3265.3298 9604971
-2430.5217 768.55902 3285.3706 9275747
-2408.8193 767.84729 3282.3284 9407592
-2421.9673 778.32355 3327.1113 8683871
-2426.4446 786.16254 3360.6206 8223322
-2346.2629 766.47498 3276.4619 9078633
-2358.2134 776.8075 3320.6306 9209962
-2301.3721 764.46301 3267.8613 8880998
-2275.9231 762.42523 3259.1504 7630931
-2235.6216 755.33447 3228.8394 7959638
-2252.8936 767.74109 3281.8743 8815205
-2212.4719 760.53186 3251.0569 8289630
-2192.7256 760.36554 3250.3457 11184522
-2165.9163 757.72528 3239.0593 6710853
-2174.24 767.43866 3280.5813 7499599
-2153.4778 766.9682 3278.5703 8815456
-2150.0332 772.71313 3303.1282 7499337
-2129.9678 772.53516 3302.3677 7762507
-2133.3328 780.93109 3338.2578 7433285
-2109.2788 779.35309 3331.5122 8288345
-2097.2397 782.22662 3343.7957 6775360
-2073.9556 780.92065 3338.2131 6906691
-2056.261 781.71466 3341.6072 7104327
-2023.6738 776.80737 3320.6299 6446657
-2014.9546 781.05548 3338.7896 8025688
-2030.5087 794.89038 3397.9297 7959641
-1982.9236 784.03754 3351.5369 6710344
-2006.0336 801.20032 3424.9028 4934190
-1985.9983 801.30579 3425.3538 6118209
-1950.1398 794.9632 3398.2407 8485986
-1934.6412 796.87439 3406.4109 4736041
-1916.7583 797.8335 3410.5107 5459764
-1897.6279 798.28833 3412.4548 7235663
-1880.1993 799.47644 3417.5339 7696469
-1851.7314 795.94543 3402.4397 5525555
-1820.7504 791.24445 3382.3445 4604198
-1825.0344 801.93463 3428.0417 5591095
-1811.9149 805.13208 3441.71 4998444
-1771.0632 795.93921 3402.4131 7038284
-1762.5321 801.22717 3425.0176 6577733
-1746.0336 802.97412 3432.4854 6841160
-1688.7694 785.79395 3359.0449 6775881
-1669.8032 786.23663 3360.9373 7038799
-1659.1477 790.65039 3379.8049 4077860
-1666.5952 803.90424 3436.4614 3551509
-1638.4323 800.09637 3420.1838 4340770
-1612.8752 797.48151 3409.0063 5919802
-1600.7433 801.52264 3426.2808 6972488
-1559.235 790.76935 3380.3135 3485714
-1564.5831 803.80859 3436.0527 6973002
-1519.3413 790.85846 3380.6943 5459763
-1507.8743 795.37775 3400.0129 4538405
-1485.1279 793.98926 3394.0776 5722420
-1452.8356 787.38898 3365.8635 6182714
-1431.6715 786.72009 3363.0042 4538142
-1419.1733 790.86151 3380.7075 4866594
-1419.4429 802.3385 3429.7686 3814420
-1407.8929 807.37109 3451.281 5788210
-1387.2085 807.23633 3450.7051 4735268
-1365.1849 806.30676 3446.7314 5130027
-1378.5387 826.56091 3533.312 3814169
-1355.8369 825.48773 3528.7246 3090449
-1317.6053 814.77765 3482.9421 4669737
-1292.2643 811.82483 3470.3196 5525301
-1277.0388 815.23395 3484.8928 4472867
-1242.8544 806.45325 3447.3577 6446400
-1212.6942 800.034 3419.9172 5130540
-1194.7422 801.58722 3426.5569 5262125
-1168.1719 797.31207 3408.2817 6117434
-1155.8094 802.75427 3431.5457 4274720
-1129.6407 798.63074 3413.9187 4669988
-1117.7039 804.60199 3439.4438 5459250
-1094.0129 802.17627 3429.075 6051388
-1072.4606 801.25665 3425.1436 5656630
-1062.2651 808.95013 3458.0312 6182972
-1077.6328 836.79651 3577.0664 7038282
-1067.4341 845.50922 3614.311 4933164
-1023.8517 827.59454 3537.7307 2301970
-1004.1716 828.65515 3542.2644 5722686
-949.51965 800.28558 3420.9924 6051394
-963.14215 829.47754 3545.78 6314821
-940.13647 827.72321 3538.2805 6578506
-930.06006 837.53174 3580.2092 7171158
-915.88867 844.02454 3607.9644 7631709
-898.25555 847.56146 3623.0837 7433817
-875.08185 845.91571 3616.0486 7039059
-851.03516 843.3222 3604.9619 6446926
-831.40411 845.08337 3612.4905 3815207
-805.6059 840.50342 3592.9126 5394237
-769.78979 824.93915 3526.3796 6446669
-752.59637 829.02008 3543.8245 6907735
-723.12183 819.41864 3502.7808 5788998
-694.49811 810.24225 3463.5547 4539187
-680.24182 817.77936 3495.7737 5394495
-666.20416 826.06097 3531.1753 3486240
-640.67151 820.16437 3505.969 5394237
-608.93793 805.66833 3444.0022 4868149
-600.87402 822.5694 3516.2495 3091481
-585.98871 831.01111 3552.3354 4209445
-566.45587 833.24561 3561.8875 4472617
-534.29065 816.35181 3489.6711 6315337
-506.02908 804.30225 3438.1628 6907732
-487.63919 807.59033 3452.2185 5723201
-471.54822 815.14044 3484.4929 5854785
-450.31442 814.08472 3479.98 6183236
-428.79175 812.38043 3472.6946 6051393
-418.54315 832.94086 3560.5845 5130548
-397.95148 834.00775 3565.1453 5393722
-381.20178 843.69757 3606.5667 5854528
-362.77859 850.61475 3636.1355 6644304
-337.90753 842.3324 3600.7307 5854791
-323.01965 859.49677 3674.1035 7039065
-304.31171 868.24329 3711.4924 5788998
-283.97635 873.34772 3733.3123 7302236
-255.84229 853.30389 3647.6309 5657151
-234.65369 854.86322 3654.2966 6249548
-211.74278 849.82733 3632.7693 4802103
-190.06589 849.16461 3629.9365 5854790
-169.11699 852.00031 3642.0583 5460030
-146.88208 848.23907 3625.9802 4538926
-124.24444 840.46454 3592.7461 5525820
-102.918 840.17822 3591.5225 8420457
-82.623138 850.35986 3635.0459 5986115
-60.949623 848.52972 3627.2227 6840911
-39.260521 844.37018 3609.4417 6315336
-18.076185 854.10297 3651.0469 5197112
3.5710738 856.59229 3661.6877 3552550
25.21771 854.7854 3653.9639 6315599
46.663609 850.98724 3637.7278 7039322
68.967979 860.29797 3677.5286 3617311
89.623474 849.50824 3631.4055 5262395
110.10822 841.59174 3597.5647 5262392
132.30275 847.1922 3621.5051 8157289
156.66649 863.18085 3689.8518 7499362
179.56354 868.16162 3711.1436 5394242
196.62903 846.93738 3620.4155 5130555
218.35306 847.98083 3624.8762 3288092
240.67903 850.96558 3637.6353 3617057
267.73737 868.81622 3713.9417 4801073
286.67081 859.59235 3674.512 2433556
309.23221 861.78125 3683.8691 6907218
326.93002 851.02124 3637.873 7499354
352.49042 860.79333 3679.6458 6709583
376.42694 865.69208 3700.5867 7893859
396.53595 861.7337 3683.666 8354924
422.77982 870.82489 3722.5281 7631458
443.89111 868.96674 3714.585 5591619
458.44302 855.05017 3655.0955 7433823
484.51654 862.90887 3688.6895 5130553
501.28809 854.23792 3651.6233 7301719
522.48755 853.5177 3648.5447 8222819
553.75122 868.64203 3713.197 8025435
571.64587 862.44043 3686.6868 6248768
597.55109 868.33606 3711.8892 6512193
619.29736 867.98401 3710.384 8354915
647.58942 876.51593 3746.8555 8223335
682.375 892.9798 3817.2339 7433563
697.48193 883.46118 3776.5447 9605501
721.45026 885.40967 3784.874 920838
739.98035 880.76782 3765.0312 8354908
752.97064 869.99689 3718.9888 6841157
777.34363 872.61639 3730.186 5656370
794.20331 866.89008 3705.7078 6511935
817.48853 868.29681 3711.7212 8814433
837.97675 866.73676 3705.0525 5985333
846.3175 853.01294 3646.387 7498574
869.35236 854.41394 3652.376 7366991
913.59985 876.08856 3745.0291 7827545
928.51605 869.27539 3715.9043 2958608
955.09613 873.4444 3733.7258 6117437
978.14862 874.27173 3737.2625 5985338
1000.6902 874.61603 3738.7341 6312759
1011.6776 865.06537 3697.908 6312241
1029.8304 861.91699 3684.4495 6443311
1052.6241 862.70282 3687.8088 6378031
1083.2913 869.77838 3718.0544 5522721
1095.3564 861.9339 3684.5217 7299907
1131.3899 872.88812 3731.3479 5392942
1149.7789 870.07025 3719.3022 7170127
1178.8193 875.26709 3741.5171 6973010
1210.8961 882.48474 3772.3706 8222822
1235.1481 883.84143 3778.1702 9275510
1246.0361 875.75739 3743.613 6709582
1261.6262 871.203 3724.1443 6051652
1290.1234 875.56488 3742.7903 6577997
1302.3981 868.95575 3714.5378 7170135
1346.2048 883.2547 3775.6619 7696736
1375.2872 887.58319 3794.1653 8222310
1393.2574 884.71631 3781.9102 6446156
1373.075 858.09686 3668.1194 7433050
1440.0001 885.8963 3786.9539 5262136
1474.8745 893.42712 3819.1462 7499097
1492.6929 890.55457 3806.8669 6775374
1505.4303 884.78149 3782.1885 4209446
1540.9722 892.38379 3814.6865 8288615
1550.3933 884.85846 3782.5176 7564638
1562.2861 878.93805 3757.2097 8156776
1595.4875 885.00385 3783.1392 7235932
1605.6722 878.31128 3754.5303 8748915
1621.3855 874.78436 3739.4539 5788228
1696.4989 902.96869 3859.9338 4669746
1727.5369 907.25586 3878.26 6511949
1721.2841 892.10333 3813.4873 5261625
1734.7947 887.45367 3793.6116 6248520
1742.6066 880.04523 3761.9424 5064246
1757.8745 876.54175 3746.9661 4800818
1782.4105 877.68939 3751.8718 3418906
1795.4591 873.22186 3732.7747 4076579
1816.9459 872.91711 3731.4717 6247485
1850.1088 878.16174 3753.8911 5656117
1901.3586 891.76483 3812.0403 5128744
1913.6624 886.99658 3791.6575 7366479
1966.416 900.87036 3850.9639 5195569
1974.6826 894.27875 3822.7866 6050880
1998.771 894.92059 3825.5305 4800814
2036.2499 901.47638 3853.5544 5459004
2028.9838 888.29712 3797.2168 7630173
2071.6633 897.03357 3834.5627 6248522
2091.8267 895.93665 3829.8738 5459262
2153.1636 912.30865 3899.8594 5393213
2192.1707 918.97223 3928.3442 7367001
2211.5862 917.3692 3921.4917 5722175
2257.9109 926.84546 3962 6907217
2263.197 919.45392 3930.4036 6512205
2267.7083 911.90173 3898.1196 8026216
2255.3274 897.7774 3837.7424 4406318
2276.1721 897.02911 3834.5439 6314057
2340.3752 913.21417 3903.7302 5326906
2326.9375 899.08337 3843.3252 4207653
2332.8975 892.6488 3815.8193 1246977
2345.6721 888.92041 3799.8811 2101249
2350.5454 882.29706 3771.5681 4206878
2446.8821 909.80652 3889.1633 4075291
2480.0996 913.55255 3905.1765 4404768
2517.6182 918.79883 3927.603 5654838
2524.2463 912.77887 3901.8696 4405285
2501.5442 896.35864 3831.6777 2694668
2525.7075 896.87561 3833.8877 3814176
2531.4941 890.91614 3808.4124 2959123
2618.7532 913.48132 3904.8721 6380357
2666.8518 922.11084 3941.7607 4274467
2667.2744 914.24884 3908.1531 4208160
2698.4065 916.95758 3919.7324 4603173
2629.5513 885.93311 3787.1116 5852470
2751.7791 919.26733 3929.606 4471074
2758.9661 913.93396 3906.8069 5786936
2707.2412 889.33643 3801.6599 3484180
2835.3398 923.73004 3948.6826 3155218
2822.4585 912.00641 3898.5674 3088911
2834.3638 908.41718 3883.2246 4470563
2876.5742 914.52057 3909.3147 6049337
2890.5952 911.63593 3896.9839 4404255
2899.7439 907.27271 3878.332 3877654
2923.5 907.51245 3879.3567 4008984
2942.1001 906.16034 3873.5769 4469535
3008.8591 919.54718 3930.802 2824969
3055.8726 926.7403 3961.5505 2957067
3091.5642 930.41638 3977.2646 3088910
3182.7329 950.60638 4063.5713 3944223
3196.3342 947.49976 4050.2913 6708297
3219.1223 947.14233 4048.7632 6051137
3260.9292 952.3446 4071.0015 6050880
3299.2559 956.46149 4088.5999 5853501
3325.2849 956.97925 4090.8135 5853501
3343.8979 955.37067 4083.9373 6182467
3419.2173 969.87018 4145.9185 4932913
3442.9817 969.64337 4144.9492 5721660
3424.0835 957.48993 4092.9963 6379846
3459.9563 960.71558 4106.7852 6445638
3455.2483 952.70685 4072.55 5984318
3467.9426 949.57428 4059.1594 5524024
3455.4326 939.6311 4016.655 5129264
3463.8728 935.48199 3998.9187 8221537
3543.1755 950.39679 4062.6755 5326645
3474.9941 925.81726 3957.605 4339492
3502.5977 926.91547 3962.2993 4931118
3525.8086 926.84448 3961.9958 5259827
3537.6697 923.81036 3949.0259 4010530
3634.0369 942.73877 4029.9395 4932401
3719.6777 958.65558 4097.979 7564121
3792.8013 971.16071 4151.4351 6840654
3790.5938 964.34015 4122.2793 6182981
3788.3262 957.59186 4093.4324 6117189
3788.5186 951.54724 4067.593 2893079
3806.4224 949.99939 4060.9766 2564632
3865.2485 958.6203 4097.8281 5458747
3871.157 954.09125 4078.468 6248263
3797.4019 930.1062 3975.939 2760978
0 0 0 0
0 0 0 0
0 0 0 0
0 0 0 0
0 0 0 0
0 0 0 0
0 0 0 0
0 0 0 0
-2830.5376 764.60101 3187.6978 6775622
-2855.4282 776.50702 3237.335 6709829
-2813.5623 770.29742 3211.4468 6051899
-2777.8647 765.70355 3192.2944 6051899
-2766.231 767.72528 3200.7231 4209695
-2745.5718 767.25269 3198.7529 5986105
-2731.4084 768.60144 3204.376 6052411
-2780.5432 787.90552 3284.8564 8552802
-2767.2424 789.66504 3292.1924 8092765
-2772.1497 796.68231 3321.448 7697750
-2745.0286 794.52954 3312.4729 7895384
-2707.2549 789.24042 3290.4216 8026715
-2661.3162 781.47668 3258.0542 6776392
-2648.5642 783.41595 3266.1392 7171149
-2598.9817 774.40942 3228.5898 9276265
-2636.4746 791.40723 3299.4556 9407593
-2589.1604 783.01184 3264.4543 8354905
-2543.1616 774.89075 3230.5967 7302216
-2559.4536 785.77014 3275.9541 9276007
-2487.3208 769.46149 3207.9614 9933939
-2484.9104 774.63654 3229.5369 5591604
-2440.8481 766.8067 3196.8936 8486493
-2456.5947 777.79059 3242.6865 10526076
-2452.3489 782.56805 3262.6042 8683872
-2412.2097 775.87646 3234.7063 8552284
-2399.9668 778.12219 3244.0688 10855039
-2363.6091 772.52258 3220.7236 9999989
-2345.9973 773.00854 3222.7495 10000246
-2333.6338 775.24597 3232.0776 9868661
-2322.9114 778.07013 3243.8521 8684644
-2289.2971 773.20984 3223.5889 9670513
-2264.7744 771.36414 3215.894 9012584
-2221.8601 763.16992 3181.7314 5131052
-2219.7146 768.95874 3205.8655 8222810
-2215.449 774.10657 3227.3274 9341289
-2218.3806 781.88098 3259.7395 8551773
-2175.4851 773.4978 3224.7896 9144166
-2150.0295 771.22198 3215.3013 6907204
-2127.9453 770.12555 3210.73 7367499
-2110.8928 770.84674 3213.7368 8552029
-2100.7534 774.12848 3227.4187 5854000
-2112.7834 785.71521 3275.7249 6314550
-2087.1267 783.37158 3265.9541 7169861
-2081.7251 788.65759 3287.9922 6511676
-2076.9419 794.28015 3311.4331 8749153
-2065.4177 797.40747 3324.4709 6709315
-2056.7639 801.71368 3342.4243 6775364
-2023.9418 796.59155 3321.0696 6315070
-2015.1058 800.90198 3339.0403 7565139
-2011.615 807.44348 3366.3123 8223583
-1990.7163 807.05878 3364.7083 7763035
-1953.7491 800.08594 3335.6377 6315845
-1939.1096 802.2074 3344.4824 7829084
-1933.3846 808.09869 3369.0442 7566168
-1926.3541 813.56165 3391.8196 6644039
-1903.1089 812.21954 3386.2244 4406820
-1866.194 804.9527 3355.9282 4603943
-1848.0698 805.72168 3359.1338 8683878
-1848.187 814.54688 3395.927 7960669
-1796.6567 800.55328 3337.5864 6644552
-1779.452 801.7132 3342.4224 6381123
-1758.5934 801.23456 3340.4268 5854522
-1755.0588 808.72784 3371.6667 5788729
-1719.3815 801.4118 3341.1655 4669735
-1710.4672 806.54504 3362.5664 4077598
-1681.2102 802.09387 3344.0093 4932907
-1668.4672 805.50922 3358.2483 3748633
-1666.5117 814.27802 3394.8059 2959118
-1621.9722 802.19965 3344.4502 5722167
-1593.6384 797.93677 3326.6777 5656630
-1569.3185 795.60199 3316.9441 2498572
-1539.9071 790.59399 3296.0652 5787954
-1515.8047 788.21802 3286.1594 5722416
-1494.3431 787.17133 3281.7957 5393198
-1496.1089 798.49359 3328.9995 6577728
-1493.3375 807.66479 3367.2351 6446142
-1467.3887 804.37921 3353.5369 5854005
-1446.1138 803.60052 3350.2908 5985587
-1413.8379 796.60193 3321.1128 4801569
-1421.7579 812.37311 3386.8645 4669729
-1379.3461 799.42523 3332.8835 2892806
-1365.6382 802.97876 3347.6982 2958600
-1353.0068 807.2793 3365.6279 4208667
-1339.7961 811.35779 3382.6313 4801061
-1346.6102 827.87103 3451.4768 5196078
-1321.387 824.89386 3439.0647 5854009
-1293.5367 820.15784 3419.3196 3880477
-1263.4191 813.81049 3392.8569 5393716
-1233.5986 807.45239 3366.3496 6051902
-1214.6522 808.11993 3369.1323 6117696
-1202.3016 813.2713 3390.6091 4867629
-1188.4485 817.56415 3408.5063 4209184
-1163.719 814.39404 3395.2898 3353875
-1135.5844 808.68738 3371.4983 2893073
-1124.1658 814.89368 3397.3728 5261360
-1089.439 804.12225 3352.4656 4735272
-1058.4838 795.78638 3317.7124 7038026
-1050.5112 804.74048 3355.0435 7235663
-1026.584 801.58246 3341.8772 5985596
-1017.5256 810.13855 3377.5481 6972746
-994.62195 807.79321 3367.7705 5788217
-989.54242 820.12457 3419.1809 6775114
-966.93079 818.13715 3410.8953 6314820
-925.48541 799.78906 3334.4004 4341031
-918.66687 811.21722 3382.0454 7893852
-884.26953 798.25879 3328.0205 6512455
-880.69037 813.16443 3390.1636 5722682
-901.74152 852.0387 3552.2344 7038543
-878.39502 849.81812 3542.9766 5327926
-844.67743 837.20959 3490.4099 7960161
-822.15784 835.34552 3482.6384 6841682
-809.42035 843.58026 3516.97 6841681
-780.50702 834.94623 3480.9741 5591612
-759.49957 834.53046 3479.2405 4669998
-733.73682 828.72052 3455.0186 3748894
-703.22748 817.06213 3406.4133 2696728
-689.66138 824.98224 3439.4331 6973783
-665.4397 820.25031 3419.7053 4539955
-643.65485 818.31921 3411.6543 4670772
-630.99615 828.2417 3453.0222 5394240
-605.97491 822.05853 3427.2439 4802360
-589.3194 827.1889 3448.6331 5525828
-569.94067 828.72821 3455.0505 2696727
-539.58105 813.82031 3392.8979 4275244
-516.2334 808.74347 3371.7322 4801843
-499.73505 814.4201 3395.3987 5328185
-472.97662 803.15082 3348.4155 7367509
-459.62524 814.65747 3396.3882 6775372
-445.61838 826.00317 3443.6895 7433556
-425.25848 826.09674 3444.0796 6578244
-405.38043 827.18286 3448.6077 7565399
-396.24185 851.46185 3549.8291 3026204
-379.95813 862.24854 3594.8003 5986627
-356.95605 858.16522 3577.7761 6841683
-338.241 864.52338 3604.2842 7170650
-313.80408 856.12817 3569.2837 5394240
-295.51474 864.5036 3604.2017 7828581
-274.77994 866.47272 3612.4114 6117708
-253.66315 867.46832 3616.562 7301981
-230.64626 861.55011 3591.8882 4538675
-209.9462 863.96265 3601.9463 4472882
-185.74089 850.86395 3547.3364 5722949
-165.67198 855.78851 3567.8677 5131325
-142.82126 845.68219 3525.7334 2564885
-122.20085 847.58167 3533.6523 5459514
-100.36035 840.05396 3502.2686 7432791
-81.455498 859.58002 3583.6748 5261878
-60.386303 861.98431 3593.6982 7630683
-38.603153 851.2644 3549.0061 6051396
-17.641474 854.67932 3563.2432 5525567
3.5052907 862.11316 3594.2358 4999480
24.920404 866.10669 3610.8853 5723204
45.749378 855.45026 3566.4575 6315341
66.725906 853.41602 3557.9763 6644306
86.736214 842.9682 3514.4182 4406830
109.81544 860.61719 3587.9988 6578512
129.06027 847.36505 3532.7493 6052170
153.1167 864.99408 3606.2466 6841942
174.81451 866.6123 3612.9929 6841686
196.99217 869.99652 3627.1021 7236700
213.54059 850.29974 3544.9841 5920069
238.00055 862.81274 3597.1523 3880229
262.09225 872.04327 3635.6353 4077862
281.80847 866.41895 3612.187 4143655
306.19995 874.94806 3647.7456 5788225
328.42661 876.57446 3654.5261 6117706
351.75317 880.7536 3671.9495 6051142
371.03671 874.91229 3647.5964 6314313
386.59848 861.42133 3591.3511 5130551
408.07849 861.83704 3593.0847 4144426
422.7674 848.58057 3537.8169 4275754
450.93597 862.35486 3595.2432 6118220
471.70889 861.38104 3591.1831 5196340
502.06018 877.22717 3657.2473 5590839
518.99323 869.28687 3624.1436 6840907
541.92413 871.62463 3633.8901 4867114
565.06079 874.10193 3644.218 5788216
581.6474 866.63745 3613.0981 6051131
599.7851 861.93213 3593.481 6314046
643.38361 892.88373 3722.5212 4669222
652.36884 875.33966 3649.3782 5787957
691.77368 898.42828 3745.637 5788469
704.6861 886.74438 3696.9258 7169612
709.55963 865.95441 3610.2502 6116664
731.31213 866.37781 3612.0154 5590575
753.81189 867.63727 3617.2661 5985332
774.30786 866.58441 3612.8767 5985333
794.42963 865.18066 3607.0244 7498574
812.4964 861.6712 3592.3931 6445373
837.43115 865.43854 3608.0996 5393198
857.96649 864.58496 3604.541 5853747
875.89777 861.21246 3590.4805 8617319
893.82898 857.99994 3577.0872 7432790
921.5304 864.09753 3602.5085 8880489
946.53693 867.44916 3616.4819 5590838
969.31067 868.65155 3621.4949 6840906
992.82233 870.44879 3628.9878 6906440
1010.0554 866.78186 3613.6997 6181686
1037.6735 871.99402 3635.4299 7892042
1065.2498 876.95984 3656.1331 4338449
1088.7754 878.45941 3662.3848 5851687
1116.2566 883.02948 3681.4377 5786408
1137.1169 882.28711 3678.343 7233857
1168.0797 889.26385 3707.4297 6181941
1173.5498 876.93365 3656.0234 5195048
1181.6447 866.97614 3614.5098 5853491
1210.9835 872.6825 3638.3003 7301195
1229.3712 870.43542 3628.9321 7564626
1284.8282 894.06085 3727.4287 4801578
1269.2657 868.30304 3620.0417 6840401
1299.1188 873.95386 3643.6008 6380617
1333.4089 882.3562 3678.6309 7696477
1332.5719 867.61725 3617.1829 6840655
1368.0267 876.6001 3654.6331 7696472
1408.1306 888.23553 3703.1426 8683115
1464.5144 909.62549 3792.3191 3550753
1473.1035 901.13165 3756.9077 4932660
1508.6238 909.12 3790.2117 5064242
1512.1201 897.85883 3743.2629 6972751
1514.2467 886.12183 3694.3303 7038545
1528.3677 881.63831 3675.6379 7564891
1542.1543 877.0907 3656.6782 6775123
1556.5339 873.00165 3639.6309 8814192
1588.5813 878.79816 3663.7969 7039065
1595.509 870.72955 3630.158 8881013
1672.9968 900.87061 3755.8193 6380360
1687.389 896.6908 3738.3933 6051395
1711.9919 897.97504 3743.7473 6445896
1728.5499 895.06061 3731.5969 5590586
1746.6934 893.03052 3723.1331 3617058
1745.1631 881.11792 3673.4683 3616541
1764.717 880.01294 3668.8616 4932143
1801.7405 887.54041 3700.2444 6116672
1784.09 868.2782 3619.9382 6971722
1825.3475 877.80231 3659.6453 6905668
1871.7163 889.53192 3708.5474 6839874
1920.6315 902.18542 3761.3008 5918776
1946.5294 903.8606 3768.2849 3945245
1974.0577 906.24628 3778.231 5195570
1989.0613 902.89301 3764.251 7169362
1946.0758 873.58337 3642.0559 5459001
2024.4537 898.79828 3747.1794 6248777
2065.9846 907.28461 3782.5601 6774867
2092.7715 909.18335 3790.4761 6840660
2126.8416 914.17236 3811.2756 3879718
2154.9072 916.50275 3820.9912 5326907
2179.0493 917.13324 3823.6199 4603184
2183.0217 909.349 3791.1665 4011302
2253.0317 928.95142 3872.8911 2695442
2239.8767 914.21442 3811.4509 4143401
2233.3174 902.43671 3762.3486 5854021
2248.1167 899.43732 3749.8438 8090725
2275.7681 901.58807 3758.8105 6445645
2327.7698 913.25049 3807.4321 4932142
2343.3342 910.53088 3796.094 4075808
2365.1943 910.28601 3795.0728 3286290
2353.0386 897.07739 3740.0049 2693641
2389.5862 902.50989 3762.6536 4799272
2434.822 911.0929 3798.437 3944474
2471.6406 916.39783 3820.554 4733990
2452.918 901.20081 3757.1958 4799785
2489.521 906.42078 3778.9587 5063214
2484.167 896.40771 3737.2131 3549717
2546.5151 910.78583 3797.1567 5260335
2594.8208 919.93365 3835.2949 4997162
2620.9922 921.14355 3840.3391 5260589
2640.5059 920.01294 3835.6255 5260588
2668.9319 921.98022 3843.8276 4997159
2701.1484 925.21283 3857.3044 5062439
2687.2214 912.71832 3805.2136 5194540
2683.9133 904.00854 3768.9016 3944473
2723.7595 909.85797 3793.2886 2694155
2758.3286 913.86328 3809.9871 2694410
2784.5256 915.05225 3814.9438 3352338
2810.0999 916.0191 3818.9749 3615510
2862.9602 925.79407 3859.7275 5062700
2850.4023 914.42737 3812.3389 5392435
2888.5359 919.37384 3832.9609 4011039
2894.2739 914.01245 3810.6091 2892563
2979.7544 933.72186 3892.7795 8419426
3018.439 938.57733 3913.0225 3878685
3021.9475 932.50427 3887.7031 3221268
3059.7478 937.02466 3906.5493 3615515
3074.5154 934.47662 3895.926 2957585
3076.3721 928.07159 3869.2229 4799789
3104.679 929.68176 3875.9358 5721146
3166.4431 941.2132 3924.0117 4339236
3209.5457 947.07001 3948.4292 6247489
3235.5857 947.84357 3951.6543 5852475
3244.1738 943.53046 3933.6726 5260338
3284.2559 948.37311 3953.8618 5063987
3303.0498 947.04333 3948.3181 3682078
3335.9431 949.74658 3959.5881 5129781
3415.1892 965.51642 4025.3342 6906193
3420.7107 960.36932 4003.8752 6576971
3465.5347 966.25128 4028.3977 6444614
3459.9248 958.08716 3994.3608 3747358
3451.3862 949.22845 3957.428 6049857
3484.6389 951.90558 3968.5894 4207910
3489.4414 946.82709 3947.4165 6050371
3495.1729 942.06659 3927.5696 6247752
3497.303 936.40491 3903.9656 5326648
3586.4539 953.96448 3977.1729 4865837
3649.5688 964.41443 4020.74 5194546
3741.3457 982.25385 4095.114 6116158
3752.2146 978.75854 4080.5417 6051136
3726.7258 965.88495 4026.8706 6774602
3684.6064 948.89227 3956.0266 7038035
3729.252 954.31775 3978.6458 7038036
3820.0825 971.41949 4049.9448 6116936
3881.8579 980.96527 4089.7419 5129786
3879.3091 974.23853 4061.6975 4734514
0 0 0 0
0 0 0 0
0 0 0 0
0 0 0 0
0 0 0 0
0 0 0 0
0 0 0 0
-2808.0791 772.12231 3141.4395 5459762
-2804.9695 776.41473 3158.9033 6644035
-2769.168 771.65485 3139.5376 7499601
-2730.4385 766.00928 3116.5679 7170893
-2715.4185 766.98358 3120.532 6579012
-2689.813 764.96082 3112.3022 8750182
-2695.554 771.88629 3140.4792 5526068
-2702.8569 779.35852 3170.8806 6842185
-2699.3496 783.79651 3188.9368 7697494
-2721.5332 795.80939 3237.812 7170893
-2665.0876 784.8374 3193.1716 6381634
-2632.8137 780.87775 3177.0615 7565908
-2642.5806 789.41992 3211.8159 7500115
-2606.415 784.26508 3190.843 7499600
-2602.9214 788.93762 3209.8535 7499600
-2556.9167 780.69904 3176.3345 8223580
-2525.238 776.74493 3160.2468 7894357
-2525.3157 782.57275 3183.9578 8091735
-2507.967 783.04742 3185.8889 7762770
-2500.96 786.78259 3201.0857 9144422
-2463.6692 780.97498 3177.4573 7631184
-2399.3296 766.43762 3118.3108 6907462
-2413.7063 777.01471 3161.3445 7368010
-2394.1475 776.74731 3160.2566 7302217
-2384.6602 779.7691 3172.551 6578493
-2361.969 778.487 3167.3347 8157268
-2348.6807 780.30841 3174.7449 7959635
-2335.9746 782.35406 3183.0679 8091222
-2299.4673 776.39679 3158.8306 9012324
-2334.3271 794.63605 3233.0381 9801840
-2288.8755 785.61182 3196.3223 9736816
-2253.2285 779.83032 3172.8 9012838
-2227.584 777.4425 3163.085 8091479
-2213.3499 779.03015 3169.5447 7894354
