# .PCD v0.7 - Point Cloud Data file format
VERSION 0.7
FIELDS x y z rgb
SIZE 4 4 4 4
TYPE F F F U
COUNT 1 1 1 1
WIDTH 1273
HEIGHT 1
VIEWPOINT 0 0 0 1 0 0 0
POINTS 1273
DATA ascii
-3197.1682 731.43408 4187.4814 6116152
-3121.5935 719.73083 4120.48 6576703
-3097.5525 719.81866 4120.9829 5787702
-3056.0371 715.81488 4098.061 6051130
-3036.7139 716.98657 4104.769 5524787
-3063.9712 729.26404 4175.0576 6182717
-3057.2031 733.57684 4199.749 5590837
-2965.8079 717.48767 4107.6377 4143392
-2909.675 709.73328 4063.2439 5919548
-2925.9285 719.65356 4120.0376 4209185
-2884.4331 715.41748 4095.7859 4867117
-2879.2361 720.18884 4123.1021 5196081
-2886.9478 728.29846 4169.5298 6182719
-2854.1577 726.24231 4157.7583 5195824
-2795.2466 717.44604 4107.3994 4669480
-2789.6084 722.28864 4135.1235 4603944
-2764.8591 722.22504 4134.7593 3946014
-2747.884 724.20917 4146.1187 5196079
-2702.6802 718.72223 4114.7056 6643525
-2695.6106 723.36865 4141.3066 6314303
-2673.9045 724.13678 4145.7041 6906696
-2647.0105 723.5011 4142.0649 4340770
-2654.4192 732.3172 4192.5371 6446147
-2620.5632 729.80798 4178.1719 6577734
-2605.4392 732.51727 4193.6826 4472359
-2597.2012 737.23346 4220.6831 6248512
-2593.324 743.29126 4255.3643 7564628
-2497.7754 722.93536 4138.8262 6314561
-2497.8364 730.12268 4179.9736 7170126
-2454.2722 724.57458 4148.2104 6380098
-2428.5125 724.22357 4146.2012 7498835
-2425.5574 730.73584 4183.4839 7038284
-2416.2266 735.44189 4210.4263 7169870
-2420.0337 744.28687 4261.064 6906698
-2368.9739 736.26587 4215.1436 7038283
-2357.7361 740.58234 4239.8555 5262128
-2359.5991 749.15112 4288.9121 5854009
-2359.1931 757.17841 4334.8687 5919802
-2337.1267 758.354 4341.5986 6973001
-2336.7761 766.68054 4389.2686 5788213
-2329.6479 772.94592 4425.1377 6117434
-2286.3796 767.2265 4392.394 5459504
-2214.9338 751.81122 4304.1411 7170122
-2185.2432 750.37469 4295.917 7038537
-2120.7053 736.79736 4218.1865 5985851
-2062.209 725.0202 4150.7617 6446660
-2064.2043 734.48267 4204.9346 7565141
-2047.6992 737.51318 4222.2847 8485732
-2021.8384 737.20734 4220.5337 7235922
-2030.6416 749.69153 4292.0059 8420454
-2008.4897 750.91919 4299.0342 8091232
-1967.6034 745.08392 4265.6274 8025439
-1958.5764 751.3183 4301.3193 6381127
-1917.1991 745.14374 4265.9697 7367764
-1902.1348 749.16766 4289.0068 5130288
-1854.7899 740.41449 4238.8945 7235918
-1840.4805 744.78949 4263.9414 7301196
-1794.1516 736.1485 4214.4717 6314813
-1757.5115 731.2951 4186.6855 5985850
-1741.2765 734.91467 4207.4077 7893593
-1748.6132 748.73254 4286.5156 7828315
-1698.8651 738.1546 4225.9565 8223586
-1681.2998 741.45264 4244.8379 7499863
-1639.8785 734.17065 4203.1484 9933690
-1609.0186 731.46521 4187.6597 7762009
-1598.1395 737.9007 4224.5029 9473140
-1584.0242 743.02295 4253.8281 9867642
-1589.3256 757.56598 4337.0874 7762265
-1576.8726 763.98535 4373.8384 6512452
-1530.9264 754.12073 4317.3633 6643781
-1488.0665 745.46704 4267.8203 6249022
-1471.7509 750.04156 4294.0098 7762517
-1424.9182 738.95129 4230.5176 6117691
-1392.1406 734.88306 4207.2271 5327917
-1364.1063 733.216 4197.6831 4867110
-1324.4413 725.11938 4151.3296 6972487
-1283.1776 715.8244 4098.1157 7498574
-1264.0101 718.73505 4114.7793 7104073
-1261.366 731.34045 4186.9453 6380607
-1243.3715 735.37299 4210.0317 8025174
-1227.9861 741.14545 4243.0791 6775108
-1193.4832 735.37964 4210.0698 5459248
-1171.5878 737.30188 4221.0747 6577729
-1146.2733 737.10931 4219.9722 7564369
-1120.1921 736.40405 4215.9346 7301196
-1090.9999 733.57483 4199.7373 2893065
-1083.3414 745.4306 4267.6118 3089934
-1052.1544 741.27649 4243.8296 3287571
-1020.1284 736.31335 4215.4155 4537124
-993.95886 735.43433 4210.3828 3353875
-912.98114 692.9129 3966.9465 7762006
-922.88519 718.94226 4115.9653 5788214
-885.8457 708.8222 4058.0278 6446142
-871.99652 717.2113 4106.0557 5919801
-870.24036 736.3139 4215.4185 4472099
-848.07196 738.7644 4229.4478 4800810
-813.48981 730.22107 4180.5371 6774856
-787.43402 729.0351 4173.7471 7301459
-770.02106 736.03345 4213.813 3880221
-750.13568 741.05853 4242.5815 4274979
-721.57123 737.56061 4222.5562 6117185
-712.77209 754.7406 4320.9121 6051390
-667.42883 733.06311 4196.8076 7433042
-660.1908 753.17993 4311.9771 6051391
-630.89362 748.73712 4286.542 4735270
-594.24139 734.8266 4206.9038 4077594
-575.19122 742.41718 4250.3599 4208670
-546.51276 737.7063 4223.3901 4273952
-518.71277 733.78601 4200.9463 4537381
-504.20328 749.21936 4289.3027 4340515
-470.69739 736.56525 4216.8574 6380097
-442.49261 731.2525 4186.4419 5393204
-414.48917 725.66119 4154.4316 6906700
-392.25369 730.09955 4179.8413 6906961
-371.11078 737.30701 4221.104 3090713
-355.88571 758.16339 4340.5073 1445891
-331.42899 761.07062 4357.1514 3682592
-298.29327 742.85547 4252.8691 3616541
-269.8028 733.914 4201.6792 4932655
-243.10632 728.53052 4170.8584 6314824
-220.9234 736.98535 4219.2627 6972500
-194.5096 731.68304 4188.9067 6841684
-171.05124 737.57324 4222.6284 6381390
-148.00053 747.54126 4279.6953 7631200
-120.48721 734.43018 4204.6343 7236699
-95.975365 737.54803 4222.4839 6907477
-73.921013 768.41071 4399.1738 5920582
-47.381187 760.87311 4356.0205 5788994
-21.925051 773.5235 4428.4448 4209704
4.3446937 778.15112 4454.938 3486493
30.43899 770.39087 4410.5103 5131577
56.191956 765.15302 4380.5234 5197115
80.913361 753.61768 4314.4834 2828567
104.63632 740.55573 4239.7031 4012843
130.4362 744.40515 4261.7412 5262653
157.5929 753.49286 4313.7686 6381133
183.39589 754.47479 4319.3901 7828835
211.41057 763.20044 4369.3447 8683886
236.06789 759.22418 4346.5806 5526078
265.29147 769.27124 4404.1001 6841169
290.17996 766.07373 4385.7944 7038549
315.84644 765.28711 4381.291 4932916
341.03848 763.55774 4371.3901 5327417
363.92346 757.27185 4335.4033 4537902
388.13519 754.39368 4318.9258 6774864
421.75873 769.03314 4402.7373 6380363
450.21341 773.09094 4425.9683 6446157
465.11777 754.71497 4320.7651 6972758
492.07117 756.78748 4332.6304 6578512
513.67755 750.83887 4298.5742 6512720
539.78772 751.72443 4303.6445 7762530
563.37738 749.17834 4289.0679 6248776
600.14056 763.61389 4371.7119 5853762
622.28302 759.0213 4345.4189 6840657
659.15045 772.04053 4419.9546 5722432
685.23566 771.91846 4419.2559 6314569
715.42041 776.25354 4444.0742 7433564
737.51593 771.81531 4418.665 7236699
761.3941 769.48297 4405.3125 7762785
799.27496 780.98761 4471.1768 6710099
824.68713 779.96149 4465.3022 7170646
853.55011 782.16132 4477.8965 7499354
870.23987 773.40985 4427.7939 6381130
907.7688 783.14899 4483.5508 8486252
933.13605 782.14044 4477.7769 7039064
949.01349 773.45343 4428.0435 7499616
972.76947 771.48218 4416.7578 8815477
998.30487 770.98846 4413.9316 8092011
1016.2126 764.7796 4378.3853 6381646
1049.3527 770.05792 4408.604 5657921
1079.437 772.89185 4424.8286 7302747
1087.7393 760.36511 4353.1123 8947061
1121.7546 765.97668 4385.2388 8355694
1143.2059 762.9491 4367.9058 7500131
1181.087 770.77759 4412.7241 8025961
1176.5203 751.16559 4300.4448 7499356
1180.7864 737.90515 4224.5283 4472107
1219.1561 746.06506 4271.2441 5459256
1243.1814 745.29346 4266.8267 5788219
1260.7382 740.75208 4240.8271 6446407
1273.5284 733.6424 4200.124 6512202
1291.2899 729.61401 4177.0615 5854529
1326.7804 735.56628 4211.1382 7433819
1374.0286 747.69678 4280.5859 6183753
1409.2908 752.9834 4310.8521 4867638
1384.6968 726.6701 4160.2075 7631196
1435.849 740.33258 4238.4258 6775888
1473.9583 746.91589 4276.1152 4603950
1499.2023 746.86755 4275.8384 5526081
1537.8423 753.3833 4313.1416 6710355
1588.1262 765.29724 4381.3491 7565151
1594.8636 756.18085 4329.1572 7499616
1626.283 758.87042 4344.5552 8485739
1633.7762 750.48553 4296.5518 7038036
1631.285 737.84204 4224.167 6248777
1661.2791 740.05188 4236.8184 6446413
1677.313 736.0697 4214.0205 7169620
1678.6853 725.86462 4155.5962 8617070
1716.3424 731.41742 4187.3862 9143670
1721.2021 723.03461 4139.394 7893604
1749.7671 724.70532 4148.959 6709328
1778.4207 726.36603 4158.4668 7696223
1803.48 726.53339 4159.4248 7367514
1861.4873 739.79034 4235.3213 6314570
1907.5223 747.99982 4282.3208 7235671
1955.8635 756.88623 4333.1958 7367255
1958.6777 748.1524 4283.1943 7959136
1990.6686 750.64404 4297.459 8354150
1982.7249 738.20441 4226.2417 7959391
2052.3779 754.60541 4320.1377 6512202
2084.5464 756.98993 4333.7896 7038290
2107.3674 755.96332 4327.9121 7630690
2124.3235 752.88281 4310.2759 8880753
2121.0498 742.79095 4252.5 8354409
2177.5151 753.61108 4314.4453 8156517
2233.6414 764.06396 4374.2886 7696221
2177.5117 736.31824 4215.4434 5985859
2226.9709 744.50134 4262.292 6315337
2317.9895 766.23883 4386.7397 5920065
2290.531 748.76459 4286.6992 6182982
2281.2683 737.55652 4222.5327 5065271
2303.0071 736.50604 4216.5186 4209452
2360.7234 746.86029 4275.7969 5657411
2380.1504 745.0097 4265.2021 7697251
2399.9158 743.3028 4255.4302 7499872
2415.261 740.27661 4238.105 7104601
2440.8262 740.4129 4238.8853 7235415
2504.7224 752.05548 4305.5396 4208677
2475.9937 735.93256 4213.2354 5721916
2524.7983 742.94659 4253.3911 5853249
2541.0635 740.34149 4238.4766 4603180
2519.6206 726.90875 4161.5737 5853246
2594.1477 741.15521 4243.1353 4142885
2601.5281 736.1283 4214.356 5129779
2598.7563 728.35175 4169.835 5787709
2620.4365 727.51019 4165.0171 6511433
2671.0193 734.63367 4205.7993 6774345
2673.5627 728.53497 4170.8838 6511430
2655.7861 717.06152 4105.1982 3813917
2729.75 730.34143 4181.2261 6182209
2714.2024 719.64929 4120.0132 3550747
2753.4753 723.55334 4142.3638 8485220
2794.843 727.9339 4167.4429 2695693
2835.2004 731.97699 4190.5898 6314052
2840.8821 727.0752 4162.5269 6314053
2854.7322 724.33038 4146.8125 5656122
2920.073 734.58563 4205.5244 4208426
2936.1689 732.38391 4192.9194 4931373
2936.792 726.39209 4158.6157 4996908
3051.1396 748.39471 4284.5815 4338980
3045.3572 740.81134 4241.1665 5062960
3060.9363 738.5061 4227.9688 3352341
3049.7844 729.84119 4178.3623 3747356
3067.2869 728.11798 4168.4966 4207650
3108.9114 732.10266 4191.3091 4011298
3210.3345 749.9942 4293.7388 4471336
3201.2148 741.9826 4247.8721 6050369
3192.8669 734.2735 4203.7373 4274217
3206.0251 731.59137 4188.3818 3747876
3252.2429 736.43634 4216.1196 2104080
3264.8293 733.65015 4200.1685 3222047
3393.3831 756.76819 4332.52 5656133
3341.7969 739.66724 4234.6167 4800820
3377.4956 741.99664 4247.9526 5326905
3369.7664 734.82172 4206.8755 5722433
3490.1787 755.48981 4325.2012 5261626
3485.0786 748.88586 4287.3936 3353375
3546.3145 756.52905 4331.1509 4143144
3551.4863 752.18817 4306.2993 4537649
3521.4822 740.51233 4239.4546 4208680
3544.6956 740.1134 4237.1709 4077094
3526.6987 731.17621 4186.0049 4208424
3567.5986 734.48932 4204.9727 4142373
3607.7124 737.5957 4222.7568 3286806
3721.3831 755.59448 4325.8003 4339750
3673.7695 740.82361 4241.2368 4668715
3762.092 753.479 4313.6895 4734250
3787.0898 753.36646 4313.0449 1576453
3804.3423 751.72491 4303.647 3418389
3740.3118 734.15094 4203.0356 2694668
3802.4778 741.41553 4244.6255 3418389
3895.863 754.63184 4320.2896 3615770
3813.4368 733.84314 4201.2734 3747100
3774.4331 721.62604 4131.3301 2299655
3775.3545 717.15033 4105.7065 4010527
3861.1829 728.7572 4172.1562 5391925
3927.7598 736.60608 4217.0913 5129266
3912.2915 729.06628 4173.9258 5260854
3922.0291 726.28894 4158.0254 5655867
4004.3972 736.91223 4218.8438 5063731
3962.2996 724.64075 4148.5894 4208423
0 0 0 0
0 0 0 0
0 0 0 0
0 0 0 0
0 0 0 0
0 0 0 0
-3686.1658 739.8385 4096.6084 5261872
-3566.3882 720.54388 3989.7708 5656373
-3508.9097 713.66254 3951.6675 5853752
-3486.6487 713.89948 3952.9797 6577475
-3497.2358 720.91089 3991.803 5130029
-3622.5259 751.82336 4162.9707 6051131
-3589.1199 749.99805 4152.8633 6314302
-3513.9106 739.35175 4093.9133 4603685
-3471.4497 735.49585 4072.5623 5393201
-3445.8064 735.17395 4070.78 5063979
-3437.4307 738.55768 4089.5161 5524786
-3353.5034 725.64136 4017.9963 6248510
-3336.8882 727.20966 4026.6802 5129516
-3280.0479 719.97107 3986.5991 5129772
-3309.2883 731.65936 4051.3191 4800808
-3255.4678 725.02008 4014.5562 5393201
-3314.0833 743.50787 4116.9263 5130286
-3339.6697 754.80481 4179.4795 6182973
-3256.812 741.57788 4106.2397 5195820
-3210.2871 736.48712 4078.0513 5195819
-3164.969 731.59802 4050.9795 5327406
-3149.5806 733.60547 4062.095 5722164
-3089.949 725.25928 4015.8809 5853750
-3090.9878 731.13434 4048.4119 5392685
-3093.6267 737.48279 4083.5645 6248766
-3022.8867 726.30072 4021.6475 7564369
-3070.1963 743.52985 4117.0479 6972490
-2964.717 723.73669 4007.45 6380098
-2955.9995 727.43573 4027.9321 6380354
-2970.7148 737.00848 4080.9382 5327922
-2960.2642 740.44373 4099.9595 6511941
-2957.8137 745.95343 4130.4678 6511684
-2900.4858 737.59967 4084.2114 6445890
-2840.3958 728.39697 4033.2546 7827543
-2840.8843 734.70477 4068.1821 6117437
-2763.5645 720.82562 3991.3308 5919803
-2771.3418 729.09454 4037.1174 4669736
-2785.2344 739.13031 4092.687 4735529
-2720.2222 728.21912 4032.27 4998190
-2716.8416 733.75995 4062.9504 3748380
-2696.2412 734.70758 4068.1978 4077088
-2679.384 736.70148 4079.238 5196079
-2666.748 739.90289 4096.9648 6117438
-2657.1826 744.02289 4119.7778 5328178
-2630.2705 743.31714 4115.8701 5854009
-2583.136 736.82977 4079.9485 6314562
-2561.24 737.48706 4083.5879 6182976
-2570.4768 747.20679 4137.4077 6117183
-2559.387 751.14807 4159.2314 6380355
-2521.9768 747.36633 4138.291 6511941
-2471.0911 739.4776 4094.6101 7104079
-2447.4023 739.65198 4095.5754 6248768
-2460.9583 751.19855 4159.5107 5788217
-2419.1995 745.9234 4130.3013 6577734
-2409.834 750.63037 4156.3647 5590837
-2379.5425 748.84918 4146.502 5722167
-2346.9355 746.29449 4132.3564 4603943
-2305.2476 740.76788 4101.7544 4867114
-2329.8994 756.66827 4189.7974 6248511
-2303.3918 756.11743 4186.7476 5854265
-2308.8435 766.15991 4242.3545 5525298
-2292.5144 769.11627 4258.7241 5788470
-2253.5898 764.47345 4233.0161 4867113
-2213.915 759.46869 4205.3042 4866858
-2177.3896 755.44287 4183.0122 4472357
-2155.5417 756.4751 4188.728 4735274
-2066.9719 733.84302 4063.4104 2629896
-2059.0374 739.64301 4095.5259 3485205
-2055.04 747.01251 4136.332 4208926
-2011.9668 740.18427 4098.5229 5919543
-1992.8018 742.09229 4109.0879 6643268
-1974.4926 744.37012 4121.7007 6182976
-1990.6926 759.87775 4207.5688 7499095
-1944.1598 751.52899 4161.3403 7696730
-1927.2863 754.57788 4178.2227 7170387
-1917.8932 760.67316 4211.9731 6841164
-1894.2769 761.2135 4214.9653 4538147
-1877.8185 764.68317 4234.1772 6051900
-1871.5126 772.43713 4277.1123 4669480
-1817.6874 760.52185 4211.1353 3288081
-1804.5135 765.52014 4238.812 4932904
-1768.4176 760.79816 4212.6655 7103817
-1728.6838 754.35352 4176.9805 6577732
-1721.5118 762.13721 4220.0801 6314560
-1692.019 760.12299 4208.9268 6051133
-1648.9191 751.84406 4163.085 6445891
-1633.2089 755.99207 4186.0532 6511941
-1591.3253 747.96582 4141.6108 6577734
-1572.8302 750.85345 4157.6001 8157022
-1566.5741 759.76892 4206.9663 9867640
-1536.4059 757.18811 4192.6758 8091485
-1511.9136 757.3656 4193.6587 7499349
-1474.4611 750.94836 4158.1255 9275502
-1426.9042 739.07935 4092.4048 6512194
-1397.5208 736.37573 4077.4346 8420189
-1392.9752 746.89478 4135.6802 7235659
-1358.7219 741.57642 4106.2314 8222814
-1338.635 743.93689 4119.3018 7762007
-1292.3092 731.53223 4050.615 8222558
-1269.3284 732.1228 4053.8853 8222558
-1251.1034 735.53217 4072.7632 10854275
-1224.6993 734.17261 4065.2351 10459261
-1195.1637 730.84344 4046.8013 9538672
-1186.91 740.65845 4101.1484 8617828
-1159.4642 738.65704 4090.0664 10327933
-1131.9081 736.49841 4078.1135 10196089
-1082.0425 719.41278 3983.5078 9077862
-1073.6947 729.78455 4040.938 8551517
-1077.2769 748.9231 4146.9111 6577980
-1056.782 751.82611 4162.9858 6906690
-1040.3665 757.83954 4196.2832 7367242
-1005.6767 750.50989 4155.6978 6183225
-962.45935 736.28864 4076.9519 8025432
-909.08539 713.36487 3950.0193 9472877
-891.12897 717.75635 3974.3357 7104072
-886.6712 733.55389 4061.8093 8222552
-854.8479 726.96149 4025.3062 7762002
-849.11768 742.81708 4113.1011 5788211
-821.95697 740.30817 4099.209 5919540
-792.85687 735.8465 4074.5039 6183226
-775.6286 742.46893 4111.1733 7630673
-747.86829 739.11206 4092.5857 8485728
-723.69061 739.18951 4093.0149 8090971
-711.89026 752.35321 4165.9043 7170130
-692.21191 757.83783 4196.2734 5196080
-668.00482 758.58838 4200.4297 8157277
-626.8941 739.45819 4094.5024 9868152
-598.2677 734.10645 4064.8689 6973772
-572.81256 732.36011 4055.1992 7499088
-553.29218 738.38092 4088.5376 3419414
-532.63403 743.36542 4116.1372 4471580
-510.95245 747.3313 4138.0972 3813395
-482.24231 740.89862 4102.4785 5326634
-460.62338 745.25616 4126.6069 6576958
-433.8277 741.25702 4104.4629 5392940
-413.66467 748.78876 4146.1675 6248251
-383.82812 738.6557 4090.0588 7301713
-358.98846 737.4209 4083.2217 7170638
-344.55829 758.93597 4202.354 3419682
-318.94742 757.25775 4193.0615 3222045
-295.27344 760.2832 4209.814 6446923
-259.62973 730.20245 4043.252 7302745
-237.2305 735.04205 4070.0498 7302489
-214.1817 738.73676 4090.5078 6710097
-191.26787 743.89929 4119.0938 7302236
-166.99875 744.53027 4122.5874 6578513
-142.95073 746.53204 4133.6714 4473140
-120.02364 756.42615 4188.457 8552303
-95.79834 761.16479 4214.6953 7696994
-70.067184 753.06134 4169.8252 6710098
-45.292194 752.00342 4163.9673 7104857
-21.110165 770.04254 4263.853 5788997
4.1877437 775.48798 4294.0054 4736307
29.121994 762.06531 4219.6816 5460287
53.980164 759.97369 4208.1001 4341810
79.002411 760.78406 4212.5874 6644312
102.85168 752.62189 4167.3921 6776155
128.48639 758.15588 4198.0347 4341043
152.48283 753.79572 4173.8916 5656642
181.92735 773.82599 4284.8027 6840657
206.15125 769.46362 4260.6475 7761759
228.93797 761.27429 4215.3018 5853760
256.17783 768.04712 4252.8042 4735022
274.52969 749.3465 4149.2559 3090454
296.70966 743.31055 4115.8335 5261880
324.34171 750.81244 4157.373 6117447
348.0036 748.71356 4145.751 6906705
374.90121 753.39386 4171.6665 4866607
399.56015 753.2746 4171.0063 5393205
424.21515 753.16229 4170.3843 4866345
449.17557 753.57471 4172.668 3813145
471.14679 749.1908 4148.3936 4537639
499.07822 754.24939 4176.4038 8617064
530.94653 764.49847 4233.1548 5919810
561.15289 771.53778 4272.1323 4077609
593.43591 780.70129 4322.8721 2235153
607.94806 766.69513 4245.3179 3879974
637.96008 772.57257 4277.8623 4143147
662.18671 771.26233 4270.6074 5261883
697.74823 782.76459 4334.2974 5656640
718.42896 777.34888 4304.3096 7038293
754.30499 788.18231 4364.2959 6182984
776.76117 784.73969 4345.2339 6643278
806.90521 789.03577 4369.0215 6972243
818.81805 775.79132 4295.6851 5787970
852.87341 783.69208 4339.4326 6643278
873.34271 779.01172 4313.5171 6248776
917.97949 795.54163 4405.0459 6445899
943.01923 794.6438 4400.0742 7499101
963.02307 789.66498 4372.5054 6051913
985.83984 787.19305 4358.8184 6512463
1000.9205 778.82776 4312.4985 7499870
1007.6253 764.52417 4233.2969 7236442
1040.785 770.50012 4266.3867 4867379
1048.3575 757.69952 4195.5078 5920067
1084.1864 765.4411 4238.374 6709327
1137.678 785.01984 4346.7847 7301464
1151.441 776.92499 4301.9624 7104340
1150.5037 759.47668 4205.3481 6314313
1144.6263 739.57648 4095.1575 6446411
1184.079 749.18359 4148.3535 4406057
1215.8702 753.65088 4173.0898 5985087
1226.1689 744.88373 4124.5444 4405540
1256.0288 748.11011 4142.4097 4668710
1257.8838 734.85242 4068.9995 5260334
1290.7284 739.85706 4096.7109 5853239
1309.189 736.58398 4078.5876 5130545
1351.8943 746.82312 4135.2832 7893855
1350.0507 732.5257 4056.1162 8025955
1398.4855 745.53192 4128.1338 4998962
1434.193 751.42267 4160.752 7104081
1456.59 750.2583 4154.3047 5854272
1478.7928 749.03436 4147.5273 4932916
1525.4048 760.01196 4208.312 7301466
1557.4181 763.47968 4227.5137 7960165
1578.9421 761.7771 4218.0859 6249546
1592.7374 756.45679 4188.6265 7564894
1614.2139 754.89185 4179.9614 7038808
1639.7017 755.22192 4181.7891 5985605
1636.5034 742.52643 4111.4917 5393209
1612.1436 720.74274 3990.8718 5064245
1671.0721 736.28632 4076.9395 5853760
1701.8842 739.17517 4092.9353 6380360
1723.0243 737.84106 4085.5481 7433048
1744.3129 736.60657 4078.7126 5656124
1793.0267 746.82904 4135.3159 5261621
1822.4492 748.84888 4146.5005 7367254
1856.8861 752.84808 4168.6445 8419686
1906.4784 762.80603 4223.7832 8616808
1911.8007 755.02246 4180.6846 4208160
1947.7672 759.38556 4204.8438 4669218
1953.5972 752.03735 4164.1553 6642754
2033.4749 773.02148 4280.3481 7169618
2005.8339 753.11914 4170.1455 7696221
2032.2234 753.74097 4173.5884 7960422
2068.302 757.89825 4196.6079 9342333
2100.5774 760.57947 4211.4546 8749429
2115.4956 756.987 4191.5625 9276027
2172.9858 768.53461 4255.5034 7235930
2172.6685 759.60657 4206.0674 7959907
2184.1719 754.96692 4180.377 8090978
2203.3799 753.06476 4169.8442 8157282
2203.2957 744.68414 4123.4395 7235923
2241.5142 749.29114 4148.9492 6973008
2250.7595 744.21826 4120.8599 7236951
2269.0317 742.20691 4109.7227 8552557
2289.1768 740.84442 4102.1782 8684143
2261.2053 724.10236 4009.4746 8551787
2299.4199 728.68262 4034.8362 7631198
2344.0891 735.19305 4070.8857 8485738
2391.1177 742.30328 4110.2563 8880496
2436.8027 748.8573 4146.5469 8090979
2448.4639 744.92883 4124.7944 7696474
2453.53 739.09143 4092.4717 6972493
2440.0908 727.84839 4030.217 7038286
2457.9717 726.07513 4020.3982 7695701
2545.26 744.64172 4123.2046 5458740
2561.0674 742.14166 4109.3613 5261104
2550.1885 732.02838 4053.3623 6313533
2598.6565 738.98035 4091.8564 6444862
2552.9429 719.26892 3982.7112 5786932
2652.1792 740.383 4099.623 4405536
2670.2639 738.66486 4090.1099 5457711
2697.3093 739.43427 4094.3701 5786932
2723.1333 739.85809 4096.7168 5655859
2744.6489 739.1142 4092.5979 5919288
2788.9023 744.45282 4122.1587 6116669
2797.5007 740.26379 4098.9634 5721913
2810.376 737.26898 4082.3804 7498067
2818.9224 733.19928 4059.8459 5130291
2888.5588 744.95355 4124.9312 6577229
2892.7146 739.76477 4096.2002 6709323
2962.0637 751.19592 4159.4961 5985343
2979.4658 749.37292 4149.4019 5457974
3013.8118 751.80652 4162.877 5194545
3010.9968 745.00592 4125.2212 2759948
3015.9685 740.22595 4098.7539 2430983
3020.6763 735.45825 4072.354 3483411
3022.9517 730.17841 4043.1189 3352341
3084.5513 739.19855 4093.0649 4536359
3145.6685 747.96313 4141.5957 4602922
3187.6316 752.07288 4164.3521 4339494
3224.4883 754.92401 4180.1392 5326903
3213.5369 746.62408 4134.1812 5524538
3242.3857 747.62677 4139.7334 5261110
3277.3179 750.00659 4152.9106 5984318
3309.5557 751.73901 4162.5034 5063216
3298.4932 743.68317 4117.897 5852730
3350.9429 749.96002 4152.6528 6116163
3388.1138 752.75092 4168.1064 5260854
3403.6658 750.73285 4156.9321 5195062
3405.7095 745.78589 4129.54 4471339
3451.8906 750.50568 4155.6743 4537132
3477.8501 750.79327 4157.2666 4142888
3482.1321 746.42999 4133.1064 3550494
3535.3748 752.54956 4166.9917 4800301
3546.23 749.62421 4150.7935 5260854
3608.6338 757.56067 4194.7388 3813409
3659.9897 763.08508 4225.3286 3154965
3652.4768 756.34406 4188.0024 3286550
3659.5601 752.69623 4167.8037 3747100
3659.6145 747.66132 4139.9243 3023633
3677.1782 746.2467 4132.0918 3944991
3609.6624 727.69897 4029.3899 4076321
3583.0112 717.57916 3973.3547 4076320
3649.521 726.12726 4020.687 3352085
3730.4167 737.40833 4083.1519 3352342
3703.6455 727.39795 4027.7229 3089171
3708.2568 723.63989 4006.9141 2825741
3792.1372 735.30011 4071.4783 4009758
3846.0862 741.04572 4103.293 4404516
3846.4795 736.46527 4077.9299 4338979
3832.4966 729.20648 4037.7373 3615000
3857.6411 729.43646 4039.0105 4010014
0 0 0 0
0 0 0 0
0 0 0 0
0 0 0 0
0 0 0 0
0 0 0 0
-3524.4304 730.58929 3916.8643 5327665
-3503.9165 731.1524 3919.8831 5920058
-3460.3252 726.87524 3896.9524 3814681
-3418.2769 722.867 3875.4631 6643523
-3476.9419 740.24652 3968.6392 5722164
-3421.8721 733.48364 3932.3816 6117180
-3423.4512 738.85394 3961.1729 5788215
-3437.6775 747.04675 4005.0967 6117181
-3380.0605 739.63269 3965.3481 5590838
-3362.8787 741.02478 3972.8113 6051388
-3316.6287 735.98608 3945.7979 4998700
-3248.0176 725.87848 3891.6084 6051387
-3261.0911 734.01208 3935.2146 5261615
-3253.1562 737.50012 3953.9148 5393201
-3242.0361 740.31146 3968.9871 5590067
-3266.0112 751.23639 4027.5581 4866600
-3291.3857 762.64642 4088.7302 4603428
-3256.6287 760.18921 4075.5566 4668708
-3215.0051 756.08057 4053.5291 4602656
-3136.4751 743.16528 3984.2871 5129001
-3104.6943 741.21497 3973.8311 5326635
-3078.7783 740.64575 3970.7795 5786930
-3054.6062 740.49054 3969.9473 4800291
-3033.5466 741.09326 3973.1785 4471839
-3063.9263 754.3703 4044.3599 5195563
-3013.8347 747.88757 4009.6047 6182714
-2987.8245 747.3252 4006.5896 5524785
-2953.0156 744.5354 3991.6328 5787957
-2938.918 746.9646 4004.6562 4932649
-2906.6858 744.78668 3992.98 3550996
-2863.4512 739.73077 3965.874 6314048
-2861.1099 745.24268 3995.4248 6116668
-2848.1343 748.05359 4010.4944 4471844
-2813.1011 745.0697 3994.4971 4537893
-2777.2727 741.82269 3977.0891 5261872
-2760.2314 743.58124 3986.5171 5919803
-2726.8967 740.94293 3972.3728 5788218
-2732.5847 748.95416 4015.3225 5262643
-2698.8015 746.19263 4000.5176 6183236
-2687.1069 749.5437 4018.4834 5459256
-2680.3313 754.33893 4044.1919 6182978
-2628.7646 746.50134 4002.1726 6183488
-2605.1289 746.52484 4002.2986 4866859
-2609.1448 754.54541 4045.2988 5064495
-2585.7305 754.70856 4046.1733 5064237
-2551.4451 751.67206 4029.894 5985597
-2555.7578 760.05688 4074.8472 6117182
-2558.7444 768.20361 4118.5234 4340773
-2469.5825 748.57526 4013.2913 5919804
-2495.7437 763.86163 4095.2451 6182719
-2417.8081 747.2749 4006.3201 6248513
-2390.811 746.25903 4000.8735 6248512
-2428.1104 765.49292 4103.9912 5787958
-2399.3806 764.08905 4096.4644 4472098
-2347.2107 755.11548 4048.3552 5327152
-2317.1882 753.15527 4037.8459 4998189
-2277.7524 748.0625 4010.5425 4208673
-2255.6738 748.62299 4013.5474 4472099
-2292.4983 768.95276 4122.54 4867114
-2243.4976 760.62286 4077.8813 5327666
-2235.6143 766.20343 4107.8003 5393972
-2196.0823 760.94061 4079.5852 4011808
-2187.6873 766.46985 4109.2285 4340776
-2106.7441 746.41968 4001.7349 3024662
-2106.417 754.80035 4046.6655 1314821
-2090.9177 757.87476 4063.1482 1445380
-2038.8271 747.60352 4008.0815 2300942
-2033.1356 754.30426 4044.0059 2432011
-1998.1088 750.15155 4021.7422 3945504
-1965.9624 746.99304 4004.8088 5195823
-1959.4176 753.60388 4040.251 4668708
-1962.8857 764.27692 4097.4717 5787960
-1960.2626 772.81592 4143.2515 5919805
-1918.8221 766.07404 4107.1064 5986111
-1917.78 775.49487 4157.6138 6710091
-1879.5117 769.9118 4127.6816 7434326
-1889.9609 784.401 4205.3618 6776140
-1845.525 776.19379 4161.3608 4999472
-1815.5073 773.9104 4149.1191 5525559
-1792.7466 774.7002 4153.3535 4867116
-1795.432 786.66125 4217.4795 4538151
-1747.4353 776.44025 4162.6821 5327667
-1693.9873 763.46973 4093.1443 3617052
-1646.2413 752.72955 4035.5635 5590841
-1609.483 746.77081 4003.6172 4866862
-1611.6967 758.98645 4069.1084 4801069
-1574.8093 752.88007 4036.3704 5853498
-1565.7397 760.08936 4075.0212 4735017
-1554.463 766.43634 4109.0488 6972490
-1552.0002 777.40027 4167.8291 5261616
-1521.584 774.49036 4152.2285 6643525
-1488.9026 770.31293 4129.832 7367248
-1437.441 756.11713 4053.7251 6051386
-1397.5696 747.6391 4008.2722 6643268
-1373.9493 747.71173 4008.6619 7433295
-1359.0151 752.59729 4034.8542 6644036
-1350.0039 760.99646 4079.8843 6380608
-1312.2288 753.19214 4038.0435 7433038
-1266.465 740.42731 3969.6084 7235402
-1250.3052 744.8147 3993.1301 5327147
-1244.1791 755.46375 4050.2222 4011545
-1213.7938 751.51196 4029.0356 5985079
-1171.3442 739.78204 3966.1489 7432782
-1162.6722 749.34149 4017.3994 7499089
-1160.2849 763.43567 4092.9617 8420190
-1120.1881 752.79016 4035.8884 7564881
-1076.7423 739.38043 3963.9956 7630674
-1062.6538 745.98132 3999.3845 9275244
-1035.3895 743.42297 3985.6687 8024921
-1034.1024 759.83252 4073.6443 9538415
-1005.6922 756.62085 4056.4258 8288092
-967.44421 745.66931 3997.7119 7959126
-936.61243 740.02753 3967.4651 7959125
-907.42267 735.42603 3942.7952 6840642
-886.39972 737.37494 3953.2439 8024918
-880.47028 752.3266 4033.4033 7958868
-850.48438 746.98376 4004.759 8814947
-829.61224 749.56873 4018.6174 6709567
-799.68842 743.88629 3988.1526 5656365
-784.55969 752.03967 4031.8647 5261605
-772.35223 763.59338 4093.8069 4471834
-744.33704 759.76111 4073.2615 7761998
-708.8548 747.7948 4009.1069 9933429
-698.96405 762.93207 4090.2617 8946279
-678.09869 766.74762 4110.7178 6446399
-653.86658 766.89868 4111.5278 7367247
-615.52563 749.87329 4020.2505 7893334
-586.62671 743.44287 3985.7754 7301193
-572.6911 756.23169 4054.3394 7433035
-549.58734 757.50403 4061.1606 6643261
-525.28156 757.16028 4059.3176 2103559
-502.58218 759.21021 4070.3081 5656109
-474.86005 753.49683 4039.6772 5722415
-453.11655 757.16724 4059.355 5722417
-431.16223 760.87714 4079.2446 4933160
-406.95541 760.81671 4078.9207 7893848
-377.27634 749.87195 4020.2432 7696473
-350.57053 743.75964 3987.4739 9012079
-331.44223 754.00214 4042.386 10855055
-318.27448 780.4566 4184.2148 8288871
-285.60971 759.53235 4072.0349 9604988
-258.02301 749.49658 4018.2307 7696991
-235.01535 752.07343 4032.0457 9473401
-213.49692 760.53851 4077.4294 4209964
-190.034 763.35358 4092.5215 5262394
-165.18478 760.60907 4077.8074 6117960
-140.31035 756.78772 4057.3203 8289128
-118.0183 768.19495 4118.4771 8552556
-92.996666 763.15082 4091.4346 9736831
-68.626816 761.784 4084.1064 6841427
-44.738972 767.19318 4113.1064 3420450
-20.497841 772.24219 4140.1753 5130551
4.1006522 784.27832 4204.7041 5788994
28.628422 773.73248 4148.165 6315595
52.616611 765.08478 4101.8027 6908245
77.747337 773.26593 4145.6641 4342068
101.89851 770.11499 4128.771 4802618
126.79172 772.70648 4142.6646 5920836
151.41467 773.07745 4144.6533 3091225
177.26917 778.75488 4175.0918 3814181
200.23103 771.89062 4138.2905 5985604
223.95854 769.15387 4123.6182 6051398
251.10004 777.52698 4168.5083 4011816
273.17554 770.11835 4128.7891 4209195
292.15244 755.91052 4052.6174 6512206
317.72189 759.62299 4072.5208 5986375
343.03479 762.24115 4086.5574 7368027
368.16678 764.13855 4096.73 7828061
390.50674 760.36481 4076.498 6643785
419.62997 769.46906 4125.3081 7367249
441.98022 765.83521 4105.8262 5919803
463.80753 761.72168 4083.7725 3090458
497.25671 776.15643 4161.1606 6577740
521.01941 774.82214 4154.0073 6906707
545.6062 774.7785 4153.7734 5393983
574.74255 780.92029 4186.7007 5722692
596.92639 777.49799 4168.353 6841166
623.54425 779.89355 4181.1963 5196084
651.06561 783.19287 4198.8848 4669741
673.88281 780.79877 4186.0493 2564366
714.72705 798.72021 4282.1304 4077860
724.38715 781.75873 4191.1958 4801583
747.43927 779.89539 4181.2061 4472361
775.83502 783.54834 4200.7905 3945247
790.59863 773.63452 4147.6401 5853245
822.46765 780.55231 4184.728 3748385
844.84113 778.3172 4172.7451 4143914
890.80579 797.32483 4274.6494 4209707
909.21521 791.29956 4242.3467 3091228
947.97308 802.83154 4304.1724 3485728
948.78748 782.46716 4194.9941 4143658
971.32703 780.60193 4184.9941 5656898
984.90625 771.80811 4137.8481 5920071
1013.4994 774.92108 4154.5376 4998967
1008.394 752.73157 4035.5742 6182982
1043.0524 760.56488 4077.5706 4472364
1074.6661 765.87354 4106.0317 4538157
1101.9598 767.93671 4117.0928 4407346
1106.8397 754.62903 4045.7471 4999222
1122.7581 749.25183 4016.9187 5920323
1179.3043 770.6474 4131.6255 6973009
1192.3093 763.29816 4092.2244 4340773
1213.9646 761.66931 4083.4917 4207905
1244.6678 765.6701 4104.9409 5129518
1251.5021 755.11566 4048.356 3484436
1255.9106 743.52228 3986.2009 3879450
1288.8375 748.92859 4015.1855 3813662
1310.6965 747.8241 4009.2642 3024660
1346.1454 754.37469 4044.3833 7038031
1368.813 753.65869 4040.5447 4998449
1409.8577 762.91168 4090.1526 7761501
1417.3403 753.99762 4042.3618 5854018
1461.4935 764.56366 4099.0088 7762015
1486.6884 765.02838 4101.5005 6052168
1509.6152 764.3299 4097.7559 6644307
1536.1053 765.42908 4103.6489 5854792
1571.8427 771.03009 4133.6772 4736312
1583.9486 765.04523 4101.5908 7367775
1575.6351 749.52771 4018.3977 6117708
1603.0491 751.21472 4027.4421 5919813
1602.2001 739.80212 3966.2563 8353896
1669.8158 759.87549 4073.8745 4866865
1683.7568 755.29919 4049.3401 7104339
1697.252 750.6543 4024.4377 5196087
1727.4631 753.42896 4039.3132 5722687
1763.5334 758.64813 4067.2944 5262136
1759.2222 746.58923 4002.6438 7959650
1800.4541 753.922 4041.9565 7367512
1830.6482 756.50085 4055.7822 7827550
1839.8611 750.4549 4023.3687 5524535
1918.4083 772.48248 4141.4639 5655091
1927.6649 766.40479 4108.8799 5852467
1963.0839 770.75067 4132.1792 4405276
2003.0339 776.74658 4164.3247 4011548
2018.53 773.22906 4145.4663 8683112
2053.5652 777.19092 4166.7065 8749421
2056.8059 769.16864 4123.6973 9209715
2095.1699 774.31525 4151.2896 6446410
2097.0349 766.01001 4106.7632 7433306
2142.8164 773.75323 4148.2764 6643531
2143.4482 765.20258 4102.4346 6840398
2178.7063 769.06641 4123.1494 5262132
2182.8044 761.96753 4085.0906 4867118
2221.5308 766.97949 4111.9609 6182976
2244.3018 766.43408 4109.0366 6182978
2273.6404 768.11902 4118.0703 8354405
2291.2095 765.83423 4105.8208 9342586
2284.6301 755.61072 4051.01 10197638
2271.5493 743.47198 3985.9314 7763039
2338.3489 757.45856 4060.917 7959134
2332.2913 747.80017 4009.1357 8880236
2405.8621 763.61017 4093.8972 6511430
2448.688 769.44366 4125.1719 7366738
2442.0789 759.78156 4073.3711 4998189
2415.2935 744.09283 3989.26 6115899
2434.8728 742.85358 3982.6162 6576449
2506.5796 757.38898 4060.5439 5458225
2520.2485 754.27795 4043.865 3352336
2520.51 747.25073 4006.1902 4470817
2522.0701 740.73602 3971.2632 4602915
2551.6768 742.50287 3980.7358 5063466
2589.1238 746.49792 4002.1543 6314047
2617.5381 747.83984 4009.3486 5985081
2662.7686 753.9187 4041.939 6182462
2725.7354 764.86627 4100.6313 7300942
2753.0562 765.70612 4105.1338 7038281
2751.4053 758.54395 4066.7358 7169610
2756.5718 753.36932 4038.9937 6643525
2791.6453 756.38702 4055.1721 6971207
2785.0598 748.16217 4011.0767 5853496
2863.2034 762.64502 4088.7227 6182207
2887.6165 762.69318 4088.981 5984572
2849.6431 746.39984 4001.6284 4997421
2896.2097 752.33606 4033.4539 5918265
2903.2683 747.99628 4010.1873 4536868
2922.2158 746.76514 4003.5869 5194286
2901.9773 735.62054 3943.8381 4207391
2965.0444 745.60242 3997.3533 5062442
2989.3477 745.75562 3998.1746 4931370
2971.9514 735.58539 3943.6494 4733990
3064.6917 752.62091 4034.9812 4996907
3072.4241 748.67841 4013.8442 5062955
3160.6577 764.26184 4097.3911 4931115
3178.7534 762.7774 4089.4324 5062700
3176.9089 756.56671 4056.1355 5260080
3131.7703 740.21643 3968.4778 5194030
3223.6768 756.26007 4054.4912 3483668
3273.2998 762.22015 4086.4448 3286289
3255.2673 752.45416 4034.0872 3681048
3284.0811 753.58014 4040.1238 3812120
3298.9141 751.50494 4028.998 5260337
3337.1858 754.76062 4046.4526 5128750
3315.2092 744.44086 3991.1257 4470822
3421.1089 762.77899 4089.4409 4799786
3422.6746 757.76013 4062.5337 4734250
3463.936 761.53851 4082.7903 4010782
3447.5383 752.67603 4035.2766 5655095
3523.8867 764.04486 4096.2275 6050112
3575.3911 769.90826 4127.6626 7365968
3573.5947 764.29236 4097.5547 3813660
3595.6086 763.81042 4094.9709 4602407
3551.21 749.32153 4017.2922 4800044
3559.7205 746.11523 4000.1025 5984318
3553.9309 739.974 3967.178 5589560
3641.4553 753.21503 4038.1663 4405031
3621.7019 744.2381 3990.0388 3944479
3654.0383 746.01239 3999.551 1970692
3663.8848 743.20178 3984.4829 1970693
3694.4624 744.60547 3992.0085 4404776
3693.2327 739.62152 3965.2881 3352344
3762.6377 748.75665 4014.2639 2365451
3761.8635 743.89929 3988.2224 3286292
3759.6455 738.81885 3960.9851 3352084
3739.2932 730.25989 3915.0984 3023120
0 0 0 0
0 0 0 0
0 0 0 0
0 0 0 0
0 0 0 0
0 0 0 0
-3407.541 728.80133 3786.96 6183229
-3411.145 734.40894 3816.0979 5920059
-3375.0186 731.48059 3800.8818 4736042
-3387.3982 739.09644 3840.4548 5590839
-3368.4204 739.927 3844.7708 6906441
-3379.7166 747.46448 3883.9363 5590838
-3324.6108 740.31903 3846.8076 5919802
-3353.5186 751.91211 3907.0469 5327665
-3313.0183 747.99573 3886.697 6840904
-3314.2129 753.50415 3915.3193 5524788
-3255.7629 745.43402 3873.3857 6182974
-3190.8499 735.75903 3823.113 5261872
-3216.0938 746.88312 3880.9155 4011548
-3186.4556 745.33014 3872.8462 4143133
-3174.7097 747.97021 3886.5645 5261615
-3223.1492 764.93231 3974.7019 6181947
-3169.9788 757.85211 3937.9121 4076314
-3071.0725 739.65167 3843.3396 4405278
-3124.77 758.20758 3939.7593 4076056
-3062.3726 748.66107 3890.1541 4207643
-2968.5535 731.22986 3799.5789 3549969
-2944.0874 730.74609 3797.0652 5129000
-3021.6704 755.77936 3927.1418 4931878
-3003.1375 756.97418 3933.3501 4471584
-2963.7241 752.88342 3912.094 4866856
-2920.8323 747.83734 3885.874 4603684
-2919.4084 753.41302 3914.8457 2893069
-2888.9785 751.53229 3905.0732 3616790
-2860.7334 750.19403 3898.1196 3221776
-2808.2522 742.42676 3857.7598 6117181
-2823.4153 752.56201 3910.4241 6577990
-2837.344 762.53339 3962.2368 6511940
-2806.2207 760.4624 3951.4756 5590838
-2735.875 747.63824 3884.8391 2761745
-2718.793 749.27527 3893.3455 6380095
-2695.5938 749.24017 3893.1631 4274721
-2681.832 751.85022 3906.7253 6183232
-2667.0156 754.20746 3918.9739 7104335
-2641.73 753.61951 3915.9187 6511943
-2639.6453 759.69843 3947.5059 4537896
-2628.0586 763.12701 3965.321 3222293
-2630.0261 770.58868 4004.0933 5524791
-2529.97 748.02148 3886.8308 5261618
-2499.9385 745.93359 3875.9817 5787707
-2422.4941 729.52875 3790.7397 4800812
-2460.2009 747.81897 3885.7781 5590327
-2456.416 753.72351 3916.459 5261362
-2448.1277 758.34558 3940.4763 4406054
-2444.5044 764.51575 3972.5371 4668969
-2386.0657 753.49573 3915.2756 5392692
-2366.6113 754.6911 3921.4868 4405793
-2350.7656 757.07227 3933.8599 3023889
-2302.9712 749.10895 3892.4812 4537121
-2311.0598 759.34601 3945.6743 3155470
-2301.592 763.96484 3969.6746 3681558
-2226.2056 746.57269 3879.3027 5129518
-2230.9407 755.96741 3928.1189 5261360
-2229.5972 763.47876 3967.1489 3946270
-2209.9131 764.80286 3974.0293 6380866
-2181.3977 763.06622 3965.0054 6512708
-2168.0461 766.65399 3983.6479 6052670
-2136.9956 763.99323 3969.8223 6118210
-2124.4246 767.95337 3990.3997 5131318
-2086.4172 762.70416 3963.124 5065526
-2058.5405 761.08099 3954.6897 6381387
-2021.8358 756.11884 3928.9058 5657151
-2004.4812 758.362 3940.5615 3617310
-2003.0367 766.74829 3984.1379 4011812
-1984.9128 768.87372 3995.1819 5328182
-1952.4089 765.41296 3977.1995 5788472
-1925.9218 764.25525 3971.1836 5393459
-1911.7108 768.00067 3990.6455 7104591
-1887.5193 767.78021 3989.4998 6972751
-1856.7203 764.83234 3974.1821 5854270
-1818.1099 758.5495 3941.5359 7367509
-1804.0547 762.48157 3961.9673 7038797
-1793.3203 767.93921 3990.3262 6051902
-1776.5565 770.92645 4005.8481 6446657
-1753.5217 771.23633 4007.4585 5393712
-1693.4817 755.05573 3923.3816 4669733
-1733.5764 783.69208 4072.1802 4077599
-1727.5717 792.00275 4115.3638 3682843
-1665.5259 774.4917 4024.3738 3682587
-1608.3878 758.78699 3942.7698 4801325
-1588.157 760.28778 3950.5681 3814430
-1560.9646 758.45087 3941.0234 3946016
-1545.208 762.1991 3960.4998 3090709
-1539.2131 770.95233 4005.9827 5393973
-1535.2566 781.01672 4058.2788 5657146
-1478.2052 763.96118 3969.6555 4998959
-1444.0924 758.40076 3940.7629 6117182
-1440.7753 769.09644 3996.3391 5590579
-1404.9711 762.51801 3962.1567 5063977
-1382.0284 762.81494 3963.6997 4472611
-1375.0305 772.07501 4011.8164 5460274
-1358.2874 776.09283 4032.6934 8289631
-1324.4399 770.30652 4002.627 4341291
-1295.8779 767.43921 3987.728 3551256
-1265.1974 763.1875 3965.6355 2300933
-1229.5797 755.7403 3926.9387 1971970
-1187.038 743.66797 3864.209 2169090
-1162.826 742.8299 3859.8545 3550741
-1159.7146 755.70807 3926.7712 6182972
-1145.1396 761.4906 3956.8181 4274718
-1132.3917 768.75537 3994.5669 5130027
-1092.816 757.72864 3937.2705 4998700
-1068.4674 757.00903 3933.5315 4735273
-1057.8337 766.19128 3981.2437 5656376
-1033.8906 765.9325 3979.8989 5590839
-1013.7994 768.58173 3993.6646 6972492
-988.24872 767.11981 3986.0681 6511684
-952.47388 757.45538 3935.8506 7367249
-919.71979 749.76849 3895.9082 6511681
-901.59753 753.92078 3917.4841 7103818
-862.82117 740.56512 3848.0862 7103817
-862.91602 760.75348 3952.9878 7761746
-841.90588 762.94299 3964.365 8025431
-818.66107 763.17499 3965.5703 7104328
-806.54254 774.0993 4022.335 8025944
-777.74261 769.19122 3996.8318 8420190
-761.78339 777.07324 4037.7876 10328188
-727.74359 766.42468 3982.4565 7762518
-703.55237 765.78217 3979.1179 9407341
-681.19672 767.16229 3986.2891 10986116
-652.64026 761.40729 3956.3853 9275497
-630.15173 762.56647 3962.4084 5327918
-606.96301 762.93524 3964.3247 8354653
-585.61127 765.7356 3978.8757 9209705
-560.62537 763.8197 3968.9207 6182969
-541.59039 770.19891 4002.0679 8420185
-519.99792 773.35864 4018.4863 9472358
-507.24838 790.60455 4108.0986 5919277
-479.56042 785.1322 4079.6636 7235393
-449.90988 775.69513 4030.6272 6709049
-420.90799 766.38092 3982.229 7169601
-395.77155 763.41626 3966.8242 6906431
-370.53271 759.86731 3948.3833 5787441
-344.94696 755.08051 3923.5103 6906695
-328.32782 770.64807 4004.4016 9998971
-306.18039 774.65436 4025.219 9867131
-280.97403 770.94458 4005.9426 8815469
-259.4584 777.61139 4040.5842 9473143
-235.62904 777.99438 4042.5745 7433560
-212.31053 780.34174 4054.7715 9144179
-186.92804 774.73389 4025.6323 10065281
-162.78879 773.39185 4018.6587 8881007
-137.53366 765.37988 3977.0273 9867900
-114.13704 766.53552 3983.0325 9407092
-90.775024 768.5871 3993.6924 9209969
-68.371674 783.065 4068.9221 7763037
-44.232723 782.61127 4066.5642 9276278
-20.018599 778.14893 4043.3774 7171676
3.8795393 765.56329 3977.9807 3815466
27.575552 768.95569 3995.6077 8618605
51.092777 766.53125 3983.01 7434595
75.03968 770.04834 4001.2854 8026728
101.26248 789.62335 4103 5394748
125.7051 790.42426 4107.1616 4670773
150.10571 790.74396 4108.8232 7105115
171.54164 777.53656 4040.1956 2039058
196.24095 780.54462 4055.8257 4077611
221.99225 786.62378 4087.4138 5459770
247.13121 789.5506 4102.6221 6906959
267.63904 778.48236 4045.1101 6051652
286.70563 765.38647 3977.0615 6577739
309.10141 762.49255 3962.0244 6117443
335.87729 770.04932 4001.2905 3485215
360.74155 772.51575 4014.1064 7432532
389.34836 782.1958 4064.4055 5787964
414.11099 783.47491 4071.052 6972494
431.45706 771.35406 4008.0701 7169873
462.21158 783.21863 4069.7202 8090720
492.10251 792.51575 4118.0293 5919553
518.3833 795.39496 4132.9902 4867123
540.91742 792.5249 4118.0771 7037781
557.00549 780.86591 4057.4951 5853763
578.07166 776.86194 4036.6899 1709581
599.47247 773.60809 4019.7825 5985604
631.69385 784.0329 4073.9512 5920066
661.16547 790.40302 4107.0513 6249031
691.17444 796.94031 4141.02 8289641
703.89209 783.77557 4072.6145 6249800
721.59674 776.85266 4036.6418 6577994
746.37689 777.74689 4041.2881 6249800
766.01489 773.39386 4018.6692 4341548
787.24371 770.86096 4005.5081 6315594
822.53137 781.83978 4062.5552 6249293
854.22003 788.87048 4099.0879 5920329
868.17218 779.58557 4050.8423 6051918
897.4635 784.20374 4074.8389 2104338
922.99078 785.37708 4080.9355 4406579
948.47144 786.45184 4086.5205 4999228
963.24237 778.81384 4046.8325 4472626
982.5434 775.12073 4027.6423 4735797
999.43024 769.74347 3999.7014 7038296
1036.214 779.58453 4050.8372 5130812
1050.7017 772.58563 4014.4697 5262399
1086.7471 781.39722 4060.2559 4802103
1098.9166 773.03143 4016.7861 5985862
1109.2611 763.76392 3968.6306 4998963
1138.6045 767.69092 3989.0359 3682847
1158.7686 765.39514 3977.1067 6116676
1199.226 776.32776 4033.9143 4603694
1213.9034 770.47052 4003.479 1183237
1242.856 773.72455 4020.3875 1051652
1252.2251 764.89404 3974.5032 2892816
1278.1897 766.33954 3982.0139 5064243
1292.6753 760.97504 3954.1392 5392952
1321.4858 764.08429 3970.2954 4998964
1364.1793 774.9715 4026.8669 4275242
1396.3815 779.62677 4051.0566 3221531
1418.4403 778.55725 4045.4993 1445636
1417.0488 764.86572 3974.356 2169615
1435.0659 761.92657 3959.0835 6511950
1460.5503 762.98291 3964.5725 6182986
1493.1952 767.68713 3989.0161 6183242
1520.9485 769.76898 3999.834 3551265
1544.889 769.88702 4000.447 4932918
1573.5334 772.31006 4013.0376 4472110
1552.637 750.70776 3900.7888 3616544
1588.7839 756.91541 3933.0447 3945255
1624.2188 762.60919 3962.6306 3288092
1644.8933 761.3092 3955.8755 4340266
1669.7986 761.97632 3959.342 5459002
1703.8226 766.72839 3984.0347 5458746
1725.5557 765.8952 3979.7053 5590333
1733.8762 759.21155 3944.9761 6709070
1774.8059 766.79437 3984.3772 4735279
1794.965 765.32202 3976.7268 5985345
1814.5931 763.66431 3968.1133 5853757
1844.9197 766.4939 3982.8162 6182973
1864.6102 764.88904 3974.4768 6840389
1898.509 769.07983 3996.2529 7366996
1918.5554 767.62494 3988.6931 6577737
1946.0162 769.13593 3996.5442 7301461
2024.2804 790.44843 4107.2871 7367768
2039.8915 787.08008 4089.7852 8749426
2036.9408 776.71313 4035.9167 7104344
2034.2219 766.67413 3983.7524 4538675
2085.5151 776.98853 4037.3474 4472102
2112.0537 777.95068 4042.3472 1380356
2093.8052 762.57959 3962.4766 3879965
2117.6057 762.69409 3963.0718 3879707
2139.2188 762.02692 3959.6047 4802615
2206.9629 777.6286 4040.6738 4801837
2240.8694 781.10052 4058.7144 5525046
2241.8623 773.14795 4017.3914 2499092
2259.717 771.11652 4006.8357 3880480
2241.8945 757.07904 3933.8953 5065527
2269.7551 758.599 3941.793 6315081
2353.9109 778.71118 4046.2991 6577996
2336.7134 765.22668 3976.2314 6183238
2415.4033 783.09906 4069.0991 5327672
2421.5635 777.33575 4039.1519 5393977
2476.9453 787.33087 4091.0881 6775114
2460.6694 774.57574 4024.8105 8419939
2471.6562 770.565 4003.97 4735020
2515.3977 776.74493 4036.0818 4603691
2514.1528 769.04773 3996.0859 4998450
2511.7437 761.1413 3955.0032 3946533
2521.1685 756.93402 3933.1414 9078128
2537.3938 754.82684 3922.1924 4866856
2590.6863 763.68469 3968.219 4405536
2625.0837 766.86334 3984.7356 4010778
2663.0618 771.02191 4006.3442 2825995
2685.4517 770.63379 4004.3276 4273436
2711.1143 771.18341 4007.1833 3549199
2733.7683 770.87506 4005.5813 4207127
2755.062 770.19177 4002.0308 3812368
2749.9443 762.19971 3960.5029 3746319
2797.6909 768.87128 3995.1692 4733729
2807.6482 765.13263 3975.7427 3812885
2823.4905 763.04663 3964.9036 5129005
2818.3728 755.37738 3925.053 5589558
2892.2646 768.83643 3994.9883 3812634
2891.3389 762.35004 3961.2837 2694410
2861.1082 748.30353 3888.2961 4273441
2888.5842 749.45367 3894.2725 2233608
2906.0227 748.00208 3886.7297 4865322
2942.167 751.35016 3904.1267 5654838
2925.8901 741.36359 3852.2351 5325873
3006.2432 755.82611 3927.3848 4536357
3054.1147 761.96277 3959.2717 4272927
3089.2156 764.84399 3974.2432 3812632
3092.9246 759.96826 3948.908 3483669
3142.9617 766.46375 3982.6592 5523251
3163.9146 765.82239 3979.3269 4338981
3162.2666 759.76068 3947.8291 3549208
3176.6006 757.59949 3936.5994 2562829
3201.1533 757.88922 3938.105 2825741
3212.3086 755.02582 3923.2261 5062703
3270.0952 763.08502 3965.103 5391412
3305.6118 765.86951 3979.5718 2628106
3335.5339 767.32764 3987.1484 2825483
3373.498 770.60229 4004.1638 4404771
3361.27 762.44592 3961.7822 4997165
3443.0728 775.58398 4030.0496 5391923
3408.9641 762.61084 3962.6392 6181436
3424.9783 760.95135 3954.0161 4931626
3460.0784 763.52612 3967.395 4667940
3459.6848 758.28656 3940.1694 4602150
3442.4521 749.45135 3894.2603 4470820
3443.5598 744.70001 3869.5718 4931630
3569.3772 766.80261 3984.4204 5589560
3541.2129 755.75262 3927.0027 4800044
3569.4485 756.80505 3932.4714 4273703
3622.6531 763.10333 3965.1982 4603438
3635.834 760.94397 3953.9778 3287322
3523.0828 732.62463 3806.8264 4208680
3621.199 748.23651 3887.948 4471596
3704.8218 760.67523 3952.5815 4011044
3720.0579 759.0047 3943.9011 3813407
3723.7017 755.00464 3923.116 2629134
3686.2317 742.76978 3859.542 3549977
0 0 0 0
0 0 0 0
0 0 0 0
0 0 0 0
0 0 0 0
0 0 0 0
-3345.5537 737.57758 3718.0701 8420449
-3292.8308 730.76685 3683.738 7696212
-3345.5596 747.42413 3767.7058 6183745
-3340.8811 751.39374 3787.7163 4275492
-3313.4392 750.26257 3782.0144 8420195
-3279.5056 747.63623 3768.7751 4998445
-3285.1597 754.06067 3801.1602 5261873
-3265.6824 754.76532 3804.7124 4867114
-3217.6196 748.82733 3774.7793 5459252
-3182.115 745.74915 3759.2625 6380352
-3187.8801 752.36761 3792.6255 6775110
-3184.0732 756.80499 3814.9939 7630677
-3179.2249 761.05646 3836.4253 6380353
-3162.2764 762.45166 3843.4587 6446403
-3140.5933 762.71747 3844.7983 4011548
-3146.1858 769.65961 3879.793 4735271
