# .PCD v0.7 - Point Cloud Data file format
VERSION 0.7
FIELDS x y z rgb
SIZE 4 4 4 4
TYPE F F F U
COUNT 1 1 1 1
WIDTH 1274
HEIGHT 1
VIEWPOINT 0 0 0 1 0 0 0
POINTS 1274
DATA ascii
1418.3402 729.85748 3912.9407 6577735
1439.4552 728.80737 3907.311 4735789
1486.1655 740.54449 3970.2366 7630172
1505.5977 738.53516 3959.4639 5919810
1510.4185 729.53027 3911.1865 5591102
1551.7817 738.18066 3957.5635 5919811
1568.9279 735.2251 3941.7178 5197116
1589.399 733.89142 3934.5676 5723202
1613.2241 734.12256 3935.8069 5723203
1623.3159 728.18665 3903.9832 5525826
1647.8916 728.82349 3907.3972 7170393
1682.021 733.60944 3933.0562 7104341
1673.3085 719.83466 3859.2061 4538412
1708.4229 725.0307 3887.0635 7762268
1734.3026 726.22168 3893.4485 4603692
1752.4479 724.18518 3882.5305 7235412
1793.8097 731.6712 3922.6648 5919810
1816.7423 731.5448 3921.9868 5525308
1840.9657 731.93475 3924.0776 5130294
1842.728 723.49628 3878.8369 7959136
1860.4714 721.46301 3867.936 6116931
1909.1168 731.31659 3920.7637 7827548
1927.1788 729.3587 3910.2668 6577482
1939.6827 725.3689 3888.8762 4800300
1950.3795 720.80487 3864.4077 5457711
2021.033 738.24786 3957.9238 5720881
2050.8518 740.54559 3970.2424 5063976
2066.4253 737.70569 3955.0171 5853752
2085.3083 736.09772 3946.3962 8617834
2147.2229 749.54675 4018.4998 11249557
2127.9753 734.67969 3938.7939 8551532
2142.1931 731.56372 3922.0884 7433308
2174.6924 734.69073 3938.853 6775629
2212.3555 739.47748 3964.5159 6907470
2235.4521 739.34583 3963.8103 6314823
2265.2065 741.396 3974.8015 5985858
2264.8201 733.6405 3933.2227 5393461
2282.9187 731.96991 3924.2659 6183489
2309.625 733.065 3930.137 5525814
2332.7363 733.00854 3929.8345 10198410
2360.5964 734.43073 3937.459 7961448
2392.3296 737.01819 3951.3311 10724499
2451.114 747.80859 4009.1812 7302745
2458.4514 742.84662 3982.5786 7499352
2404.1467 719.53021 3857.574 8157026
2455.0906 727.85596 3902.2104 9209714
2472.0815 726.05426 3892.551 7170386
2504.5945 728.80261 3907.2854 5656891
2535.1433 730.9342 3918.7136 5327924
2564.5974 732.71448 3928.2581 7038025
2558.8286 724.48993 3884.1641 5853493
2623.1689 736.08521 3946.3293 4470813
2630.6333 731.65674 3922.5869 4009747
2657.873 732.75763 3928.4895 4930591
2652.0454 724.80237 3885.8391 4602394
2671.6628 723.87817 3880.8843 5326376
2637.688 708.57312 3798.8301 5787442
2693.031 717.31775 3845.7124 6708289
2683.2769 708.72192 3799.6282 6247738
2713.4216 710.71967 3810.3386 6511680
2713.77 704.94452 3779.3765 5327407
2756.8574 710.27502 3807.9546 8354141
2772.0435 708.38892 3797.8428 6116664
2787.8154 706.68176 3788.6902 6643266
2796.5332 703.22784 3770.1731 6774340
2860.1689 713.5293 3825.4016 6248255
2882.5 713.44537 3824.9517 5787191
2873.4692 705.66095 3783.2173 6050619
2822.1997 687.70447 3686.9485 6116411
2860.8464 691.76611 3708.7239 5984313
2924.3911 701.7403 3762.198 4668708
2998.5483 714.09094 3828.4126 5128747
3002.6062 709.68762 3804.8052 4733989
3006.321 705.26935 3781.1182 4733989
3033.6746 706.42108 3787.2925 4865575
3024.6035 699.13629 3748.2373 4668195
3081.458 707.08533 3790.854 4733734
3118.8894 710.49463 3809.1321 4997163
3156.2156 713.83118 3827.02 4865833
3189.1587 716.13586 3839.376 4602919
3159.2239 704.38843 3776.395 4997420
3194.1145 707.15833 3791.2451 5129008
3293.7922 724.13269 3882.249 4733994
3298.98 720.24231 3861.3916 3483928
3329.0869 721.80859 3869.7888 3418136
3320.5496 715.03186 3833.457 3615259
3380.1924 722.92902 3875.7957 3681308
3331.3975 707.68433 3794.0654 4668203
3359.5376 708.87775 3800.4634 5589304
3384.7705 709.4458 3803.509 4733739
3389.7002 705.77911 3783.8511 4667946
3436.0437 710.72675 3810.3765 4339751
3447.6841 708.47852 3798.323 4537387
3525.3232 719.73376 3858.6653 3813665
3523.3088 714.68665 3831.6064 5261110
3515.4131 708.51874 3798.5388 4998451
3583.0874 717.56342 3847.0293 6906447
3647.1982 725.78455 3891.1047 3616797
3595.6301 711.02704 3811.9866 3814174
3614.8511 710.36493 3808.4365 4537642
3613.9268 705.77667 3783.8379 5590587
0 0 0 0
0 0 0 0
0 0 0 0
0 0 0 0
0 0 0 0
0 0 0 0
-3419.6177 731.38428 3800.3811 5393971
-3527.1963 759.39447 3945.9263 6051386
-3501.0315 758.79193 3942.7954 4209181
-3460.7893 755.10956 3923.6614 5656627
-3358.0432 737.64758 3832.9263 6182972
-3359.1414 742.91406 3860.2917 5459504
-3294.8298 733.6875 3812.3491 6117177
-3293.8367 738.53052 3837.5142 5985335
-3291.2229 743.07489 3861.1274 6182714
-3274.5151 744.47864 3868.4214 5919286
-3201.4827 733.00616 3808.8086 5590577
-3195.8145 736.90381 3829.0615 5261613
-3137.1272 728.54449 3785.6252 5064234
-3147.7759 736.2829 3825.835 4998441
-3155.1406 743.35974 3862.6074 5590578
-3162.7515 750.59845 3900.2209 5524784
-3191.0452 762.88849 3964.0818 4077595
-3155.262 759.92816 3948.6995 3747860
-3133.4956 760.32483 3950.7605 3879190
-3097.2173 757.17957 3934.4175 4208155
-3021.3047 744.22382 3867.0974 4800293
-3024.6392 750.73969 3900.9548 4537376
-2974.491 743.97888 3865.8247 4997670
-2916.0303 735.01782 3819.2617 5130026
-2891.1484 734.44678 3816.2944 4735268
-2876.0662 736.37573 3826.3176 4472097
-2856.6316 737.21216 3830.6636 4340513
-2851.5076 741.78467 3854.4231 4011292
-2807.9729 736.35822 3826.2266 3945753
-2774.009 733.37384 3810.7192 5196333
-2777.9651 740.44763 3847.4758 6314561
-2761.9253 742.26471 3856.9175 6446148
-2733.9175 740.8689 3849.6646 5064238
-2759.9456 754.21594 3919.0181 3550999
-2729.6555 752.26892 3908.9009 4998445
-2699.6353 750.3634 3898.9998 4274978
-2681.1367 751.65521 3905.7122 5919803
-2656.8406 751.33002 3904.0222 5985854
-2636.2627 752.05981 3907.8145 7564885
-2632.8433 757.74078 3937.3337 5262387
-2611.9553 758.45093 3941.0237 5064240
-2502.272 733.15717 3809.5935 6972494
-2551.0872 754.26514 3919.2734 3485467
-2541.2407 758.25739 3940.0178 5787963
-2484.9673 748.34241 3888.4983 5064495
-2486.6184 755.84894 3927.5032 5985596
-2462.4741 755.58221 3926.1174 5393460
-2406.5371 745.46228 3873.5327 5261874
-2367.6587 740.48236 3847.656 5656631
-2325.3923 734.33569 3815.7173 4143135
-2319.4285 739.64484 3843.3044 4867115
-2306.0715 742.67841 3859.0671 4866602
-2295.5881 746.7074 3880.0024 3879191
-2240.2725 736.08734 3824.8191 4207900
-2223.6882 738.10626 3835.3096 4997415
-2190.6572 734.65137 3817.3574 4602915
-2212.3083 749.65381 3895.3123 4602915
-2141.8455 733.42999 3811.0112 3550997
-2173.4165 752.17218 3908.3982 5524787
-2168.3188 758.49121 3941.2329 5788215
-2154.8411 761.9845 3959.3845 6249022
-2127.5869 760.62958 3952.3442 5328433
-2115.9805 764.90088 3974.5386 4604456
-2063.27 754.24249 3919.156 3156501
-2047.5652 757.02319 3933.6047 3420189
-2005.8365 750.13556 3897.8157 4209193
-1998.3986 756.06073 3928.6038 2630417
-1965.0292 752.19928 3908.5391 2761744
-1963.8365 760.70959 3952.76 3353622
-1917.8262 751.85529 3906.7517 5327410
-1891.1232 750.44629 3899.4302 5327663
-1879.2843 754.97382 3922.9561 5591090
-1863.9338 758.1864 3939.6489 5985848
-1839.858 757.88629 3938.0896 7367248
-1795.2655 749.01849 3892.0112 6116925
-1743.7252 736.98334 3829.4749 6643782
-1741.3926 745.7027 3874.7817 7367249
-1746.2932 757.79382 3937.6091 6512708
-1713.3948 753.58771 3915.7534 4670502
-1696.6736 756.47876 3930.7759 6643778
-1667.8469 753.97797 3917.7815 4011806
-1664.6172 763.14142 3965.396 4472357
-1628.8694 757.44586 3935.801 3682842
-1599.96 754.8111 3922.1104 4669738
-1573.269 753.16052 3913.5339 4866602
-1537.0879 746.84955 3880.741 3879960
-1494.0977 736.9881 3829.4995 3814168
-1495.1381 748.87622 3891.272 4801064
-1459.7235 742.59149 3858.6155 5130028
-1458.7981 753.93121 3917.5386 5393199
-1426.4825 749.15247 3892.7075 4998440
-1400.1055 747.3866 3883.5317 6380094
-1361.4131 738.87781 3839.3188 6248763
-1342.8041 741.16498 3851.2031 6511935
-1309.5043 735.28229 3820.6357 5327918
-1282.5229 732.80292 3807.7524 6183229
-1259.4594 732.51312 3806.2471 5920059
-1266.0542 749.7771 3895.9531 4669478
-1227.5829 740.49786 3847.7366 4603684
-1193.568 733.60632 3811.9275 2958602
-1185.5829 742.75629 3859.4719 3024139
-1162.2205 742.44305 3857.8445 2629895
-1136.9795 740.89307 3849.7905 3353874
-1105.8246 735.34711 3820.9727 8946792
-1076.2593 730.64832 3796.5569 4998954
-1053.3387 730.35614 3795.0388 6117434
-1036.6096 734.43781 3816.248 5525297
-1000.3411 724.54926 3764.8655 4472608
-981.78632 727.33221 3779.3262 8288088
-967.86768 733.75995 3812.7253 7103816
-964.26752 748.50452 3889.3406 7630419
-931.64563 740.89172 3849.7834 7959126
-916.8429 747.42316 3883.7214 8551263
-882.79956 738.20178 3835.8062 6840645
-852.64728 731.83276 3802.7119 7761745
-832.43182 733.87836 3813.3408 7696207
-805.54749 729.99463 3793.1604 7301447
-785.22223 732.00244 3803.5933 7958862
-765.72064 734.91949 3818.751 5129763
-745.15674 736.96362 3829.3723 5459244
-722.09735 736.59064 3827.4341 9078372
-700.70471 737.94867 3834.4907 9802611
-680.50153 740.69244 3848.7478 9078633
-670.73798 755.38367 3925.0857 9867891
-640.68115 747.45514 3883.8877 9407597
-625.26349 756.651 3931.6709 8946532
-594.21332 746.90924 3881.051 7893845
-563.17584 736.39941 3826.4407 7959640
-545.84149 743.67755 3864.2588 8420189
-526.25391 748.38873 3888.739 7564876
-492.13446 731.91919 3803.1606 8420184
-474.39264 739.39508 3842.0066 8551257
-456.14374 746.79456 3880.4556 9801319
-435.5737 750.97791 3902.1929 5327140
-414.07947 753.94763 3917.624 6708792
-391.19485 754.58813 3920.9519 7366724
-368.12543 754.9306 3922.7314 7499081
-344.05637 753.13098 3913.3804 8288597
-315.21753 739.87567 3844.5039 5722417
-287.7901 728.12598 3783.4504 8485729
-266.43735 731.05847 3798.6885 9998969
-249.69319 748.34448 3888.509 8485731
-227.11159 749.8717 3896.4446 9472626
-205.59583 755.66199 3926.5317 7301714
-182.09634 754.70874 3921.5786 8420709
-156.04843 741.36908 3852.2639 9341557
-136.64081 760.41113 3951.209 9604474
-112.80177 757.56812 3936.4363 6381129
-88.865456 752.41876 3909.6797 9802362
-65.728004 752.78699 3911.593 9802104
-42.695934 755.42084 3925.2788 7828061
-19.51557 758.59558 3941.7751 8486248
3.8381498 757.39581 3935.541 8552300
27.537399 767.89172 3990.0793 3815204
50.122704 751.97748 3907.3865 5854786
72.317657 742.11536 3856.1414 8552560
95.776047 746.84137 3880.6985 6381393
119.02705 748.43311 3888.9697 8749938
143.29309 754.85571 3922.3423 8881269
166.83966 756.22424 3929.4534 6775376
192.71835 766.53357 3983.022 5196346
217.84341 771.92249 4011.0239 4078123
240.61882 768.74432 3994.5095 2893336
263.70938 767.05219 3985.717 4143396
281.79501 752.2771 3908.9436 5854526
307.2453 757.91394 3938.2332 5920320
328.93753 754.13885 3918.6174 6249285
344.01956 736.70618 3828.0347 5854270
370.52054 744.37097 3867.8618 5656889
396.93896 750.98645 3902.2371 4012070
417.29843 746.04138 3876.5415 7565139
443.11096 750.8526 3901.5415 7301461
471.33142 759.06451 3944.2117 6906956
491.05292 753.45984 3915.0894 7235920
514.18445 753.35706 3914.5552 6380353
537.1601 753.04462 3912.9316 5130289
560.61151 753.39752 3914.7654 6249029
574.44824 741.3147 3851.9812 7433305
618.0816 767.13788 3986.1624 3551263
638.41364 763.20392 3965.7207 2695958
662.55133 763.93719 3969.531 4274468
691.04413 769.46954 3998.2781 6314818
711.63776 766.1311 3980.9307 4735274
735.10028 765.99628 3980.2305 6182722
767.05206 774.44098 4024.1101 5722427
780.6037 764.35913 3971.7236 7235412
798.70569 759.19269 3944.8779 6314566
823.8089 760.78583 3953.156 5722430
820.35437 736.64703 3827.7273 3551007
863.97742 754.94366 3922.7991 4867121
879.73364 748.5694 3889.6777 7104086
917.32983 760.62988 3952.3457 5656639
939.1059 759.29871 3945.4287 5590847
950.7406 750.0318 3897.2766 2104079
984.05042 757.89825 3938.1516 2959129
1007.3396 757.86121 3937.9595 3880235
1027.9504 755.85657 3927.543 4537902
1046.9845 752.80688 3911.6965 5327418
1065.594 749.5907 3894.9844 4932918
1086.5294 748.1123 3887.3027 5590848
1098.4358 740.60773 3848.3076 4801846
1111.2219 733.98938 3813.9177 4341038
1132.7748 733.31012 3810.3882 5854533
1163.608 738.54779 3837.604 4341546
1195.5956 744.30316 3867.5098 5130548
1223.4005 747.28723 3883.0154 6841423
1231.6443 738.43323 3837.0085 4735022
1246.7072 733.91437 3813.5281 2695695
1269.861 734.23474 3815.1926 788480
1288.9226 732.21918 3804.7195 854272
1307.4558 729.97791 3793.0735 3616538
1331.4429 730.80585 3797.3757 4932909
1346.7272 726.909 3777.127 4603944
1384.7057 735.1886 3820.1492 5327670
1435.9872 750.15125 3897.8972 5787967
1450.8759 745.92975 3875.9617 3155992
1482.0476 750.08081 3897.5312 1577223
1490.3861 742.72571 3859.313 3024921
1504.4061 738.38153 3836.74 4933171
1506.6755 728.48511 3785.3169 5789761
1533.236 730.45172 3795.5354 6775888
1574.7083 739.36279 3841.8389 4406571
1587.7833 734.87683 3818.5291 5196344
1617.1787 737.96442 3834.5725 5854019
1639.993 738.00476 3834.7822 3682851
1627.2963 722.28235 3753.0864 3551264
1671.3538 731.8349 3802.7229 3748128
1686.0551 728.45007 3785.1348 4537901
1714.1866 730.88037 3797.7629 3945506
1736.8525 730.94757 3798.1121 3551004
1774.1531 737.09308 3830.0452 5853759
1797.0116 737.15906 3830.3879 5129780
1803.2299 730.48242 3795.6953 6182725
1849.4469 739.97418 3845.0159 6248517
1853.7069 732.65192 3806.968 6445638
1877.473 733.1225 3809.4133 5459000
1894.4426 730.95953 3798.1741 6248259
1899.4623 724.29071 3763.522 6051393
1952.0543 735.70612 3822.8381 4603948
1984.0425 739.18341 3840.9065 5524793
1989.2711 732.7251 3807.3484 7169873
2058.7969 749.82928 3896.2241 5920065
2077.0884 748.10101 3887.2439 8091235
2117.6677 754.35004 3919.7148 8288614
2125.8579 749.05103 3892.1804 7432794
2140.8228 746.22729 3877.5078 2892820
2196.8494 757.62433 3936.7285 4537900
2166.4656 739.29492 3841.4861 2301461
2164.1033 730.80939 3797.3938 4077344
2213.7664 739.88641 3844.5596 4011549
2195.3025 726.24103 3773.6562 4866603
2236.0244 732.25311 3804.8958 5195823
2311.1851 749.31042 3893.5283 5526074
2343.9744 752.42914 3909.7336 4670509
2336.1895 742.58978 3858.6067 3815202
2351.5002 740.21118 3846.2473 4670255
2432.3347 758.30609 3940.2708 5196600
2371.1794 732.21088 3804.6763 7236440
2390.6777 731.2782 3799.8301 8684911
2459.1785 745.21234 3872.2339 5196339
2475.6631 743.27191 3862.1511 5262645
2539.4302 755.43262 3925.3401 5920316
2581.6299 761.01501 3954.3472 5986109
2585.3533 755.2569 3924.427 7301970
2553.5256 739.30853 3841.5569 5919812
2590.7957 743.4707 3863.1841 5327673
2584.7312 735.2334 3820.3818 3749666
2614.9658 737.37488 3831.5093 4473388
2620.3389 732.52924 3806.3306 8420200
2648.9812 734.21588 3815.0947 4077088
2661.5562 731.45831 3800.7659 4998188
2659.0598 724.63977 3765.3357 4141854
2658.8862 718.56238 3733.7568 4997674
2664.2024 714.05682 3710.3452 4339486
2733.4517 726.62 3775.6252 4602142
2740.5413 722.58966 3754.6831 4404507
2784.2454 728.20056 3783.8381 4733214
2778.5518 720.9054 3745.9314 4798747
2835.0454 729.73267 3791.7993 4337939
2843.4531 726.14136 3773.1382 5983280
2810.3225 712.08093 3700.0784 4207385
2841.8333 714.49036 3712.5979 5918519
2859.6772 713.45306 3707.208 5457712
2910.9443 720.70673 3744.8989 4602661
2926.2156 719.00592 3736.0615 2628613
2917.4944 711.47974 3696.9543 3088397
2941.021 711.87128 3698.9888 3549715
2992.7122 719.0238 3736.1543 4207646
2981.335 711.02991 3694.6167 4799781
3017.7756 714.47363 3712.511 4668197
3058.9119 718.97113 3735.8809 5062955
3078.0566 718.27234 3732.2495 4207646
3092.4055 716.47229 3722.8962 4404768
3117.7336 717.22345 3726.7996 3220751
3159.7959 721.78668 3750.5105 4076062
3198.1658 725.44855 3769.5383 5062702
3199.9058 720.80847 3745.4277 4075808
3168.8877 708.90399 3683.5703 2957329
3224.479 716.40503 3722.5469 3154450
3271.2441 721.85651 3750.8735 3023118
3281.5132 719.23535 3737.2534 3352083
3289.9192 716.24359 3721.7078 5589301
3317.7117 717.48425 3728.1545 5194541
3316.5281 712.48358 3702.1704 2892046
3376.1428 720.52399 3743.9497 4470817
3370.4604 714.61499 3713.2454 4207389
3363.2498 708.46069 3681.2668 4668196
3423.0081 716.40167 3722.5293 5129006
3403.6865 707.79614 3677.814 6050108
3418.1467 706.28052 3669.9385 5194800
3434.3499 705.14191 3664.022 4996907
3390.3303 691.73035 3594.3335 4931115
3403.2405 690.02905 3585.4934 4207648
3392.6287 683.60931 3552.1353 4865833
0 0 0 0
0 0 0 0
0 0 0 0
0 0 0 0
0 0 0 0
0 0 0 0
0 0 0 0
-3368.7271 747.61029 3768.6445 6183485
-3335.8933 745.26453 3756.8196 3420178
-3317.7668 746.19507 3761.5103 6117437
-3275.8633 741.75427 3739.1248 7301708
-3279.3213 747.59424 3768.5635 5985849
-3189.4346 732.08838 3690.3994 6051641
-3236.2009 747.95166 3770.365 5130540
-3218.0063 748.9173 3775.2329 5591093
-3210.7927 752.46997 3793.1416 6314814
-3162.21 746.30927 3762.0859 7301452
-3132.4705 744.53973 3753.166 6906950
-3097.032 741.38074 3737.2417 6183229
-3099.0825 747.21509 3766.6523 6314044
-3015.2195 732.26941 3691.3123 4735269
-3071.8337 751.47058 3788.1038 4669475
-3057.1211 753.37708 3797.7144 4735268
-3060.1738 759.72241 3829.7004 4405277
-3029.5544 757.74054 3819.71 4471327
-3009.1709 758.30823 3822.5718 4734499
-2991.1853 759.49341 3828.5461 4997671
-2944.4155 753.33228 3797.4883 5392684
-2901.781 748.14233 3771.3264 5458476
-2860.8931 743.32568 3747.0459 3682579
-2844.1672 744.76062 3754.2793 5919542
-2840.3831 749.63379 3778.8447 4801062
-2811.5811 747.9292 3770.252 3879961
-2787.3882 747.43329 3767.7522 3485203
-2794.7241 755.45197 3808.1736 3288083
-2777.1433 756.81104 3815.0247 4932650
-2729.1802 749.84485 3779.9087 6446403
-2692.5195 745.89453 3759.9954 5590836
-2705.6863 755.79675 3809.9116 6249536
-2677.7375 754.284 3802.2861 4867627
-2640.5996 750.13513 3781.3718 6249281
-2647.2407 758.45831 3823.3284 5065008
-2600.0271 751.36218 3787.5571 7696729
-2581.7073 752.56482 3793.6196 6446408
-2529.2451 743.74884 3749.179 4209445
-2536.8911 752.60858 3793.8403 5591098
-2551.0784 763.58466 3849.1699 3946273
-2565.1111 774.71216 3905.2627 4011808
-2489.4543 758.70782 3824.5859 5064497
-2471.1606 760.05237 3831.3638 5327669
-2437.6826 756.70837 3814.5068 3748637
-2414.4353 756.5072 3813.4932 5459253
-2368.9822 749.27899 3777.0562 4801322
-2375.1951 758.40991 3823.0845 4998445
-2326.7866 750.10797 3781.2351 4603684
-2293.2517 746.48621 3762.9778 5064492
-2297.4451 755.19495 3806.8779 5854523
-2261.7625 750.83875 3784.9185 6315332
-2183.5986 732.15149 3690.7178 5656375
-2217.0535 750.88995 3785.177 3945755
-2211.2351 756.57434 3813.8313 3156498
-2156.8413 745.58423 3758.4312 3748633
-2125.3674 742.37061 3742.2314 5722166
-2100.2412 741.32971 3736.9844 3880219
-2119.55 756.11816 3811.532 4472356
-2087.2961 752.63281 3793.9624 5525043
-2074.9919 756.34326 3812.6667 5460019
-2014.0382 742.20734 3741.4084 6249024
-2020.7751 752.97949 3795.7102 6710345
-2032.5865 765.90637 3860.8733 5525815
-2032.4517 774.57477 3904.5701 8420705
-1987.6091 766.20825 3862.3953 6710087
-1956.9895 763.1936 3847.1987 3814431
-1932.6772 762.59662 3844.1895 4406564
-1887.9738 753.84351 3800.0654 5130287
-1860.7291 751.9342 3790.4407 6446144
-1844.4752 754.474 3803.2437 5722164
-1815.1339 751.65704 3789.0437 7038284
-1803.7289 756.29016 3812.3987 3879962
-1777.7445 754.85016 3805.1399 5722425
-1731.2316 744.54449 3753.1899 6577737
-1712.4491 746.05176 3760.7878 6117183
-1698.4099 749.69257 3779.1409 6182720
-1671.3257 747.59546 3768.5696 6117182
-1669.4657 756.87732 3815.3589 5788469
-1625.1045 746.88098 3764.968 8025433
-1622.5779 756.10083 3811.4443 3748894
-1601.5103 756.81903 3815.0647 1775363
-1591.3157 762.76953 3845.0608 3353881
-1577.7733 767.26501 3867.7222 4274984
-1534.2213 757.08429 3816.4021 3814430
-1495.9689 749.25323 3776.9263 4275236
-1474.1307 749.53021 3778.3225 5657143
-1421.9346 734.14191 3700.7515 4867114
-1424.8894 747.19189 3766.5354 6051387
-1409.2057 750.72803 3784.3606 3945754
-1390.7125 752.85754 3795.0952 4471326
-1365.37 751.28821 3787.1846 5195049
-1331.6954 745.00519 3755.5122 4800291
-1315.5597 748.48737 3773.0654 3879190
-1274.4158 737.61542 3718.261 4603426
-1263.4633 744.14276 3751.1648 5985850
-1257.6382 753.97797 3800.7434 5459251
-1205.7142 736.0307 3710.2727 4011805
-1200.1932 746.26971 3761.8865 3090448
-1176.2791 745.24304 3756.7112 2037506
-1153.2244 744.73181 3754.134 1905666
-1127.9028 742.70782 3743.9314 2169092
-1120.8695 752.88678 3795.2427 3419669
-1091.2538 748.00336 3770.6257 2959378
-1072.0776 750.22125 3781.8059 5393457
-1038.0764 741.93805 3740.051 4011807
-1013.4133 740.1131 3730.8516 3880990
-990.76831 739.71356 3728.8374 5525560
-973.81927 743.64539 3748.6575 4603946
-951.86224 743.84729 3749.6753 1512199
-937.86389 750.42688 3782.8425 5459251
-917.94598 752.47626 3793.1733 5853751
-896.12268 753.0274 3795.9514 6643267
-869.54254 749.50665 3778.2039 5195821
-840.61353 743.7218 3749.0427 5985080
-808.48938 734.71912 3703.6611 6840388
-788.52759 736.57513 3713.0171 7235402
-786.24756 755.52863 3808.5601 7169865
-757.40753 749.32587 3777.2925 9012582
-733.35345 747.62433 3768.7151 8749410
-712.40656 749.08307 3776.0686 7104332
-694.50763 753.94525 3800.5784 8683366
-669.98419 751.70087 3789.2646 9538934
-662.21863 768.75464 3875.2312 7696729
-634.01959 762.46082 3843.5046 10394499
-608.96552 759.62091 3829.189 9670778
-581.58844 753.55133 3798.5925 8618087
-555.51538 748.75055 3774.3923 4736044
-538.91669 756.85278 3815.2351 8025692
-516.09406 756.54095 3813.6631 8157020
-494.0975 757.46698 3818.3311 7762260
-482.02444 774.42499 3903.8152 9012328
-455.68326 769.01392 3876.5383 9275499
-429.00848 762.43542 3843.3767 8486241
-398.79437 748.47656 3773.0112 5919799
-391.05164 777.53979 3919.5166 5787691
-361.45193 764.07056 3851.6191 4471063
-334.31613 754.34485 3802.5928 3746317
-308.27853 745.87036 3759.8735 5522728
-285.57129 744.7608 3754.2803 8023633
-262.91272 743.6015 3748.4363 6445377
-242.54958 749.31952 3777.2605 8420194
-222.69092 757.9173 3820.6011 9012331
-201.45975 763.26129 3847.5398 8683366
-177.90082 760.02478 3831.2249 7828059
-153.76627 753.02222 3795.9255 7235669
-131.68089 755.37469 3807.7839 7367508
-108.5865 751.71503 3789.3359 9078128
-86.258438 752.83527 3794.9829 8420199
-63.566624 750.45117 3782.9651 9341301
-42.538776 775.81665 3910.8303 7959649
-19.317701 774.0271 3901.8093 8947058
3.7927766 771.4892 3889.0161 9078644
26.883575 772.7442 3895.3423 9671552
49.978142 772.89783 3896.1169 9869191
71.435364 755.63477 3809.0952 10789782
94.411003 758.867 3825.3887 3486500
117.01692 758.45123 3823.2927 8618603
141.08673 766.11951 3861.9478 9539195
164.99387 770.88702 3885.9807 8815728
188.06274 771.04993 3886.8018 6446926
211.12549 771.15491 3887.3308 8289130
233.13596 767.7738 3870.2869 7038808
259.14688 776.99286 3916.7593 5525056
275.04248 756.86078 3815.2751 8091494
301.06897 765.54779 3859.0657 5656893
326.36432 771.28027 3887.9629 4933171
344.26987 759.94446 3830.8201 5393721
366.40671 758.77362 3824.9177 6906960
397.13647 774.49707 3904.1785 7433304
417.70789 769.7691 3880.3452 6643532
437.70905 764.53851 3853.978 5722687
456.44263 757.72241 3819.6189 6380358
479.65775 758.63861 3824.2373 8025438
504.87286 762.49255 3843.6648 6972493
524.36688 757.7464 3819.7397 8419939
549.05872 760.59357 3834.0918 8485479
568.948 756.82587 3815.0994 6183495
595.76953 762.21521 3842.2666 6775380
616.45795 759.64996 3829.3354 8420204
646.89301 768.85107 3875.7175 6840915
668.78552 767.61633 3869.4932 7235671
676.77777 751.0379 3785.9226 6577997
691.83221 743.10907 3745.9541 7696222
713.44257 742.49609 3742.864 6183235
755.46924 762.52716 3843.8391 6643786
776.06079 760.38354 3833.0332 5064499
790.92883 752.91333 3795.3765 6512714
813.04523 752.56549 3793.623 3881000
835.43976 752.48688 3793.2268 9078644
864.82208 758.54138 3823.7473 6249291
889.85455 760.56885 3833.9675 4143913
915.41895 762.93872 3845.9136 6117704
932.99915 758.70081 3824.5508 5920838
943.98938 749.43213 3777.8281 5723206
966.9682 749.89008 3780.1367 6907481
991.12482 751.22009 3786.8413 8223084
1022.127 757.56488 3818.8247 5591616
1026.9945 744.68433 3753.8948 6315082
1060.797 752.88611 3795.2393 4472110
1075.1315 747.21704 3766.6621 4801075
1102.1122 750.38892 3782.6511 4406317
1124.8175 750.58148 3783.6218 4077609
1143.0383 747.83258 3769.7646 4867893
1162.2946 745.85339 3759.7878 3880742
1182.4463 744.51251 3753.0288 4275242
1202.3912 743.09332 3745.8748 6314568
1234.3557 749.01929 3775.7468 5590588
1255.8005 748.46429 3772.9492 5130037
1289.5416 755.12921 3806.5466 4537898
1304.5763 750.79926 3784.7197 2563849
1295.053 732.72113 3693.5891 3484951
1321.6416 735.33588 3706.77 4537641
1362.549 745.70154 3759.0225 5459258
1376.9868 741.48053 3737.7446 5591101
1419.8132 752.43768 3792.9788 5064757
1448.5487 755.70215 3809.4348 4472366
1449.0801 744.37836 3752.3523 1840906
1475.3148 746.40082 3762.5474 1906957
1463.3269 729.31305 3676.4094 7499610
1497.7023 735.49487 3707.5715 5460023
1536.47 743.62378 3748.5486 7565406
1553.0405 740.93103 3734.9746 3419679
1567.1901 737.17517 3716.0417 4669748
1577.3298 731.66345 3688.2576 4735542
1576.1971 721.14496 3635.2346 3551268
1612.3434 727.73608 3668.4602 3419425
1650.1465 734.88977 3704.5212 5722438
1689.3341 742.46405 3742.7026 6182986
1705.5621 739.88202 3729.6868 4998712
1707.9205 731.42639 3687.0625 6051141
1750.5367 740.20709 3731.3254 5919811
1766.3901 737.59338 3718.1499 6182727
1786.8726 736.95325 3714.9231 5656383
1823.7614 743.01276 3745.4688 5129526
1825.7869 734.89386 3704.5417 3681565
1874.9418 745.7124 3759.0771 3747357
1904.937 748.74603 3774.3694 3945505
1922.7144 746.96265 3765.3796 7234899
1942.3806 745.94568 3760.2532 6709068
1953.0449 741.53394 3738.0137 6116931
1970.9624 739.94403 3729.9993 7827807
2009.7561 746.13995 3761.2327 7104342
2036.0509 747.61047 3768.6455 7235929
2051.4758 745.10126 3755.9966 7499358
2080.3054 747.4621 3767.8975 6380879
2131.3218 757.66003 3819.3042 4538410
2124.9485 747.45667 3767.8699 4077602
2150.9783 748.74481 3774.3633 2695948
2193.2439 755.59985 3808.9192 3485722
2206.3008 752.35492 3792.5618 7170903
2222.0439 750.08246 3781.1062 6973784
2262.9004 756.24792 3812.1858 5920328
2288.114 757.11548 3816.5591 6117705
2323.2822 761.2276 3837.2881 5064762
2327.2925 755.15002 3806.6516 5460289
2268.2483 728.92596 3674.4583 6512975
2318.0916 737.85999 3719.4939 6117960
2363.7522 745.30701 3757.0337 7630683
2405.4419 751.37457 3787.6199 6117701
2404.1987 744.04327 3750.6633 6051651
2480.804 760.71783 3834.7185 6051907
2508.8169 762.32446 3842.8174 4998961
2500.5493 752.97736 3795.6992 5656377
2490.5916 743.29236 3746.8782 3616538
2525.2681 746.98157 3765.4751 2827534
2556.9404 749.72522 3779.3057 3616796
2590.9819 753.10986 3796.3674 5063986
2582.7312 744.24921 3751.7012 5195573
2541.8804 726.22577 3660.8467 3484951
2591.947 734.26306 3701.3621 3353623
2593.0071 728.39917 3671.8025 3286546
2614.6296 728.36084 3671.6094 4734504
2688.3384 742.7132 3743.9585 3352853
2718.2815 744.83832 3754.6711 1708035
2756.0081 749.04443 3775.8735 2431497
2784.0078 750.56042 3783.5156 1313792
2730.4519 730.2406 3681.085 3023632
2740.4985 727.11823 3665.3455 2628870
2754.4399 725.07019 3655.0215 2628870
2770.6711 723.65216 3647.8733 4076314
2754.7026 713.91119 3598.7698 2760711
2849.9304 732.9162 3694.5725 5590066
2882.8357 735.7262 3708.7375 6510654
2889.9448 731.96008 3689.7527 4339232
2888.7676 726.16748 3660.5527 3549973
2890.0039 721.06335 3634.8235 5457969
2919.4385 723.01831 3644.6782 4997418
2923.21 718.63562 3622.5854 4997420
2947.3337 719.28369 3625.8521 4865834
3019.1062 731.46667 3687.2656 5458227
3024.782 727.57581 3667.6521 5326384
3091.7021 738.36694 3722.0493 5326128
3123.2793 740.62427 3733.4285 5128750
3144.0188 740.29803 3731.7837 4010013
3136.9568 733.47595 3697.394 4141599
3126.9604 726.06702 3660.0464 4931374
3177.2129 732.65338 3693.2478 3878943
3213.5913 735.97217 3709.9775 3813150
3184.8811 724.44067 3651.8481 1905669
3203.7778 723.8205 3648.7219 2431498
3196.2971 717.28931 3615.7986 4799789
3270.4326 729.0387 3675.0266 3154710
3287.0806 727.90247 3669.2988 3352084
3313.8145 728.99988 3674.8308 2299660
3319.3042 725.44019 3656.8865 3878429
3361.2578 729.84412 3679.0862 2496775
3388.0105 730.91187 3684.469 3812636
3341.9302 716.354 3611.084 3286545
3324.1611 708.01147 3569.0298 3286544
3275.3335 693.20099 3494.3713 4403997
3286.4692 691.18774 3484.2227 3746325
3300.5171 689.80823 3477.2688 4339232
3323.5608 690.31433 3479.8201 4931370
0 0 0 0
0 0 0 0
0 0 0 0
0 0 0 0
0 0 0 0
0 0 0 0
0 0 0 0
-3286.6926 751.19464 3676.8713 8485982
-3269.4434 752.23932 3681.9849 6578237
-3270.9915 757.6521 3708.4788 6709570
-3263.2126 760.96313 3724.6853 7499090
-3252.5703 763.64685 3737.8213 6972744
-3180.7188 751.89807 3680.3145 5130286
-3196.9995 760.96466 3724.6929 6512192
-3183.0122 762.90271 3734.179 6643779
-3146.4971 759.43066 3717.1843 6380606
-3143.0239 763.9408 3739.26 6249020
-3035.1521 742.95978 3636.5642 8090968
-3053.4282 752.77856 3684.6243 4933161
-3027.3086 751.71484 3679.4177 5985848
-2996.8916 749.56085 3668.8748 7499088
-3023.0298 761.62396 3727.9199 5130539
-3014.6187 765.09619 3744.9155 5920055
-3015.1738 770.91248 3773.3843 5063976
-2948.7578 759.56464 3717.8401 4998439
-2952.0303 766.13202 3749.9856 6906181
-2897.5359 757.69324 3708.6802 5985335
-2885.8135 760.39563 3721.9077 6050871
-2835.1821 752.80841 3684.7705 5656369
-2781.7139 744.3443 3643.3411 5722417
-2807.7859 757.19812 3706.2566 6380092
-2788.2461 757.85699 3709.4817 6379835
-2749.1978 753.18176 3686.5977 5458735
-2739.9966 756.67413 3703.6919 5392944
-2728.3928 759.55414 3717.7886 4011550
-2725.7375 764.99243 3744.4075 4274980
-2703.2463 764.90723 3743.9905 5195825
-2702.3987 770.99554 3773.7908 5722425
-2640.5227 759.62885 3718.1543 5722425
-2600.7322 754.47778 3692.9414 6248768
-2541.1748 743.45618 3638.9941 5985596
-2570.2776 758.40674 3712.1726 6511940
-2571.0674 765.18915 3745.3704 4932908
-2523.3049 757.51385 3707.802 5919804
-2490.3875 754.19946 3691.5791 5525046
-2483.6985 758.83978 3714.2922 5262130
-2473.5754 762.50464 3732.2305 6051134
-2469.6787 768.17218 3759.9714 5327667
-2455.8445 770.82385 3772.9504 6446147
-2420.5574 766.72888 3752.907 6182719
-2379.9175 760.84674 3724.1157 6512454
-2358.5447 761.07166 3725.2166 5985852
-2334.012 760.27155 3721.3 6315073
-2331.7207 766.77008 3753.1086 5657144
-2300.6372 763.83459 3738.7402 5854267
-2281.6025 764.88116 3743.8628 6511938
-2239.0054 757.97168 3710.043 6380607
-2178.3887 744.76453 3645.3979 6249022
-2137.5542 738.12372 3612.8933 4867368
-2125.4617 741.37408 3628.8027 6511936
-2108.3794 742.9325 3636.4307 3551251
-2094.9956 745.83984 3650.6614 4867369
-2112.7183 759.99756 3719.9592 5064237
-2079.626 755.98187 3700.3035 6446145
-2050.6702 753.40015 3687.6667 4867114
-2019.7543 750.03497 3671.1953 6051388
-2004.8418 752.60406 3683.7703 4472609
-2001.5619 759.64465 3718.2317 7367502
-1981.2537 760.30731 3721.4753 3485462
-1972.2319 765.36487 3746.2305 5327665
-2001.2635 785.47296 3844.6538 4669479
-1959.1844 777.81281 3807.1594 5722168
-1949.0439 782.80176 3831.5789 3353876
-1904.7598 774.03339 3788.6602 4472358
-1831.2786 753.04962 3685.9509 3353877
-1806.7544 751.93402 3680.4907 6906441
-1811.434 763.09369 3735.1138 6314816
-1751.4612 746.95679 3656.1287 6182971
-1741.8772 752.1745 3681.6675 5920056
-1726.4338 754.96228 3695.313 5327663
-1701.3477 753.55072 3688.4036 6840906
-1677.954 752.86182 3685.0317 5656888
-1676.0381 761.9184 3729.3611 7235920
-1657.4027 763.51495 3737.1755 3814426
-1596.6274 745.47913 3648.8958 7104074
-1603.5492 758.99048 3715.0298 5920057
-1594.7601 765.3382 3746.1001 5328179
-1592.8724 775.22394 3794.4875 4933422
-1561.5831 770.87866 3773.2188 2038283
-1527.5314 765.02362 3744.5601 3024658
-1531.0018 778.06494 3808.3936 2169350
-1498.6942 773.04187 3783.8071 4077600
-1449.5543 759.052 3715.3311 3287316
-1409.5615 749.49432 3668.5491 4208671
-1408.485 760.65405 3723.1724 4274464
-1399.6129 767.89191 3758.5996 2366214
-1372.1687 765.00958 3744.4915 1774592
-1346.0322 762.77344 3733.5464 3616279
-1290.7303 743.659 3639.9868 3550995
-1277.1702 748.35309 3662.9629 3748887
-1247.3402 743.51147 3639.2646 5393969
-1240.7639 752.60431 3683.7715 5460275
-1231.2922 760.23517 3721.1223 5723189
-1182.7928 743.60822 3639.7383 4538663
-1156.7922 740.77094 3625.8506 3090705
-1138.7672 743.03021 3636.9089 3945758
-1132.0498 752.89697 3685.2039 2498571
-1117.8737 758.09381 3710.6409 2696205
-1101.3882 761.90173 3729.2793 4604199
-1078.4978 761.34406 3726.55 3353875
-1055.1246 760.41528 3722.0037 4407076
-1014.5719 746.80127 3655.3672 3749147
-980.49152 737.46136 3609.6511 5393972
-957.77789 736.44476 3604.6753 5854524
-947.98486 745.54327 3649.2097 3880733
-940.70331 757.08777 3705.7166 3683099
-915.07318 754.06421 3690.917 5262387
-904.82593 763.87903 3738.9578 5986113
-882.05481 763.34839 3736.3604 3551005
-859.36304 762.86072 3733.9734 2235405
-824.29828 751.07349 3676.2786 1774852
-794.06598 743.16901 3637.5884 4406566
-773.35193 743.98004 3641.5581 6051641
-754.31171 746.49408 3653.8638 6183228
-738.0434 751.98102 3680.7207 7498834
-711.89398 747.42798 3658.4346 7959387
-685.83618 742.68793 3635.2336 6577478
-677.46765 757.41736 3707.3298 7301457
-663.57477 766.75085 3753.0144 7630423
-640.453 765.698 3747.8611 6643528
-620.90515 768.99591 3764.0032 8288611
-590.16132 758.15649 3710.9478 8683370
-568.93658 759.18024 3715.9585 7696477
-540.2597 749.94189 3670.7395 7301974
-529.89795 766.4184 3751.3872 6841421
-505.37411 762.9577 3734.4482 8420196
-488.79309 771.72046 3777.3391 6577991
-470.74606 778.89862 3812.4739 7498836
-446.08371 775.30286 3794.874 8288607
-421.97107 772.33154 3780.3303 10130809
-390.27267 754.36444 3692.3867 6906951
-374.9043 767.70233 3757.6716 6841414
-354.6333 772.05157 3778.9597 6380605
-323.14938 750.9306 3675.5791 5788213
-302.80786 754.52063 3693.1514 3156239
-278.36084 747.64313 3659.4878 1576452
-259.50354 755.88531 3699.8308 4011038
-236.61079 752.80933 3684.7749 7103563
-217.75462 763.25671 3735.9116 8880488
-194.85065 760.27502 3721.3171 8354404
-172.03812 756.93463 3704.9668 8617576
-152.15971 767.4151 3756.2659 8485990
-129.39029 764.40808 3741.5474 7499095
-108.46691 773.31891 3785.1628 7630939
-85.54158 768.88171 3763.4443 8223335
-60.780869 738.99945 3617.1797 7368282
-39.741314 746.4491 3653.6436 8355178
-19.165178 790.8562 3871.0027 8486765
3.7549624 786.61487 3850.2429 8421485
26.207695 775.82086 3797.4094 10328717
47.899349 762.87878 3734.0618 9539454
70.992165 773.38007 3785.4626 10197382
92.465599 765.43298 3746.564 10526605
114.56667 764.75305 3743.2358 8158312
136.55849 763.68268 3737.9966 9540224
0 0 0 0
182.20757 769.36078 3765.7893 8815985
198.96535 748.4491 3663.4329 8815985
225.68648 765.44409 3746.6182 9013109
245.3571 757.62372 3708.3398 9342074
271.74017 770.11218 3769.4673 9802624
297.15686 778.17261 3808.9207 9670780
316.93369 771.36847 3775.6162 7893856
342.36707 778.32098 3809.6467 8749420
363.14755 774.49005 3790.8955 9736059
385.54285 774.34875 3790.2039 7038547
405.83481 770.23108 3770.0491 8025442
429.53342 772.67114 3781.9927 7959649
452.90543 774.31097 3790.0188 8420199
475.73819 774.91742 3792.9873 8749420
500.9429 779.15845 3813.7456 4998962
519.91876 773.76318 3787.3379 6182724
541.72406 772.85114 3782.8735 4932657
564.04565 772.71899 3782.2266 8485735
579.98041 764.18152 3740.4382 9078131
604.60364 767.29919 3755.6985 9078132
625.19434 765.25946 3745.7146 7695965
643.47272 760.62634 3723.0369 6906704
652.03149 745.19208 3647.4907 6906961
673.62305 745.16528 3647.3596 8420199
696.13263 746.12408 3652.0527 8947057
719.40375 747.81665 3660.3372 8223080
744.12671 750.87518 3675.3079 5722947
773.16223 757.98761 3710.1211 6775891
798.66132 761.33557 3726.5083 8025957
827.84729 767.92346 3758.7539 4736305
838.14044 757.09991 3705.7761 6709843
868.31952 764.33368 3741.1831 8289131
897.75391 770.56799 3771.6982 7499618
917.18195 768.11938 3759.7131 4933947
924.09131 755.55133 3698.1963 6841432
956.22119 763.70868 3738.124 7105114
981.78693 766.37274 3751.1638 5986124
1001.9007 764.75726 3743.2563 7104600
1022.3069 763.43005 3736.7603 6381131
1035.4839 756.87518 3704.676 5591872
1069.4352 765.46185 3746.7053 5920581
1074.4874 753.43524 3687.8384 5328444
1101.1412 756.73309 3703.9805 5789507
1100.6031 741.58032 3629.8125 8158055
1149.0107 759.35565 3716.8171 5064758
1161.5229 753.1861 3686.6191 3552033
1183.0126 752.95819 3685.5034 1249294
1196.7112 747.86957 3660.5964 4209193
1213.4635 744.83673 3645.7515 3617310
1269.6373 765.6839 3747.792 3484954
1262.8824 748.51617 3663.7612 3024401
1278.0248 744.68793 3645.0232 5129778
1296.4707 742.88007 3636.1741 3484951
1324.6744 746.63098 3654.5339 4011552
1338.0798 742.05469 3632.134 5590842
1392.9614 760.26031 3721.2454 6183237
1394.3883 749.17828 3667.0022 6841167
1448.7628 766.44769 3751.5308 6380359
1442.0044 751.34241 3677.5947 4866607
1449.4419 743.97327 3641.5251 4077093
1469.3876 743.14655 3637.4785 5064245
1509.3667 752.3291 3682.4243 5393211
1523.4606 748.53162 3663.8367 4274987
1565.6426 758.44757 3712.3723 4538160
1556.2413 743.44653 3638.9468 5919814
1558.1493 734.18414 3593.6104 5985607
1599.0457 743.29486 3638.2046 5591105
1633.8505 749.36932 3667.9373 5590849
1654.5458 748.89777 3665.6292 5656641
1710.8837 764.36243 3741.3237 5393468
1711.808 754.99121 3695.4546 5327676
1714.45 746.60474 3654.4053 3024923
1753.8348 754.22858 3691.7217 6182471
1745.4972 741.39459 3628.9033 4274730
1763.4915 739.92126 3621.6919 4669489
1781.6339 738.54498 3614.9551 4142633
1812.4945 742.41064 3633.8765 4471595
1854.5031 750.69818 3674.4414 3287321
1877.854 751.32855 3677.5269 2892563
1911.015 755.8244 3699.5327 2169870
1924.6113 752.56793 3683.5933 4340522
1934.3068 747.87634 3660.6294 4077349
1923.9961 735.63947 3600.7336 4998450
1950.3505 737.53619 3610.0176 5261622
1986.8362 743.1814 3637.6492 5524795
2032.5806 752.13147 3681.457 6774861
2049.2795 750.25769 3672.2854 4077863
2051.5588 743.19952 3637.7378 5327931
2049.5374 734.74646 3596.3625 6117444
2135.2002 757.57812 3708.1167 4604206
2160.2661 758.6637 3713.4302 5788737
2191.3081 761.80475 3728.8047 5525306
2159.8416 743.3692 3638.5681 3682591
2216.075 755.18408 3696.3984 4340264
2208.3911 745.19934 3647.5264 5261370
2203.1646 736.22937 3603.6211 6182726
2200.7815 728.37274 3565.165 6511693
2246.8914 736.56213 3605.2498 5722177
2273.8301 738.37189 3614.1082 4866611
2310.978 743.43219 3638.8767 4932402
2386.5198 760.6358 3723.0833 3222039
2382.1245 752.28003 3682.1841 4077604
2394.168 749.22009 3667.2068 5590588
2432.3423 754.31909 3692.1646 4143655
2445.4768 751.63086 3679.0068 2959124
2459.5728 749.2832 3667.5154 6182982
2529.032 763.69464 3738.0552 3683104
2541.8479 760.89978 3724.375 3551262
2558.0928 759.17059 3715.9114 5130549
2537.9092 746.7522 3655.1272 5524794
2563.9922 748.04236 3661.4419 3418905
2564.9705 742.04797 3632.1013 3485208
2584.6438 741.51685 3629.5017 4011295
2642.4219 751.8363 3680.0122 5984829
2664.8503 752.01123 3680.8684 3155730
2727.4263 763.42078 3736.7148 3287830
2699.4956 749.51733 3668.6616 3353621
2740.2615 754.75739 3694.3101 2432265
2734.6567 747.24359 3657.5322 3616538
2738.1387 742.31134 3633.3904 3155728
2753.6768 740.69897 3625.4983 2891786
2730.8237 728.86487 3567.574 4865576
2790.7412 739.13464 3617.8413 2957840
2825.4297 742.61676 3634.8853 5129260
2824.7002 736.80756 3606.4509 6379072
2838.9258 734.95734 3597.3948 5260591
2847.3765 731.65082 3581.2102 5063211
2876.2278 733.59637 3590.7334 4207645
2853.9155 722.55975 3536.7124 3944474
2891.9053 726.84009 3557.6633 4405025
2917.3328 727.92401 3562.9688 4733990
2950.0427 730.79633 3577.0281 4338976
3017.7239 742.22919 3632.9883 3878685
3058.6914 746.97614 3656.2231 4010525
3061.114 742.30927 3633.3804 5326642
3104.8638 747.6593 3659.5671 6313280
3090.1729 738.96008 3616.9871 6182209
3105.7473 737.56836 3610.1748 6116417
3126.1289 737.32941 3609.0054 2760461
3130.8091 733.41553 3589.8479 3616284
3134.5276 729.33069 3569.854 4932145
3168.9656 732.40045 3584.8796 4406315
3207.4321 736.35425 3604.2322 4932401
3216.4863 733.54785 3590.4958 4537643
3208.4888 726.91522 3558.031 4932916
3256.853 733.05511 3588.084 3353629
3310.6108 740.32147 3623.6504 4866867
3289.4036 730.83844 3577.2339 4537645
3268.8569 721.62268 3532.1255 4931888
3272.3228 717.79144 3513.3728 5260596
3195.103 696.42194 3408.7754 5128750
3245.2124 702.89996 3440.4836 3878939
3259.259 701.53479 3433.8015 2825995
3325.053 711.25568 3481.3823 4207903
0 0 0 0
0 0 0 0
0 0 0 0
0 0 0 0
0 0 0 0
0 0 0 0
0 0 0 0
-3207.0061 754.24341 3587.7251 9472878
-3221.6777 762.75079 3628.1924 8946790
-3170.134 755.59033 3594.1321 8420190
-3158.8972 758.005 3605.6179 7433551
-3152.1165 761.52911 3622.3811 8486240
-3142.814 764.4881 3636.4561 6841415
-3124.7178 765.33411 3640.4802 6117435
-3100.3623 764.64825 3637.2178 6709572
-3061.9758 760.46796 3617.3333 7301708
-3068.4768 767.45544 3650.571 7170123
-2983.4851 751.49658 3574.6592 8485728
-3000.9624 761.30457 3621.313 6841160
-2962.5027 756.96106 3600.6521 7828311
-2901.1787 746.66998 3551.7004 9012072
-2873.0181 744.82617 3542.9297 7827798
-2889.6951 754.66467 3589.729 7170122
-2899.5557 762.8559 3628.6924 7432781
-2850.9026 755.65985 3594.4626 8090965
-2843.8967 759.47766 3612.6228 6906693
-2821.3503 759.17157 3611.167 4866855
-2768.6492 750.68488 3570.7981 5590577
-2766.1331 755.77924 3595.0305 5787955
-2752.8225 757.98041 3605.501 6051385
-2728.1924 757.07483 3601.1934 6840644
-2717.9224 760.17139 3615.9229 5920055
-2705.1592 762.61438 3627.5435 5722420
-2693.2944 765.35175 3640.5642 5525041
-2672.3821 765.54144 3641.4668 6906951
-2646.0769 764.17688 3634.9756 6511938
-2628.4829 765.32629 3640.4434 5064236
-2618.0281 768.59064 3655.9707 4471842
-2572.2522 761.45343 3622.0212 4011548
-2539.5513 758.09937 3606.0667 5787959
-2527.936 761.03613 3620.0361 5590836
-2506.9277 761.1712 3620.6787 6380353
-2483.3186 760.51208 3617.5435 5853752
-2476.1482 764.91962 3638.5088 6051131
-2447.2493 762.63348 3627.634 5656372
-2379.8645 748.20709 3559.012 4537891
-2408.5886 764.00873 3634.1758 5129772
-2385.9053 763.64178 3632.4304 6051131
-2379.5366 768.53741 3655.7178 6709061
-2358.719 768.81348 3657.0308 5064236
-2339.6704 769.67664 3661.1365 4471844
-2311.1692 767.41718 3650.3889 4866602
-2288.3779 767.02893 3648.5422 3945500
-2265.259 766.52246 3646.1331 4077341
-2231.2627 762.29004 3626.0005 5722166
-2230.1125 769.30597 3659.3735 6182716
-2185.6287 761.36438 3621.5974 4735013
-2169.7302 763.32178 3630.9082 4998442
-2098.918 745.80591 3547.5903 5196078
-2094.7417 751.85291 3576.3542 4801578
-2088.6819 757.34058 3602.4575 5064236
-2081.0979 762.38324 3626.4438 4735529
-2058.1677 761.85052 3623.9099 4077341
-1980.7943 740.94141 3524.4509 4406306
-1994.7782 754.12415 3587.1577 4932650
-1964.5039 750.67896 3570.7698 4998442
-1939.1667 749.0658 3563.0967 4472354
-1932.6479 754.76636 3590.2126 7170122
-1925.7177 760.43134 3617.1594 4537894
-1916.8694 765.45807 3641.0701 4735527
-1922.7273 776.53857 3693.7769 4077596
-1906.4467 778.83014 3704.6775 6182719
-1867.5837 771.84229 3671.438 3682841
-1889.7634 790.21497 3758.8318 2893327
-1843.4192 780.03052 3710.387 2564365
-1769.1017 757.62054 3603.7891 4735786
-1751.0642 759.05945 3610.6335 4143907
-1685.5415 739.69519 3518.5232 6446404
-1666.3815 740.44678 3522.0984 7236176
-1675.962 754.15015 3587.2812 5985595
-1658.7634 756.00061 3596.0837 6709062
-1673.2872 772.54547 3674.7827 6446400
-1634.0924 764.39801 3636.0276 5656883
-1626.7209 771.11804 3667.9929 3222547
-1608.0144 772.57428 3674.9197 4735268
-1592.0853 775.42303 3688.4707 4998183
-1536.0087 758.52527 3608.0928 5393451
-1570.7461 786.63007 3741.7795 4999209
-1536.4142 780.45453 3712.4038 3683099
-1482.8665 764.19653 3635.0693 5985599
-1460.2897 763.65552 3632.4958 3157020
-1441.2676 764.98499 3638.8198 2564365
-1437.0874 774.35223 3683.3772 3946269
-1385.077 757.83838 3604.8254 3683097
-1352.9854 751.87628 3576.4651 5854014
-1351.9924 763.28156 3630.7168 3616536
-1361.5232 781.09296 3715.4409 3090446
-1338.959 780.77478 3713.9272 2366724
-1312.7319 778.27429 3702.0332 3617046
-1266.4783 763.61401 3632.2983 4801323
-1238.5405 759.68109 3613.5906 6840904
-1219.4209 761.11371 3620.405 7038283
-1195.2673 759.39941 3612.2507 4998699
-1173.0493 758.87463 3609.7546 5459504
-1145.0793 754.54028 3589.1372 5196331
-1128.8296 757.91101 3605.1707 5393712
-1116.1283 763.84015 3633.374 4669989
-1098.3699 766.47351 3645.9001 4406562
-1088.214 774.62433 3684.6714 4143390
-1063.4652 772.50861 3674.6074 3748632
-1021.8902 757.82617 3604.7673 2959117
-998.39978 756.21454 3597.1011 2235139
-963.96948 746.06567 3548.8257 1971973
-955.69836 756.1615 3596.8489 4735528
-945.30316 764.99908 3638.8867 5459509
-919.72949 761.67914 3623.0947 5788474
-895.8241 759.61499 3613.2764 4472871
-871.36169 756.96606 3600.6758 5986626
-862.43402 768.01807 3653.2473 4209448
-833.10602 761.00446 3619.8855 920064
-803.47772 753.33862 3583.4214 919808
-790.40527 761.20062 3620.8186 2959121
-770.8894 763.12292 3629.9624 3156240
-735.60553 749.09833 3563.2515 5064235
-712.05731 746.54895 3551.1248 5656628
-689.72467 745.15753 3544.5061 5919289
-668.92358 745.38531 3545.5896 4604199
-653.49005 751.80298 3576.1165 3419159
-640.64886 761.73303 3623.3511 4603687
-617.60468 759.7998 3614.1553 4669735
-594.06268 757.09326 3601.281 4801320
-577.53229 763.4538 3631.5364 6841162
-552.53064 758.67487 3608.8042 5657148
-535.13379 764.37372 3635.9121 6117444
-516.78052 769.12726 3658.5232 4866863
-495.27179 769.39508 3659.7974 4932657
-479.48135 778.97766 3705.3789 3616800
-454.0545 773.07306 3677.2925 6380871
-428.22531 765.85345 3642.9509 5065265
-411.49722 775.0083 3686.4978 5854265
-387.12753 769.99072 3662.6306 5591091
-364.64542 768.35431 3654.8467 6183481
-345.05869 772.9975 3676.9329 7564892
-316.65857 757.19214 3601.7512 6118469
-297.40103 762.54382 3627.2078 1446663
-275.67157 761.89746 3624.1331 8026209
-254.50949 762.84253 3628.6287 6183752
-225.31184 737.65417 3508.8147 7762268
-209.39339 755.23926 3592.4619 8223071
-191.86591 770.34454 3664.3137 8486243
-167.90518 760.17944 3615.9612 6972751
-147.79997 767.04944 3648.6396 7433304
-126.08514 766.48883 3645.9731 7235925
-105.58343 774.59625 3684.5378 6907218
-83.226685 769.77393 3661.5994 7960163
-60.415806 755.86829 3595.4541 6446924
-39.218609 757.99878 3605.5884 8947572
-18.042995 766.14612 3644.343 6381902
3.6261277 781.66022 3718.1389 7302748
25.61924 780.39996 3712.1443 8486768
46.876839 768.25 3654.3506 7828838
67.849945 760.58966 3617.9124 6183499
89.635002 763.52454 3631.8726 9802369
111.20872 763.87115 3633.5215 6512460
133.49409 768.20062 3654.1155 6117959
156.7119 775.93829 3690.9214 6118219
181.38301 788.09503 3748.7478 7631712
198.0146 766.47925 3645.9275 7630942
220.7674 770.47974 3664.9565 9275254
239.89575 762.24713 3625.7966 7432792
258.38696 753.51007 3584.2368 9012080
284.45267 766.51135 3646.0801 8683113
306.77243 768.29529 3654.5659 9472886
334.51392 782.52692 3722.2617 7170132
357.96329 785.57837 3736.7769 9143923
376.22391 777.55054 3698.5908 6906706
397.8241 776.92871 3695.6326 5657148
420.10934 777.63971 3699.0149 7236181
434.45316 764.30939 3635.606 9209970
459.49643 770.17236 3663.4944 9670523
478.87888 766.44598 3645.769 8551529
504.47641 772.5592 3674.8481 9933438
530.62854 778.98071 3705.3936 6840655
557.43738 785.81763 3737.9148 3616795
567.55884 769.50677 3660.3286 3485465
596.50562 778.98102 3705.395 4866607
618.94824 779.59021 3708.2927 5459000
627.89496 763.74182 3632.9065 5064500
647.64832 761.6532 3622.9714 6314824
674.95007 768.29083 3654.5449 8288614
688.89117 759.78033 3614.0625 8486763
713.30035 762.98016 3629.2832 8881521
730.23151 758.22791 3606.6782 10460296
755.33282 761.9881 3624.5645 9539709
794.07275 778.9187 3705.0986 5263163
821.64075 784.27429 3730.5737 4736309
839.57172 780.3916 3712.1047 6579026
840.72656 761.51166 3622.2981 7828577
858.07373 757.87335 3604.9917 6183756
876.09894 754.99609 3591.3054 8420718
913.57843 768.62292 3656.1243 5526081
933.96686 767.57214 3651.126 7499356
957.83868 769.36688 3659.6631 9209978
970.0083 761.89081 3624.1016 5788736
984.00421 756.14191 3596.7556 8420717
1007.3421 757.66333 3603.9924 7959651
1008.9118 743.08868 3534.665 6972756
1040.4667 750.74255 3571.0725 6051908
1065.5457 753.5119 3584.2454 7367769
1077.7057 747.2157 3554.2961 7894370
1094.4253 744.2616 3540.2444 7696995
1119.6399 747.08698 3553.6838 7236699
1177.3693 771.10321 3667.9224 9538687
