# .PCD v0.7 - Point Cloud Data file format
VERSION 0.7
FIELDS x y z rgb
SIZE 4 4 4 4
TYPE F F F U
COUNT 1 1 1 1
WIDTH 1293
HEIGHT 1
VIEWPOINT 0 0 0 1 0 0 0
POINTS 1293
DATA ascii
-1144.4689 894.21509 1807.6378 7170679
-1134.329 894.66663 1808.5505 6579571
-1131.1746 900.68903 1820.7246 7895946
-1115.6564 896.88794 1813.0409 7171965
-1113.3087 903.70392 1826.8191 6053484
-1105.5247 906.19745 1831.8599 6316655
-1091.9205 903.92242 1827.261 5921641
-1082.1184 904.78088 1828.9962 5263968
-1077.2448 909.81903 1839.1808 6513264
-1071.3447 914.08459 1847.8035 5723748
-1060.1439 913.86877 1847.3672 5855077
-1049.2361 913.90369 1847.4377 5789286
-1031.7401 908.14044 1835.7875 6250606
-1012.7159 900.8949 1821.1407 5789800
-999.18518 898.43262 1816.1635 4802647
-991.62402 901.34296 1822.0465 4735827
-981.90863 902.33765 1824.0574 2893624
-967.72101 899.19904 1817.7126 2301231
-957.07056 899.31342 1817.9438 5526113
-957.15826 909.63531 1838.8094 6842743
-957.16327 920.11554 1859.995 4606293
-942.42493 916.50214 1852.6906 6447729
-928.89679 913.99432 1847.6211 6316142
-919.00763 915.04999 1849.755 6381934
-907.0661 914.06299 1847.7599 6645621
-896.50177 914.45667 1848.5555 5197921
-892.28851 921.4184 1862.6285 4408662
-884.38501 924.69604 1869.2544 4276820
-880.05573 931.84149 1883.6986 4802647
-876.86029 940.38641 1900.9722 5131099
-870.06683 945.245 1910.7936 5854565
-855.3432 941.50275 1903.2288 5329248
-838.35919 935.13892 1890.3645 4539734
-819.93597 926.97589 1873.8629 4408148
-806.20398 923.96509 1867.7767 4539477
-791.79541 920.08423 1859.9318 4276048
-776.2243 914.72382 1849.0957 4407376
-765.29602 914.75952 1849.168 4867928
-751.65759 911.50977 1842.5985 5065821
-740.69379 911.45538 1842.4886 4868955
-730.6701 912.57361 1844.749 3618634
-716.84021 908.89978 1837.3225 5131617
-707.69977 911.15009 1841.8716 4078927
-692.76172 905.88983 1831.238 4342354
-679.39246 902.54614 1824.4788 9013655
-666.87384 900.24274 1819.8224 4013644
-658.67102 903.78528 1826.9836 5395041
-644.47925 899.09137 1817.495 5000540
-637.53912 904.52637 1828.4817 3816266
-625.29346 902.4917 1824.3688 3421508
-616.85986 905.98419 1831.4288 4802647
-605.86444 905.77203 1830.9999 3814724
-595.58301 906.63885 1832.7521 3682624
-584.14764 905.74866 1830.9526 4077638
-572.48077 904.45911 1828.3458 4011590
-557.1499 897.21942 1813.7109 4077383
-548.88873 901.30359 1821.967 4801877
-538.44092 901.8891 1823.1506 4473168
-527.48505 901.63013 1822.6271 3354686
-517.672 903.35461 1826.1132 2630962
-507.59317 904.67914 1828.7905 2959672
-496.94135 905.01788 1829.4752 3814723
-483.65414 900.46503 1820.2719 2826802
-468.94232 892.9917 1805.1648 2036514
-457.87082 892.26355 1803.6926 2957616
-443.04681 884.01306 1787.0144 2497571
-432.35086 883.79694 1786.5776 2496806
-422.46997 885.27783 1789.5713 1510422
-416.73959 895.75641 1810.7534 3089720
-404.00754 891.34137 1801.8286 2367280
-393.82605 892.46661 1804.1031 1972778
-384.12891 894.78284 1808.7854 2302770
-375.42432 899.61047 1818.5443 2894908
-361.93793 892.92645 1805.0327 3026494
-351.83231 894.42987 1808.0719 1578537
-343.50473 900.68988 1820.7263 3288897
-330.35022 894.289 1807.7871 2235951
-318.19666 890.25934 1799.6414 1445656
-309.26019 895.26343 1809.757 1840415
-298.55426 895.32062 1809.8726 1971492
-289.83936 901.57538 1822.5165 1905695
-279.38284 902.68726 1824.764 1905440
-268.3468 901.94067 1823.2549 2365991
-257.31705 901.15363 1821.6637 2431275
-245.55832 897.63275 1814.5465 3615807
-234.27115 895.59222 1810.4215 4076617
-222.96034 893.26099 1805.7091 2629941
-212.25818 893.25629 1805.6995 2038060
-201.72643 894.0061 1807.2152 2498867
-192.31599 900.0882 1819.51 1841707
-181.92566 902.03412 1823.4437 2368052
-171.44447 903.74695 1826.9061 2039086
-160.88391 905.24408 1829.9326 1512229
-149.00429 898.99915 1817.3086 525587
-137.69553 895.4939 1810.2228 196620
-127.18133 897.00006 1813.2676 854294
-116.30059 895.96063 1811.1664 525072
-104.78506 889.3222 1797.7468 1841191
-93.144867 880.00342 1778.9092 2235691
-82.922585 883.41162 1785.7987 5590366
-73.122032 892.9671 1805.115 5920358
-62.529072 894.46252 1808.1379 3419966
-52.1521 900.30505 1819.9484 2433328
-41.378448 900.56067 1820.4653 2630194
-30.689066 903.47766 1826.3619 1840933
-19.924412 906.14996 1831.7638 1511455
-9.0651665 905.76801 1830.9917 1248026
1.7813436 903.56787 1826.5442 1379617
12.599108 903.08575 1825.5696 2234669
23.44009 903.94446 1827.3055 2037547
34.234848 903.04126 1825.4796 2169133
44.881989 899.61285 1818.5492 2695734
55.509987 897.20282 1813.6774 1972006
66.088776 894.90826 1809.0391 1840411
77.396851 901.7511 1822.8717 1708569
88.191315 901.66669 1822.7009 1840155
99.457207 905.89465 1831.2477 2037790
110.31194 905.914 1831.2869 2037794
121.06005 905.13287 1829.7078 1708826
132.0031 905.81781 1831.0923 1972006
142.40317 902.95575 1825.3066 2103840
152.75806 900.23145 1819.7996 2038048
163.98758 902.68097 1824.7513 2103841
174.82912 902.82397 1825.0403 1906984
185.65231 902.8609 1825.1151 1840928
196.09363 901.13898 1821.6342 1973032
207.59077 904.19562 1827.8131 2170414
218.06935 902.73248 1824.8553 2038821
229.4552 904.98602 1829.4109 2368058
240.88622 907.20618 1833.899 4013395
251.935 907.85742 1835.2155 3223623
262.74277 907.62213 1834.7397 4079189
273.77423 908.14764 1835.802 3684687
284.52515 907.73779 1834.9736 3223365
294.72754 905.67273 1830.7991 3881550
304.81808 903.42267 1826.2507 4407892
315.5864 903.26685 1825.9357 5328995
326.0108 902.16968 1823.7178 5855082
336.41843 901.09796 1821.5513 5526375
348.9671 905.64935 1830.752 5986154
360.65817 907.76782 1835.0343 4736858
370.78885 905.94965 1831.359 5789803
382.34515 907.6192 1834.7338 7237250
393.92749 909.25641 1838.0433 4145493
407.17554 914.54681 1848.7379 4606301
417.73618 913.68201 1846.9897 5461867
428.32117 912.91333 1845.4358 6514298
436.93707 908.09052 1835.6865 7830671
449.33643 911.17419 1841.9202 6186103
457.77557 906.27155 1832.0095 7370120
471.07053 910.98639 1841.5405 5856367
483.7724 914.36682 1848.374 6975104
495.052 914.96887 1849.5911 7303812
506.14087 915.19995 1850.0582 7238276
516.76276 914.5946 1848.8346 7633548
526.26758 912.07867 1843.7487 7896718
535.28723 908.84119 1837.2041 8160148
544.61768 906.24988 1831.9658 9147299
555.44617 906.20404 1831.873 9279140
568.11316 909.10187 1837.7311 9344933
577.84265 907.27863 1834.0453 8884382
589.50623 908.50311 1836.5208 8424088
599.39636 906.99988 1833.4819 8160659
612.56842 910.42786 1840.4115 8424344
623.64276 910.67267 1840.9064 8555674
634.0119 909.89697 1839.3384 8424086
645.17438 910.26691 1840.0862 8753051
656.71313 911.14661 1841.8644 8753051
668.10596 911.79828 1843.1818 9016223
678.74414 911.41577 1842.4084 9082016
690.75226 912.85571 1845.3193 8884894
700.67712 911.54059 1842.6608 8687258
705.51141 903.74493 1826.9021 8818590
714.99915 902.05579 1823.4874 8884383
731.10504 908.64221 1836.8018 9147555
743.17139 910.08856 1839.7256 9213348
753.18512 909.01575 1837.5569 8949919
768.68768 914.5036 1848.6505 9015969
780.00366 914.92639 1849.5051 9015713
789.62103 913.37268 1846.3645 8884385
800.78149 913.62207 1846.8685 9081764
811.79749 913.70197 1847.0302 9344936
822.45349 913.38 1846.3793 9279143
831.06055 910.82098 1841.2062 8752543
844.26093 913.29712 1846.2118 8819105
855.88031 914.02155 1847.6761 8753568
866.74292 913.92975 1847.4905 9213864
877.55115 913.78345 1847.1948 9279656
890.3924 915.73187 1851.1334 9213606
901.42889 915.79913 1851.2694 9082021
912.27356 915.67236 1851.0132 8884386
920.09906 912.55408 1844.7096 9213094
929.47644 911.03021 1841.6292 8950178
945.79272 916.26398 1852.209 9739693
959.17963 918.5722 1856.8751 9738923
969.2356 917.67438 1855.0602 9278628
981.05573 918.4483 1856.6246 9739179
992.3996 918.7641 1857.2629 9673641
1002.5026 917.93671 1855.5906 9607847
1016.8318 920.95514 1861.6921 9607847
1030.0051 922.87299 1865.5691 9871018
1038.0029 920.16223 1860.0894 10068398
1053.4728 924.06256 1867.9738 10068655
1064.1022 923.68005 1867.2006 10397109
1076.2898 924.6441 1869.1494 10397621
1087.2083 924.50934 1868.877 10397622
1095.7356 922.3645 1864.5413 10726587
1105.9196 921.64301 1863.0828 10332086
1124.2716 927.6756 1875.2776 10792380
1135.2643 927.57709 1875.0784 10595001
1146.4946 927.67273 1875.2717 10858173
1156.7313 926.97034 1873.8518 10923966
1169.4167 928.22491 1876.3878 10858173
1181.7159 929.1521 1878.2622 10595001
1190.5983 927.40063 1874.7216 10331829
1203.5245 928.80225 1877.5549 10923966
1215.2853 929.28699 1878.5349 10792380
1227.3237 929.97339 1879.9225 10858173
1236.1521 928.23706 1876.4124 11055553
1250.2616 930.46167 1880.9095 10989760
1263.363 931.90369 1883.8245 10923967
1274.149 931.62732 1883.2657 10726587
1285.2725 931.60034 1883.2113 10858429
1296.1621 931.40588 1882.8181 10660794
1307.356 931.43146 1882.8699 10595002
1321.1171 933.27008 1886.5865 10463415
1331.5619 932.75482 1885.5452 10529208
1344.9199 934.27197 1888.6119 10594745
1358.3153 935.78973 1891.6801 10529209
1368.2666 934.92938 1889.9408 10595001
1380.1516 935.39349 1890.879 10595000
1392.1829 935.94843 1892.0009 10595256
1404.5117 936.69299 1893.506 10660791
1413.2943 935.07953 1890.2443 10397623
1426.1639 936.17419 1892.4572 10266293
1436.6628 935.70776 1891.5143 9674667
1454.1943 939.79333 1899.7733 9739692
1449.9337 929.841 1879.6548 3224645
1470.4323 935.79742 1891.6956 2831172
1463.3291 924.23047 1868.3132 9412010
1488.4917 933.06317 1886.1685 9938354
1502.9935 935.13129 1890.349 10003633
1511.0536 933.19049 1886.4258 10003377
1523.3301 933.86316 1887.7854 10200243
1533.2913 933.11688 1886.277 9937585
1548.2267 935.38666 1890.8652 9674156
1557.7415 934.37244 1888.8151 9739949
1566.6571 933.01587 1886.0728 9805228
1579.2037 933.82562 1887.7096 9608106
1589.5762 933.34729 1886.7427 9739692
1603.0618 934.69104 1889.459 9542568
1611.173 932.90405 1885.8466 9279395
1628.65 936.52747 1893.1713 9147556
1640.7644 937.03851 1894.2043 9213349
1653.9287 938.13824 1896.4276 9081762
1662.3925 936.57495 1893.2673 8884383
1677.368 938.67664 1897.5157 8753825
1687.5399 938.08008 1896.3101 8753569
1698.1179 937.71558 1895.5731 8621983
1708.1671 937.06598 1894.2599 8622239
1720.6173 937.73322 1895.6088 8621983
1729.5312 936.47717 1893.0696 8293019
1741.2729 936.75836 1893.6382 8358811
1755.1016 938.15179 1896.4548 8293018
1766.1274 938.03864 1896.2261 8358811
1777.0997 937.89862 1895.9431 8424604
1790.6296 939.10181 1898.3754 8227225
1801.2051 938.75024 1897.6646 8161688
1814.983 940.06158 1900.3156 8227226
0 0 0 0
0 0 0 0
0 0 0 0
0 0 0 0
0 0 0 0
0 0 0 0
0 0 0 0
0 0 0 0
0 0 0 0
0 0 0 0
0 0 0 0
0 0 0 0
-1532.7872 887.85895 1773.5424 4933966
-1533.261 894.26538 1786.3395 5065040
-1525.0339 895.65094 1789.1072 4736333
-1517.4252 897.42145 1792.6439 4538697
-1506.8027 897.42212 1792.6453 4867408
-1495.2938 896.89117 1791.5847 5460061
-1481.1442 894.75726 1787.3221 5065816
-1464.1545 890.86469 1779.5464 5526882
-1453.8059 890.9856 1779.7881 5459801
-1440.4141 889.22968 1776.2804 5722976
-1433.8621 891.70135 1781.2178 5723234
-1423.1648 891.61273 1781.0408 5591905
-1415.1111 893.19147 1784.1943 5460061
-1403.0836 892.26685 1782.3474 5788769
-1391.551 891.64526 1781.1057 5854305
-1377.6899 889.5108 1776.842 5723233
-1363.8553 887.36072 1772.5471 5657952
-1352.1562 886.57751 1770.9827 5919839
-1346.0668 889.48877 1776.7981 5195087
-1340.2941 892.65698 1783.1267 5984859
-1327.8917 891.42517 1780.666 5261652
-1325.2129 896.75317 1791.3091 4407883
-1306.2561 891.06317 1779.9431 5526363
-1289.5482 886.82733 1771.4817 5263192
-1276.7998 885.26715 1768.3651 5591389
-1267.0127 885.75128 1769.3323 5591646
-1255.3037 884.88885 1767.6094 5722460
-1249.0415 887.88361 1773.5917 6445150
-1237.8171 887.37201 1772.5697 7232865
-1229.2599 888.78003 1775.3822 7692382
-1225.3793 893.62286 1785.056 7493973
-1217.3213 895.47693 1788.7598 7691094
-1211.434 898.97449 1795.7463 5388085
-1203.2379 900.80573 1799.4042 7099472
-1188.4238 897.67072 1793.1418 8874857
-1187.4126 904.99915 1807.7808 2824472
-1175.1855 903.83484 1805.4551 5452852
-1154.0023 895.69775 1789.2008 7097417
-1143.2344 895.56879 1788.9431 8282720
-1143.6708 904.29651 1806.3772 4337716
-1134.4686 905.49591 1808.7732 5260873
-1125.108 906.5907 1810.9601 3551542
-1116.4718 908.29578 1814.366 2960431
-1104.2424 907.08252 1811.9424 3419700
-1083.2471 898.57373 1794.9458 3946043
-1076.6907 901.99243 1801.7748 5392460
-1070.5537 905.83447 1809.4495 4076346
-1063.871 909.2879 1816.3477 5721171
-1048.2924 905.13092 1808.0439 2563106
-1046.3586 912.7912 1823.3457 3614767
-1035.4436 912.69464 1823.1528 4798267
-1023.6118 911.77936 1821.3246 4468274
-1013.9875 912.83191 1823.4272 4206389
-1004.1653 913.72723 1825.2157 3088679
-989.73218 910.40063 1818.5704 2628899
-971.48712 903.45563 1804.6976 3418414
-967.67145 909.92456 1817.6196 2101270
-959.22418 912.13489 1822.0347 2692891
-944.92371 908.76611 1815.3054 3087908
-932.05798 906.71564 1811.2095 3812661
-920.71259 906.11359 1810.0068 2694949
-910.75555 906.8797 1811.5372 2497569
-896.88293 903.71869 1805.223 4010034
-889.13239 906.72461 1811.2275 4272437
-885.59155 914.14941 1826.059 5193282
-872.60889 911.89117 1821.5479 3746867
-866.62177 916.97815 1831.7095 3418675
-853.88361 914.96057 1827.6792 1446170
-845.82147 917.96582 1833.6823 1380634
-844.68848 928.66724 1855.059 1710369
-823.36621 917.16199 1832.0765 2170405
-809.14941 913.36963 1824.5013 1578010
-803.35986 919.11621 1835.9803 1249815
-792.888 919.59003 1836.9269 1184025
-781.61255 919.13214 1836.0121 854797
-766.83374 914.48334 1826.726 1052435
-752.50482 910.24554 1818.2607 460044
-743.06531 911.88495 1821.5355 2168607
-734.0517 914.10309 1825.9663 3549490
-726.51929 918.25958 1834.2693 853258
-716.43707 919.27087 1836.2892 1444881
-705.19653 918.80402 1835.3567 1247757
-693.27423 917.42041 1832.5928 459013
-678.47028 912.11865 1822.0023 3154473
-666.47632 910.48431 1818.7377 2759198
-653.72662 907.7467 1813.2692 4008495
-643.56879 908.57684 1814.9274 4468527
-633.53485 909.6131 1816.9973 2034700
-620.25977 905.95105 1809.6823 5849151
-610.19604 906.93323 1811.6443 2954772
-596.35425 902.23468 1802.2587 4073508
-586.87463 904.08484 1805.9543 4928821
-577.86279 906.73755 1811.2534 1639941
-560.37341 895.93689 1789.6783 2233109
-551.65424 899.01172 1795.8206 1838607
-541.29773 899.48688 1796.7697 3284768
-530.70093 899.57373 1796.9431 2693403
-523.94714 906.31165 1810.4025 3876648
-516.99768 912.98572 1823.7344 1639430
-505.13931 911.09094 1819.9495 2232080
-495.13177 912.52472 1822.8134 2824219
-481.2157 906.65814 1811.0946 2167316
-472.16534 909.90057 1817.5717 1838866
-459.10843 905.39313 1808.5679 786691
-447.50735 903.60999 1805.0059 1379342
-436.47894 902.92407 1803.6357 2168603
-424.9921 901.23157 1800.2549 853512
-415.98273 904.84088 1807.4647 459268
-401.67206 896.80505 1791.4126 2431264
-393.1246 901.54944 1800.8899 327681
-381.89218 900.22949 1798.2532 525317
-374.32492 907.72162 1813.219 2760997
-362.08667 903.99487 1805.7745 328195
-351.44162 904.13977 1806.0641 1051407
-339.89136 901.89185 1801.5739 196613
-329.93915 903.87616 1805.5375 131076
-317.57886 899.17523 1796.1472 1052433
-307.81821 901.7641 1801.3186 5
-296.04688 898.43701 1794.6725 854800
-287.59842 905.32178 1808.4253 4
-274.25116 896.72211 1791.2469 131077
-263.83136 897.38702 1792.5752 262406
-255.87914 906.85315 1811.4841 788235
-244.84587 905.75067 1809.282 197125
-233.61226 903.77203 1805.3296 393733
-222.74161 903.07526 1803.9377 262146
-210.73167 897.45618 1792.7134 720902
-200.24915 898.0907 1793.9807 1904661
-190.60941 902.78802 1803.3639 721927
-179.34262 899.87939 1797.5538 131072
-168.69325 899.89716 1797.5894 1115917
-158.25053 901.09387 1799.9799 525063
-146.83279 896.5105 1790.8243 327682
-136.53772 898.60162 1795.0015 393220
-125.79173 897.82776 1793.4556 458757
-115.91257 903.66901 1805.1238 853514
-105.47639 905.91376 1809.6077 1379347
-94.973808 908.03192 1813.8387 984842
-83.896423 904.49365 1806.771 852999
-73.20282 904.66302 1807.1094 1445138
-62.231941 900.87665 1799.5458 919819
-51.611713 901.6499 1801.0906 656904
-40.776073 898.08203 1793.9636 459267
-30.131834 897.69989 1793.2002 327681
-19.452145 895.26959 1788.3456 393987
-8.8690023 896.78387 1791.3704 262405
1.7451555 895.81647 1789.4379 393476
12.396425 899.20239 1796.2015 327684
23.033434 898.90338 1795.6041 327684
33.563271 895.93243 1789.6696 1906204
44.766865 908.05475 1813.8845 722184
55.648346 910.21411 1818.1979 327681
66.622177 912.93835 1823.6396 459269
77.634033 915.3504 1828.4579 591111
88.755424 918.30499 1834.3599 591111
99.319771 915.4801 1828.717 459527
110.16222 915.52246 1828.8015 196616
120.81814 914.14569 1826.0515 131077
131.79498 915.22388 1828.2053 196868
142.53629 914.62701 1827.0129 262660
152.86679 911.66437 1821.095 196868
163.67279 911.74133 1821.2485 65541
174.27768 910.75769 1819.2837 3
184.62523 908.62219 1815.0181 131076
195.6606 909.92059 1817.6116 1
205.86986 907.44208 1812.6606 65539
216.31535 906.19904 1810.1776 328198
225.85831 901.47119 1800.7335 327682
236.73491 902.25262 1802.2946 327682
248.88234 907.6012 1812.9785 393219
259.68228 907.79639 1813.3684 393219
269.96854 906.25165 1810.2827 327683
281.01505 907.27954 1812.3361 327685
291.44019 906.29956 1810.3785 788498
301.05377 902.95508 1803.6976 262150
311.85562 903.28168 1804.3501 394256
323.49469 905.93121 1809.6426 1512735
338.56058 917.6994 1833.1501 1051160
349.009 916.60889 1830.9718 919573
358.99008 914.39386 1826.5471 327691
369.12665 912.69275 1823.1492 196617
380.11258 913.12897 1824.0205 1511454
387.90662 906.08521 1809.9503 787730
401.05325 911.58698 1820.9403 985109
411.8653 911.63287 1821.032 985366
425.29706 917.32709 1832.4064 1445657
434.18088 913.1723 1824.1071 2169640
444.03601 911.21277 1820.1927 2235429
456.86063 915.29529 1828.3478 1840671
464.82291 909.67291 1817.1168 1183775
471.64981 902.13354 1802.0566 1183513
490.04214 916.55963 1830.8734 722191
499.28903 913.62585 1825.0131 1183006
511.86737 916.78345 1831.3204 2103854
520.6004 913.06555 1823.8939 3090491
530.99457 912.35321 1822.4709 2169645
540.72375 910.54944 1818.8677 1511715
550.90778 909.56714 1816.9055 3485503
560.86359 908.25281 1814.2802 5921128
572.46881 909.60883 1816.9889 7237759
581.58197 907.02814 1811.8339 7369088
592.59637 907.45251 1812.6815 6974589
606.14734 911.67688 1821.1199 6843004
617.90613 913.10498 1823.9727 7172227
627.70227 911.63367 1821.0336 6251638
639.36658 912.87927 1823.5217 6252151
649.51111 911.94977 1821.665 6975876
658.42999 909.35791 1816.4875 8094356
672.79669 914.25226 1826.2644 8225942
678.96423 908.02655 1813.8281 8291734
692.33618 911.47949 1820.7256 8685978
701.95612 909.96271 1817.6957 8423063
714.80023 912.60815 1822.9801 8752541
725.66113 912.68042 1823.1246 8686750
737.29828 913.71271 1825.1866 9147557
750.224 916.28894 1830.3326 9279143
757.85028 912.41138 1822.587 9147556
772.38788 916.84674 1831.447 9015970
781.21082 914.46991 1826.699 8884384
792.67242 915.20435 1828.1661 8687262
803.7619 915.4953 1828.7473 8950691
814.8645 915.79309 1829.3423 8884384
825.57605 915.64948 1829.0553 8884129
837.66998 917.02289 1831.7987 8949922
847.91711 916.36523 1830.4852 8358042
856.54395 913.99524 1825.7509 8489627
868.80945 915.51862 1828.7941 9213351
881.0863 917.01642 1831.7859 9016228
891.96954 917.04492 1831.8428 8424604
902.09821 916.30615 1830.3672 8556190
911.76306 915.11957 1827.9968 7700626
921.74127 914.27155 1826.3029 8819363
935.93073 917.57196 1832.8956 8753570
948.34497 919.07623 1835.9004 9081764
959.30463 919.15259 1836.053 9082018
973.37512 922.1745 1842.0894 8752284
984.59613 922.45966 1842.6589 9607593
995.41492 922.36591 1842.4717 9278627
1006.1393 922.18756 1842.1156 9410468
1018.9315 923.88812 1845.5125 9410724
1030.3883 924.35443 1846.444 9607591
1042.9611 925.80164 1849.3348 9739177
1053.6145 925.53271 1848.7977 9871019
1064.6591 925.6095 1848.9509 9739946
1079.1924 928.68677 1855.098 9805483
1089.6664 928.24408 1854.2136 9937068
1101.2944 928.78345 1855.291 9937324
1114.057 930.25952 1858.2396 9871279
1124.222 929.55884 1856.8401 10002864
1140.085 933.5376 1864.7877 10134451
1149.011 931.81415 1861.3451 10002864
1160.8771 932.48523 1862.6855 10397623
1170.6122 931.44794 1860.6135 10200500
1182.5264 932.14777 1862.0115 10331829
1192.2028 931.08691 1859.8923 10134450
1200.4038 928.90399 1855.5319 10463672
1213.5441 930.54791 1858.8157 10397622
1224.3802 930.41156 1858.5433 10266036
1234.214 929.52258 1856.7675 10792380
1248.7664 932.17157 1862.0591 10660537
1260.8567 932.95251 1863.619 10660794
1271.5276 932.67865 1863.072 10660794
1282.8291 932.86816 1863.4506 10660793
1294.8062 933.54144 1864.7954 10726588
1306.8762 934.26984 1866.2504 10529208
1319.499 935.37787 1868.4637 10595001
1331.5403 936.05853 1869.8235 10595002
1342.679 936.09882 1869.9039 10529977
1354.9772 936.94012 1871.5846 10398393
1366.1539 936.99866 1871.7014 10332599
1375.8624 936.05743 1869.8212 10463930
1387.8073 936.64038 1870.9858 10463672
1401.1945 938.17993 1874.061 10463415
1409.5504 936.35309 1870.4119 10201270
1421.9678 937.23157 1872.1666 10003378
1426.7859 933.12653 1863.9667 9872046
1445.9564 938.39911 1874.4988 10661051
1453.631 936.18732 1870.0807 4935517
1471.7297 940.67188 1879.0389 2699072
1470.5964 932.88892 1863.4921 7307406
1482.189 933.23468 1864.1827 10003636
1499.7212 937.28735 1872.2782 10135223
1509.3231 936.36084 1870.4274 10200758
1519.2072 935.62146 1868.9504 9937843
1527.7639 934.08142 1865.874 10003634
1542.4832 936.30402 1870.3138 9872048
1554.1766 936.67145 1871.0477 9806255
1558.5244 932.63788 1862.9906 9740462
1569.9028 932.83862 1863.3915 9740462
1584.4597 934.91217 1867.5336 9608618
1598.2299 936.49579 1870.6969 9542567
1611.0706 937.51685 1872.7365 9476519
1621.8813 937.35071 1872.4047 9410471
1635.8545 939.00208 1875.7034 9344935
1647.1104 939.08191 1875.8628 9081762
1660.8464 940.56525 1878.8258 8819619
1672.3209 940.75653 1879.208 8753569
1685.2307 941.74762 1881.1876 8687776
1695.7787 941.41425 1880.5217 8819362
1707.4344 941.69629 1881.0852 8753569
1717.1394 940.9057 1879.5059 8753569
1725.4768 939.3808 1876.46 8490397
1737.6841 939.96893 1877.6345 8621983
1747.4584 939.24164 1876.1819 8621983
1758.6299 939.2699 1876.2383 8556190
1771.5811 940.24225 1878.1807 8555935
1784.3577 941.11041 1879.9148 8490143
1796.8248 941.80573 1881.3037 8424349
0 0 0 0
0 0 0 0
0 0 0 0
0 0 0 0
0 0 0 0
0 0 0 0
0 0 0 0
0 0 0 0
0 0 0 0
0 0 0 0
0 0 0 0
0 0 0 0
-1511.7109 886.01648 1749.1555 7099982
-1503.8191 887.47656 1752.038 8350049
-1505.9213 894.89581 1766.6849 9731700
-1500.5159 897.92639 1772.6678 9467760
-1492.3735 899.35034 1775.479 7692122
-1473.8693 894.50568 1765.9148 9007468
-1460.8208 892.9267 1762.7976 7558996
-1448.6484 891.86426 1760.7002 10256766
-1438.6372 892.12659 1761.2181 8282205
-1433.2898 895.30609 1767.495 7690582
-1429.1404 899.28607 1775.3523 7691095
-1414.827 896.8822 1770.6064 9072747
-1403.788 896.53345 1769.918 8348510
-1396.1263 898.3526 1773.5094 8545633
-1389.3292 900.75995 1778.262 8612197
-1376.3674 899.17676 1775.1364 8283233
-1358.7908 894.53107 1765.965 8414558
-1341.6805 890.12268 1757.262 9269353
-1333.6252 891.69983 1760.3755 9532009
-1328.223 895.08948 1767.0674 9138537
-1322.5625 898.35779 1773.5195 8217436
-1309.1664 896.38177 1769.6187 9204076
-1302.1731 898.7934 1774.3795 8677475
-1289.9663 897.61646 1772.056 8480352
-1279.3162 897.51221 1771.8502 7756886
-1262.8563 893.29663 1763.528 8086363
-1257.4268 896.8783 1770.5989 8546913
-1247.7004 897.42981 1771.6875 7362126
-1236.2413 896.73358 1770.3131 7821647
-1224.8341 896.06342 1768.9901 5715755
-1216.4135 897.58557 1771.995 5584165
-1202.8577 895.31201 1767.5066 9399646
-1205.9659 905.51086 1787.641 6241582
-1194.8759 905.13501 1786.899 8676178
-1193.4023 912.10229 1800.6536 6900798
-1176.475 907.27759 1791.1288 6702395
-1159.9441 902.6734 1782.0394 6044979
-1150.0189 903.17261 1783.0249 3414291
-1136.8654 901.12213 1778.9768 9202013
-1129.8705 903.96039 1784.5802 9400933
-1118.8107 903.56952 1783.8085 7624779
-1106.7231 902.33337 1781.368 8611675
-1098.1177 903.93958 1784.5389 8084046
-1087.8516 904.19672 1785.0466 7491652
-1077.6279 904.49457 1785.6348 7623238
-1063.963 901.88153 1780.476 8347990
-1051.4882 900.23474 1777.2251 6900289
-1042.0328 901.16608 1779.0636 6505789
-1038.6246 907.39948 1791.3695 5979446
-1021.7094 901.83936 1780.3928 6637634
-1018.4777 908.36725 1793.2802 6571839
-1004.344 905.20703 1787.0413 7295819
-996.33459 907.55804 1791.6826 3940119
-997.97137 918.841 1813.9572 5979189
-990.34302 921.74634 1819.6929 5649196
-973.82007 916.34601 1809.0316 8149327
-958.12762 911.61566 1799.693 8609624
-946.88654 911.06165 1798.5994 4137498
-941.75104 916.43665 1809.2104 6572097
-921.60144 907.15656 1790.8899 4203804
-912.46497 908.62708 1793.793 6111034
-900.44061 907.2226 1791.0203 5782068
-891.75305 909.18677 1794.8978 5386797
-885.24359 913.44556 1803.3057 4728866
-877.86542 916.90137 1810.1281 2822408
-867.93237 917.74115 1811.7858 6309685
-853.84686 914.15607 1804.7083 5193774
-847.51581 918.88757 1814.0492 5521718
-839.68256 922.09119 1820.3735 6377285
-824.97852 917.73474 1811.7732 3812387
-812.97003 916.30164 1808.944 4404013
-804.56171 918.94208 1814.1566 4600368
-794.83606 920.12921 1816.5002 4599855
-785.59375 921.91608 1820.0278 5192249
-765.75616 911.14575 1798.7653 6704978
-755.54443 911.68652 1799.8329 8090225
-748.64343 916.29486 1808.9305 8418934
-737.96277 916.34387 1809.0273 4864057
-722.28357 910.09607 1796.693 4205608
-709.47821 907.33649 1791.2451 6705226
-696.91321 904.80518 1786.2478 4797231
-686.59119 905.15265 1786.934 5848891
-676.95062 906.42377 1789.4432 5783355
-671.28381 913.14056 1802.7035 4335651
-663.65491 917.36243 1811.0382 4204322
-652.33044 916.53094 1809.3966 2822927
-641.64648 916.58649 1809.5063 3349012
-629.03687 913.84631 1804.0968 3151892
-612.98151 905.91913 1788.447 1771783
-602.14569 905.56268 1787.7433 3809564
-590.99091 904.70508 1786.0502 6309698
-580.47791 904.81647 1786.2701 4204322
-568.03247 901.86389 1780.4413 3678236
-555.90674 899.31683 1775.413 2297868
-546.87714 901.77698 1780.2697 2890261
-536.08124 901.36389 1779.4541 3876641
-529.45374 908.08368 1792.7201 3416604
-517.1568 905.15564 1786.9397 3416347
-506.84744 905.65668 1787.929 3547934
-502.44592 916.961 1810.2457 2626575
-487.21164 908.5575 1793.6555 3416347
-481.63489 918.19019 1812.6722 3482140
-468.42874 913.38586 1803.1877 3285790
-457.85135 913.60278 1803.616 1444104
-445.6366 910.48468 1797.4602 2299414
-435.99777 912.60565 1801.6475 590595
-423.02301 907.67529 1791.9141 459010
-412.73001 908.39337 1793.3317 1181706
-402.47293 909.23065 1794.9845 458754
-391.5408 908.54681 1793.6345 393218
-380.74542 908.15106 1792.8533 655361
-370.70782 909.59198 1795.6979 3876652
-359.7865 908.88556 1794.3032 5849157
-351.9689 916.21545 1808.7738 3611934
-341.79102 917.66876 1811.6429 2692116
-329.60782 913.65765 1803.7242 4272432
-314.58316 901.23737 1779.2045 6313297
-303.55673 899.80725 1776.381 6443600
-292.80417 899.11523 1775.0149 3021078
-283.14917 901.86749 1780.4484 3086359
-272.80637 902.55743 1781.8104 2889494
-262.58853 903.73291 1784.131 2298128
-251.57872 902.16699 1781.0397 2560788
-241.40256 903.58429 1783.8376 4074284
-230.69185 903.03894 1782.7611 3481635
-220.62532 905.08398 1786.7983 2297617
-209.96356 904.77014 1786.1788 852225
-199.43007 905.00519 1786.6427 3941928
-188.32817 902.54254 1781.781 3349530
-178.02966 903.86615 1784.394 3086616
-167.50177 904.11884 1784.8928 2166801
-157.2233 905.84253 1788.2958 2628637
-146.28484 903.73816 1784.1414 2366493
-135.73491 903.89319 1784.4474 1445905
-125.13044 903.68048 1784.0275 1641484
-114.50737 903.28168 1783.2402 3219229
-104.2402 905.89484 1788.399 3218456
-93.70388 906.49573 1789.5853 4074021
-83.330162 909.0238 1794.5762 1904140
-72.126884 901.91827 1780.5486 4206382
-61.466946 900.33588 1777.4247 2890523
-50.602226 894.47931 1765.8627 1576208
-40.48167 902.15253 1781.0111 3482405
-29.982195 903.81586 1784.2948 3219746
-19.403048 903.5813 1783.8318 3285282
-8.707819 890.909 1758.8143 3614504
1.7444919 906.07635 1788.7574 3153439
12.327476 904.78656 1786.2111 1311748
22.814375 900.89423 1778.527 3678751
33.649887 908.87787 1794.2881 5323065
44.131325 905.76031 1788.1335 3020568
54.951607 909.45789 1795.4332 2230797
65.398857 906.78375 1790.1539 3349794
76.738838 915.50641 1807.374 2297875
87.192642 912.81506 1802.0609 3482921
97.7146 911.3468 1799.1621 1970711
109.72787 922.70789 1821.5909 3812914
120.3546 921.41846 1819.0454 5588295
130.5909 917.59772 1811.5027 1246212
141.92827 921.50659 1819.2195 4798778
152.11876 917.94275 1812.1837 2036244
163.1272 919.45923 1815.1775 2496280
173.16838 915.67346 1807.7039 4601143
182.27034 907.65179 1791.8676 2232852
191.82677 902.65179 1781.9967 2035730
204.86559 913.70514 1803.818 2364696
215.3768 912.94824 1802.3237 1904917
225.68491 911.44244 1799.351 3089194
235.3728 907.68066 1791.9247 1576725
248.19502 915.80914 1807.9717 1642004
258.71701 915.12842 1806.6278 3221291
269.56729 915.617 1807.5923 3352617
278.81375 910.82867 1798.1394 1773587
290.38614 913.71173 1803.8309 196608
300.75153 912.72687 1801.8867 1115142
311.36804 912.54565 1801.5289 3218976
322.16467 912.88678 1802.2024 3284512
337.6427 926.04565 1828.1803 1508871
346.10675 919.74719 1815.7461 1904145
357.32803 920.93475 1818.0906 2825763
368.91614 922.97046 1822.1095 1642002
378.6586 920.40436 1817.0435 1971224
387.22595 915.2027 1806.7744 1051149
398.81641 917.23383 1810.7842 2037531
407.8371 913.40308 1803.2217 1445393
417.09555 910.28693 1797.0698 459525
431.91974 919.17047 1814.6075 1182223
440.16745 913.96692 1804.3347 1116941
452.83334 917.96655 1812.2307 854282
460.21295 911.31287 1799.0953 590856
470.8486 911.26233 1798.9954 394244
484.66785 917.23883 1810.7942 262403
498.94714 923.80829 1823.7635 262147
510.22205 924.65448 1825.434 196609
521.78851 925.98285 1828.0564 655623
529.47815 920.51721 1817.2664 721418
538.28778 917.1778 1810.6736 1313044
549.88293 918.62231 1813.5254 656142
561.40387 919.88995 1816.028 2104361
567.37659 912.18976 1800.8264 1775651
576.883 910.35022 1797.1948 2301484
583.54059 904.16345 1784.9811 3090742
599.35156 912.12701 1800.7025 2629163
613.3656 917.12512 1810.5697 2233122
617.74432 907.79199 1792.1444 1904157
637.53973 921.04669 1818.3115 2035746
645.35962 916.84741 1810.0215 1838626
651.97168 911.0976 1798.6703 1576215
660.27289 907.85529 1792.2694 2037804
672.04449 909.41187 1795.3423 1577766
689.51544 918.51202 1813.3076 1643556
702.7467 921.77173 1819.7429 3025212
714.35516 922.83661 1821.8451 2366510
724.94666 922.57544 1821.3296 3617342
730.60767 916.13953 1808.6239 3222330
735.328 908.72717 1793.9907 3157053
744.64856 907.13019 1790.8378 3420997
752.42566 903.72406 1784.1136 3158341
773.2157 915.8255 1808.0039 4014164
785.46918 917.62335 1811.5532 4014421
797.84796 919.51691 1815.2915 5001058
808.15698 919.00659 1814.2841 6580604
817.82129 917.78625 1811.8749 6514297
828.53491 917.7597 1811.8224 7500936
837.47284 915.79205 1807.938 7435144
842.67963 909.8457 1796.1987 4080471
860.0343 917.00012 1810.3229 7633295
872.93781 919.29077 1814.8451 7436172
878.24176 913.62006 1803.6499 7897235
893.76654 918.59039 1813.4623 7107462
904.61578 918.69415 1813.6672 7370890
913.41431 916.73743 1809.8042 7568014
927.22913 919.80219 1815.8546 7831187
940.91376 922.66901 1821.5143 7634319
953.67639 924.57697 1825.2809 8423836
965.05707 925.11725 1826.3475 9344681
972.03802 921.47479 1819.1566 7041669
989.85577 928.07257 1832.1819 8949665
998.91943 926.40851 1828.8969 8752286
1013.4401 929.78687 1835.5662 8686751
1022.6144 928.24036 1832.5132 8555422
1030.178 925.27979 1826.6685 8226198
1037.1053 921.81525 1819.8289 9739691
1051.2434 924.7652 1825.6525 9411238
1054.7095 918.36255 1813.0126 9345702
1079.7546 930.68909 1837.3474 9411498
1092.5878 932.34863 1840.6235 9345449
1099.5349 929.00208 1834.017 9345704
1110.7825 929.31897 1834.6425 9608109
1119.9596 927.91431 1831.8695 9607852
1130.9482 928.02313 1832.0844 8489627
1151.502 935.90399 1847.6426 9673901
1160.7235 934.51282 1844.8961 9608108
1170.8889 933.90039 1843.687 9608108
1184.2747 935.84406 1847.5242 9673902
1194.8582 935.55804 1846.9595 9805487
1205.7834 935.54242 1846.9287 9871280
1216.3966 935.28699 1846.4246 9871023
1227.0372 935.05719 1845.9707 9806001
1230.9595 929.75684 1835.507 9805744
1247.084 933.68518 1843.2621 9806257
1259.6599 934.9115 1845.6832 9937844
1271.458 935.54443 1846.9327 9609135
1284.4849 937.06293 1849.9305 9937073
1297.1776 938.31421 1852.4006 10002866
1306.7765 937.32513 1850.4481 10200245
1320.71 939.43579 1854.615 10135222
1330.9813 938.92828 1853.613 10201015
1342.875 939.56415 1854.8683 10332601
1354.4812 939.99011 1855.7092 10266808
1365.4541 939.97333 1855.6761 10201016
1375.822 939.54352 1854.8276 10266808
1388.1198 940.4281 1856.574 10332601
1398.1869 939.79956 1855.333 10332602
1407.9434 938.97339 1853.702 10332858
1416.2596 937.20703 1850.215 9938100
1430.4105 939.29932 1854.3455 9411242
1438.7415 937.56702 1850.9257 10200757
1437.8173 929.87537 1835.741 6779522
1467.5112 941.95215 1859.5826 1185830
1478.6532 942.02966 1859.7356 5595507
1469.8209 929.47479 1834.9502 10135480
1489.8547 935.22449 1846.3011 10069686
1503.8109 937.10309 1850.0098 10069686
1513.526 936.33075 1848.485 10003634
1525.693 937.07544 1849.9552 10069427
1526.9899 931.18079 1838.318 9411497
1546.9575 936.67468 1849.1639 9608876
1560.2112 938.05457 1851.8881 9806255
1569.8357 937.24847 1850.2969 9543084
1582.2618 938.11462 1852.0068 9082532
1588.0642 935.06879 1845.9935 8885410
1605.5956 938.9234 1853.6033 8950946
1619.6876 940.72803 1857.166 9148325
1627.769 939.04102 1853.8354 9279912
1638.7406 939.03247 1853.8187 9082534
1652.7805 940.77069 1857.2504 9016741
1665.0173 941.46649 1858.6239 9148327
1675.174 940.9845 1857.6724 8885412
1686.7062 941.27649 1858.2488 8753569
1697.1898 940.98328 1857.67 8753826
1708.2725 941.02393 1857.7502 9082534
1715.9287 939.18866 1854.1271 8885156
1726.5642 938.99701 1853.7487 8687777
1741.1273 940.93024 1857.5653 8819362
1751.3042 940.48364 1856.6836 8753570
1764.7135 941.76788 1859.2189 8687521
1776.9706 942.42493 1860.516 8753314
0 0 0 0
0 0 0 0
0 0 0 0
0 0 0 0
0 0 0 0
0 0 0 0
0 0 0 0
0 0 0 0
0 0 0 0
0 0 0 0
0 0 0 0
0 0 0 0
-1509.2223 894.90662 1746.276 6637116
-1509.5242 901.26562 1758.6847 7228995
-1485.9012 893.32941 1743.1982 7820875
-1474.9291 892.94098 1742.4403 8807771
-1462.1592 891.45099 1739.5328 7951947
-1455.3914 893.62524 1743.7756 8873304
-1446.0846 894.26038 1745.015 8939096
-1444.0358 899.42554 1755.0939 9465441
-1437.3784 901.77417 1759.677 7886155
-1424.8894 900.4718 1757.1356 8873821
-1410.1768 897.73474 1751.7946 8676444
-1404.1527 900.52942 1757.2479 7886928
-1392.9236 900.0025 1756.2198 7491913
-1386.2233 902.41608 1760.9296 9662823
-1377.6825 903.65887 1763.3547 8807772
-1365.6344 902.60272 1761.2938 8676442
-1349.2521 898.64349 1753.5679 9005149
-1339.8723 899.32294 1754.8938 9070941
-1327.3495 897.88678 1752.0913 9596772
-1321.4215 900.92444 1758.0188 8938330
-1311.5707 901.31445 1758.7798 9070173
-1303.7368 903.10785 1762.2794 9136738
-1295.5818 904.70599 1765.3979 8347478
-1288.3048 906.9483 1769.7734 8742749
-1277.765 906.91156 1769.7018 8742491
-1259.1835 901.11932 1758.399 8281938
-1249.5167 901.66333 1759.4607 8413267
-1244.6875 905.73657 1767.4091 8281421
-1221.4592 896.37689 1749.1449 7755077
-1223.772 905.76068 1767.4561 7821382
-1209.6637 903.04785 1762.1624 8544336
-1194.6595 899.61322 1755.4602 7820356
-1193.772 906.84167 1769.5654 8478543
-1182.4789 906.22382 1768.3597 8149833
-1165.8169 901.44342 1759.0316 8413007
-1166.2638 909.92529 1775.5826 7689799
-1149.7679 905.22247 1766.4058 7492164
-1140.6274 906.27728 1768.464 7689287
-1127.5061 904.1593 1764.3312 8675929
-1119.2921 905.97394 1767.8722 5517865
-1111.2546 907.96698 1771.7614 8543829
-1098.2029 905.86206 1767.6538 7951177
-1092.2876 909.65985 1775.0646 6832697
-1080.5396 908.62665 1773.0485 8083535
-1070.8911 909.35602 1774.4718 7097408
-1051.0219 901.3349 1758.8197 7689543
-1042.3591 902.85962 1761.795 8544338
-1045.0416 914.34161 1784.2006 8807764
-1033.5547 913.5343 1782.6251 7294267
-1019.8217 910.70453 1777.1033 7689283
-1009.3095 910.72192 1777.1372 7886663
-998.82721 910.76703 1777.2252 6833463
-991.80029 913.99738 1783.5287 4859416
-995.34216 927.14191 1809.1782 3214598
-985.20526 927.69244 1810.2526 2361602
-971.43915 924.80011 1804.6086 3151377
-952.51544 916.87878 1789.1514 4859937
-936.74512 911.84875 1779.3359 6767675
-931.45496 917.02185 1789.4305 5649706
-918.24841 914.43073 1784.3743 6110255
-908.26727 915.0285 1785.5409 6440249
-896.83197 914.1582 1783.8425 7558219
-888.83649 916.81531 1789.0273 4795941
-881.26929 919.98358 1795.2098 2953226
-873.47278 922.98694 1801.0706 3808531
-860.36279 920.38055 1795.9845 6505784
-845.39282 915.69421 1786.8397 6308406
-834.18323 915.01361 1785.5117 7229764
-829.78918 921.88763 1798.9254 5914163
-820.84869 923.82379 1802.7034 6638143
-807.60034 920.8988 1796.9957 6308666
-790.97449 913.99274 1783.5197 5190187
-780.41089 913.99969 1783.5332 6373693
-765.7464 909.13806 1774.0464 6044729
-757.33887 911.67297 1778.993 3677467
-749.03345 914.40424 1784.3226 6242624
-746.45544 924.30566 1803.6438 5058604
-727.21686 913.565 1782.6851 6835013
-716.25482 913.05835 1781.6963 5257007
-704.95172 912.09521 1779.8169 6900802
-694.03491 911.61023 1778.8705 4992294
-685.84155 914.74268 1784.983 4663588
-673.5694 912.44794 1780.5051 5584690
-668.18591 919.56042 1794.3842 3281936
-653.75665 914.25275 1784.027 5059115
-641.17999 911.40399 1778.4681 5322544
-639.81335 924.66083 1804.3368 4138529
-624.06866 917.23584 1789.848 1180930
-611.25891 913.94226 1783.4211 2823442
-594.23663 904.12354 1764.2615 5190703
-583.29962 903.37769 1762.806 3085583
-576.5636 909.22943 1774.2249 4926760
-567.69672 911.87598 1779.389 5058345
-555.72266 909.53699 1774.825 4532001
-542.63165 905.24463 1766.449 5387309
-532.39783 905.64355 1767.2274 4861735
-522.20972 906.13782 1768.192 3940635
-513.93036 910.03229 1775.7914 4533027
-505.35583 913.55597 1782.6674 3874839
-494.70645 913.39911 1782.3612 3348495
-482.91708 911.08484 1777.8452 3217166
-472.4537 911.22461 1778.118 3217421
-462.37567 912.13104 1779.8868 3546646
-454.51987 917.56586 1790.4921 3876126
-440.80045 911.14038 1777.9537 3745054
-430.44775 911.52985 1778.7136 2758932
-420.63025 913.10046 1781.7784 2561812
-410.64606 914.3808 1784.2769 1838091
-399.01602 911.9671 1779.5669 1246726
-389.89294 915.30768 1786.0857 786432
-379.0191 914.61017 1784.7245 2626579
-367.40442 912.03339 1779.6962 2692629
-356.21271 910.38525 1776.4802 4400932
-348.84802 918.71558 1792.7356 4137760
-336.54602 914.15796 1783.842 3349014
-324.133 908.99341 1773.7643 4072740
-311.9061 904.02216 1764.0636 4006947
-301.44583 904.00403 1764.0281 1968136
-291.2225 904.72064 1765.4265 3677725
-281.57816 907.35651 1770.5699 4072737
-270.42703 905.15277 1766.2698 4139300
-260.81143 908.11835 1772.0566 4006944
-250.20644 907.7431 1771.3245 3414810
-239.61821 907.39862 1770.6522 3283480
-228.68782 905.66754 1767.2742 2625549
-218.79504 908.07672 1771.9753 2888722
-208.66624 909.69977 1775.1425 2427915
-198.47665 911.21613 1778.1014 3019795
-187.05978 906.95203 1769.7808 3941151
-177.73073 912.9054 1781.3978 3546650
-166.10336 907.06006 1769.9916 2298383
-155.70285 907.57788 1771.002 2495247
-145.67838 910.52081 1776.7448 4074536
-133.97469 902.60931 1761.3065 4074279
-124.49289 909.59467 1774.9375 1772292
-114.0951 910.55933 1776.8199 3022101
-103.60378 910.89777 1777.4803 3284247
-93.211197 912.27924 1780.1759 4402984
-82.166527 906.81653 1769.5164 4665129
-72.026192 911.19629 1778.0627 2888464
-61.537487 911.91455 1779.4645 4007201
-50.609119 905.06738 1766.1031 2625548
-40.157101 905.38947 1766.7316 2296072
-29.721233 906.43115 1768.7644 4664876
-19.320087 910.24414 1776.2048 3810080
-8.8059473 911.48926 1778.6345 1968391
1.7352115 911.80029 1779.2415 1639170
12.265507 910.77045 1777.2318 1967879
22.910458 915.27271 1786.0173 2230279
33.518196 915.91266 1787.266 3282968
43.97448 913.10046 1781.7784 1967878
54.583103 913.92804 1783.3933 2493451
65.032837 912.25812 1780.1348 917504
75.025307 905.53546 1767.0166 1901829
86.491539 916.06885 1787.5708 2955030
97.268394 917.79865 1790.9464 2034185
108.10712 919.71442 1794.6847 2297871
118.58801 918.51556 1792.3452 2626323
128.89987 916.31219 1788.0457 3020053
140.30476 921.62329 1798.4095 2954003
151.16833 922.87976 1800.8613 3085845
161.00883 918.13654 1791.6057 3086101
172.38382 922.18915 1799.5138 3547680
182.58897 919.87598 1795 3086359
192.21436 915.05743 1785.5973 2625809
202.79909 915.07056 1785.6229 3020310
214.68959 920.68207 1796.5729 3152411
224.01221 915.2713 1786.0146 2232080
235.14957 917.4292 1790.2253 2365722
245.57149 916.7298 1788.8606 3942699
255.67093 914.93433 1785.3571 3942441
267.22122 918.26721 1791.8606 4994616
276.02643 912.27277 1780.1633 4994359
287.04257 913.75781 1783.0613 2493968
299.16385 918.53064 1792.3746 2231822
310.41373 920.39233 1796.0074 3874850
322.17984 923.61053 1802.2874 4203554
333.34811 924.96338 1804.9271 2690059
342.74887 921.47998 1798.1299 5190963
355.40845 926.7038 1808.3235 2560013
362.19635 916.76019 1788.9199 3612446
371.72217 914.11487 1783.7579 3283997
386.2558 923.59021 1802.2478 3020567
395.10684 919.33337 1793.9412 3021080
405.33646 918.42334 1792.1653 3153181
417.91281 922.74121 1800.5911 2561301
426.4826 918.21814 1791.7648 4995641
436.66922 917.31104 1789.9948 2364693
445.04306 912.72925 1781.0541 1837836
456.74405 915.02527 1785.5344 3153183
467.97556 916.2981 1788.0182 4864575
481.74988 922.38312 1799.8922 3351080
491.82809 921.28113 1797.7418 3350823
506.02908 927.78461 1810.4325 3021344
514.7879 924.24738 1803.5302 3021087
522.96838 919.83691 1794.9236 2954780
530.82965 915.05188 1785.5863 2888986
540.1441 912.90991 1781.4066 3086366
554.4353 919.10022 1793.4861 2099984
568.07544 923.99847 1803.0444 3218466
573.95483 916.32611 1788.0728 2692635
583.27869 914.33112 1784.1799 2759197
592.00891 911.49316 1778.6421 4271923
605.14209 915.41492 1786.2949 3745321
615.88123 915.6427 1786.7393 2626842
624.0224 912.06561 1779.7592 3087906
640.55219 920.66425 1796.5382 2627355
648.95398 917.49048 1790.345 3022115
660.50604 918.80103 1792.9022 3219751
667.46545 913.78253 1783.1095 2562080
680.94452 917.70697 1790.7675 3286575
694.00275 920.95251 1797.1006 1182225
699.28247 913.93384 1783.4047 2894129
714.94281 920.48914 1796.1964 4210760
720.18866 913.64014 1782.8317 3487036
729.38385 911.927 1779.4886 3947842
740.16382 912.21582 1780.0521 5065811
753.27576 915.33014 1786.1293 1512733
764.05853 915.56708 1786.5918 3879999
775.99829 917.16522 1789.7102 3024434
779.13617 908.45728 1772.718 1774113
793.22668 912.58167 1780.7661 1840415
801.19025 909.64148 1775.0288 2826547
813.37073 911.50323 1778.6617 1839393
825.5213 913.28418 1782.137 393225
835.4118 912.55145 1780.7072 458762
858.76959 926.36426 1807.6609 393224
871.74396 928.77399 1812.363 262155
878.70947 924.80103 1804.6104 525595
886.53528 921.81824 1798.7898 1776178
902.15802 926.91718 1808.7396 2237499
911.38623 925.40338 1805.7858 2960708
920.19916 923.50812 1802.0874 2565691
926.00824 918.67609 1792.6586 1841452
935.41852 917.48608 1790.3363 1841712
946.13818 917.59253 1790.5441 2499899
955.57318 916.46454 1788.3429 4013912
973.15424 923.0882 1801.2679 2895172
993.27924 931.95508 1818.5704 2303293
999.34564 927.58246 1810.038 3552844
1012.9443 930.21991 1815.1844 3552585
1022.1827 928.83984 1812.4915 4540250
1031.7585 927.79193 1810.4467 2566461
1034.5277 920.7077 1796.6229 4211543
1050.2848 925.20911 1805.4067 6119540
1053.1885 918.41119 1792.1416 5396330
1069.0311 922.91949 1800.9388 6975361
1081.6394 924.57391 1804.1672 6580862
1098.1353 929.48657 1813.7535 6449790
1107.1829 928.06067 1810.9711 7568016
1117.1366 927.41443 1809.71 6449532
1128.962 928.31952 1811.4762 7370633
1143.5105 931.42542 1817.537 8685983
1153.6488 930.91486 1816.5406 8160153
1167.1183 933.07697 1820.7596 8687012
1177.4744 932.73297 1820.0884 8423583
1189.297 933.54657 1821.6759 8292253
1199.103 932.77679 1820.1738 9081509
1217.8536 938.91656 1832.1547 9015973
1229.9641 939.87378 1834.0227 9411244
1241.9758 940.73956 1835.712 9543088
1249.8984 938.51978 1831.3805 9345965
1259.5 937.58807 1829.5624 9477294
1272.1965 938.95654 1832.2328 9148073
1286.2428 941.28961 1836.7854 9148072
1291.9855 937.55774 1829.5033 9213865
1304.5337 938.78571 1831.8994 9345707
1314.8136 938.37439 1831.0967 9674672
1329.058 940.776 1835.7832 9806257
1338.5172 939.77905 1833.8378 9740464
1349.39 939.78259 1833.8447 9674672
1361.4288 940.59161 1835.4233 9674415
1373.8654 941.66046 1837.509 9674673
1385.8281 942.39038 1838.9333 9937844
1395.9373 941.85815 1837.8948 9937843
1408.8497 943.211 1840.5347 10069429
1418.306 942.24695 1838.6536 9937843
1424.7787 939.33057 1832.9626 9345963
1431.3025 936.49176 1827.4231 8951203
1442.0118 936.41364 1827.2706 10530750
1460.6881 941.47168 1837.1406 1580582
1474.6654 943.44849 1840.9982 4015190
1470.6277 933.95557 1822.4741 8424349
1493.6743 941.67609 1837.5396 10332601
1500.0038 938.8219 1831.9701 9806257
1512.6204 939.91559 1834.1041 9674671
1521.6722 938.79431 1831.9161 9740720
1531.1672 937.96039 1830.2889 10003634
1546.6473 940.77875 1835.7886 9608876
1556.8573 940.37445 1834.9996 9740462
1569.3873 941.36749 1836.9374 9608876
1575.6134 938.59149 1831.5205 9674669
1586.2614 938.46954 1831.2826 9806255
1598.7019 939.40277 1833.1035 9411754
1607.58 938.24402 1830.8424 9148325
1624.8658 941.9751 1838.123 9148327
1635.7969 941.99695 1838.1656 9279913
1647.0369 942.19519 1838.5526 9214120
1660.2455 943.5097 1841.1176 9214120
1671.9159 943.93848 1841.9542 9016741
1681.5486 943.21881 1840.5498 8950948
1690.3845 942.06427 1838.297 8951462
1699.5162 941.08838 1836.3927 8885669
1710.2587 941.01111 1836.2418 8556448
1723.818 942.47498 1839.0984 8688035
1735.9197 943.1283 1840.3734 8688291
1749.4559 944.54828 1843.1442 8951206
1760.6862 944.7132 1843.4659 8885414
0 0 0 0
0 0 0 0
0 0 0 0
0 0 0 0
0 0 0 0
0 0 0 0
0 0 0 0
0 0 0 0
0 0 0 0
0 0 0 0
0 0 0 0
0 0 0 0
0 0 0 0
-1490.9423 900.46533 1737.0356 8215631
-1483.1246 901.97144 1739.9409 8347474
-1476.0645 903.96234 1743.7816 7821130
-1465.171 903.61743 1743.1161 8280911
-1449.3911 900.23236 1736.5863 8017483
-1436.5631 898.64563 1733.5254 8544083
-1436.1244 904.84204 1745.4784 7820102
-1428.9226 906.83612 1749.3252 8675671
-1411.823 902.5321 1741.0226 9004381
-1405.6689 905.21344 1746.1949 6767418
-1395.6128 905.40295 1746.5605 9332833
-1389.7882 908.36108 1752.2668 7491143
-1373.4304 904.42743 1744.6787 8675672
-1364.3911 905.28992 1746.3425 9794924
-1348.9567 901.89014 1739.7841 8478807
-1342.6528 904.58942 1744.9912 7688776
-1329.222 902.4917 1740.9446 9794151
-1321.0225 903.94067 1743.7397 8346188
-1312.7643 905.37225 1746.5012 9069910
-1305.902 907.79669 1751.1782 8347214
-1294.791 907.28308 1750.1873 9136731
-1286.4066 908.68701 1752.8956 7755078
-1274.9155 907.90149 1751.3804 8413009
-1265.5011 908.59406 1752.7163 7294272
-1259.2081 911.5578 1758.4335 7294271
-1243.1273 907.42633 1750.4636 8215628
-1229.7426 905.20972 1746.1879 8281676
-1218.7319 904.71814 1745.2394 8216396
-1208.4515 904.76471 1745.3293 8741971
-1201.946 907.66278 1750.9198 8281163
-1196.7087 911.57745 1758.4713 7951429
-1180.215 906.91101 1749.4696 7951429
-1172.3219 908.82941 1753.1703 8477263
-1164.1909 910.59607 1756.5784 8082761
-1151.9926 909.18445 1753.8552 8872020
-1133.5573 902.78015 1741.501 8214089
-1120.9622 900.9519 1737.9744 9925220
-1114.6389 904.17755 1744.1967 7820101
-1103.1857 903.26312 1742.4327 9793889
-1106.8923 914.86139 1764.8063 8543823
-1100.4507 918.21313 1771.2719 8740945
-1086.4962 915.30029 1765.653 8609873
-1079.6514 918.3786 1771.5911 8413007
-1054.5646 905.84778 1747.4187 8412750
-1048.2539 909.35675 1754.1876 9136473
-1047.8131 918.07916 1771.0134 8544335
-1039.0945 919.65173 1774.047 8873555
-1023.8281 915.40198 1765.8491 8675919
-1012.8263 914.91693 1764.9135 7688766
-1006.8142 918.97601 1772.7437 7031093
-997.42615 920.0069 1774.7322 7886404
