# .PCD v0.7 - Point Cloud Data file format
VERSION 0.7
FIELDS x y z rgb
SIZE 4 4 4 4
TYPE F F F U
COUNT 1 1 1 1
WIDTH 1287
HEIGHT 1
VIEWPOINT 0 0 0 1 0 0 0
POINTS 1287
DATA ascii
-1664.2047 1019.1821 1966.0453 65792
-1649.4299 1017.2557 1962.3292 394498
-1635.314 1015.7111 1959.3496 460034
-1627.2715 1017.9437 1963.6564 657156
-1617.7736 1019.2914 1966.2563 262144
-1605.5192 1018.9094 1965.5193 262144
-1588.9752 1015.7797 1959.4819 1380624
-1578.55 1016.5442 1960.9567 985865
-1563.1421 1014.0874 1956.2174 591361
-1557.6746 1018.091 1963.9407 460033
-1545.7019 1017.8711 1963.5164 1249546
-1535.3401 1018.7167 1965.1476 1709581
-1522.0688 1017.63 1963.0513 3091490
-1503.7922 1013.1543 1954.4175 3091234
-1492.3317 1013.237 1954.5769 1051655
-1479.0807 1012.0957 1952.3755 920068
-1471.3241 1014.7258 1957.4491 131329
-1457.1234 1012.9182 1953.962 1972504
-1451.4557 1017.0608 1961.9532 131072
-1450.196 1024.384 1976.08 328706
-1438.2981 1024.2507 1975.8228 1445899
-1415.2058 1016.0779 1960.0571 3879980
-1421.01 1028.6884 1984.3833 3090465
-1408.6123 1028.2228 1983.4852 2367773
-1387.9152 1021.6402 1970.787 2893852
-1379.7211 1024.2273 1975.7778 4933436
-1370.6908 1026.2328 1979.6465 5985609
-1354.644 1022.9743 1973.3607 4471599
-1339.5392 1020.3766 1968.3496 7695710
-1320.9214 1015.0338 1958.043 2104084
-1319.5499 1022.9662 1973.3451 788227
-1314.157 1027.8951 1982.8531 722950
-1297.7188 1024.1957 1975.7168 1971474
-1293.6637 1030.291 1987.4749 2497817
-1265.5117 1017.1309 1962.0885 1511179
-1256.6781 1019.3974 1966.4607 3156259
-1248.7797 1022.4722 1972.392 2367517
-1235.0706 1020.8022 1969.1708 3353641
-1218.2188 1016.4785 1960.83 1116937
-1202.1537 1012.7341 1953.6068 262400
-1187.3114 1009.9569 1948.2495 3616813
-1173.514 1008.0228 1944.5186 1445646
-1163.2386 1009.1057 1946.6074 919556
-1156.12 1012.9761 1954.0737 920068
-1141.5294 1010.3118 1948.9341 2696736
-1133.9303 1013.8442 1955.7482 1972494
-1128.8494 1019.7241 1967.0908 1117704
-1116.6183 1019.2005 1966.0808 196864
-1106.9165 1020.9988 1969.5498 131072
-1091.8843 1017.8663 1963.5071 1643535
-1083.0874 1020.5417 1968.668 657153
-1079.2278 1027.978 1983.0129 3420197
-1056.8578 1017.7527 1963.2878 3616807
-1043.1349 1015.7196 1959.366 3616809
-1038.8085 1022.893 1973.2039 1840397
-1023.6341 1019.4266 1966.5171 3748394
-1013.9247 1021.3856 1970.2959 3156514
-1009.5237 1028.7999 1984.5985 4340275
-991.22211 1022.056 1971.5892 919556
-976.71729 1019.1129 1965.9116 722436
-961.84766 1015.7133 1959.3539 4274223
-950.09912 1015.5668 1959.0713 3550242
-936.90887 1013.8566 1955.7722 2827545
-939.2323 1029.1017 1985.1808 2367512
-922.73724 1023.853 1975.0555 262913
-908.57666 1021.0928 1969.7311 2499358
-900.36652 1025.0352 1977.3362 131586
-896.63818 1034.2511 1995.1143 1380879
-883.64435 1032.8832 1992.4753 1051657
-860.31738 1019.2361 1966.1497 1118220
-845.96942 1015.9982 1959.9036 1972500
-834.63751 1016.3426 1960.5679 1972245
-820.74365 1013.5332 1955.1483 2301468
-809.15369 1013.5291 1955.1403 2498589
-795.69684 1011.1522 1950.5553 393985
-792.62219 1022.0935 1971.6616 2564638
-787.89117 1031.1942 1989.2172 2170392
-773.55664 1027.8114 1982.6915 262656
-759.30811 1024.4402 1976.1884 1578254
-745.24994 1021.2242 1969.9847 1117707
-729.94879 1016.1757 1960.2457 2762273
-720.93982 1019.8647 1967.3622 1380879
-710.96912 1022.2924 1972.045 2433050
-699.0047 1021.8864 1971.2621 4340278
-681.58264 1013.3525 1954.7998 1906450
-670.80731 1014.5764 1957.1608 722692
-659.80548 1015.4949 1958.9325 197122
-646.70624 1013.1602 1954.4288 591362
-638.32916 1018.2734 1964.2922 394242
-621.46906 1009.7928 1947.933 2762531
-612.53937 1014.1208 1956.282 1841430
-599.42102 1011.5474 1951.3176 196608
-586.97778 1010.0342 1948.3988 657415
-575.9223 1010.8963 1950.0618 131328
-565.60901 1013.1232 1954.3574 196608
-550.64087 1006.931 1942.4124 65536
-539.25647 1007.1677 1942.8691 196608
-527.86072 1007.3932 1943.304 196608
-515.62549 1005.9907 1940.5986 920326
-504.50702 1006.7529 1942.0688 1118221
-494.52225 1009.8658 1948.0739 788996
-481.26041 1006.2753 1941.1477 1249293
-469.53415 1005.7985 1940.2278 920586
-455.88998 1001.0862 1931.1376 196865
-446.082 1004.772 1938.2476 854536
-434.38449 1004.2841 1937.3064 2432792
-424.57767 1008.2596 1944.9753 2762779
-412.77676 1007.5894 1943.6825 4209190
-401.96194 1009.3567 1947.0918 4538153
-390.41586 1009.3382 1947.056 1446153
-378.69589 1008.8551 1946.1241 1643792
-366.31982 1006.5391 1941.6564 196864
-353.76895 1003.5769 1935.9421 1578258
-343.92953 1008.3657 1945.1801 3092004
-332.55438 1008.8281 1946.072 1512976
-320.32062 1006.6255 1941.823 657157
-309.90448 1010.1834 1948.6865 920584
-297.74033 1008.0983 1944.6643 394500
-285.51855 1005.6423 1939.9266 3421485
-271.25851 995.50012 1920.3618 3486761
-259.86203 995.43872 1920.2434 4407346
-247.97281 993.39789 1916.3064 1973263
-237.42751 996.80322 1922.8756 4013347
-226.39455 998.40143 1925.9586 3355942
-216.39827 1004.984 1938.6566 921095
-204.81021 1004.4977 1937.7184 1118469
-193.77205 1006.8107 1942.1803 4143402
-180.9931 999.79974 1928.656 3945249
-168.54436 993.79077 1917.0643 1182464
-157.5817 996.30878 1921.9218 3286293
-145.84846 993.96783 1917.4059 2759944
-134.54057 994.37469 1918.1908 2891018
-122.64952 990.14893 1910.0392 4404776
-113.32565 1007.8959 1944.2737 2629916
-102.08938 1010.7266 1949.7343 3354155
-90.373886 1008.9297 1946.2681 2170140
-78.579659 1005.5995 1939.8439 1644827
-66.52626 997.24286 1923.7236 460811
-55.796368 1009.3724 1947.1221 3684924
-44.46022 1014.0002 1956.0494 3421492
-32.910847 1015.3142 1958.5841 591880
-21.149368 1007.9515 1944.381 1315603
-9.5835161 1003.4453 1935.6885 3420977
1.8800696 999.34338 1927.7755 2433825
13.287808 998.09125 1925.3601 3486257
24.826117 1003.2725 1935.3551 920330
36.425419 1006.8653 1942.2858 722698
47.522072 998.1748 1925.5214 3157039
58.675148 993.80542 1917.0927 2762281
70.014168 993.49213 1916.4883 65536
80.962234 988.49304 1906.8447 1183246
92.487839 990.90607 1911.4998 3090983
103.87799 991.49976 1912.6449 5261897
115.16296 991.07147 1911.8187 1183245
128.19243 1004.3879 1937.5068 1972247
138.25497 994.1803 1917.8158 5064772
149.78473 995.2724 1919.9225 4473407
161.97368 1000.2814 1929.5851 5591634
173.75151 1002.2581 1933.3983 591369
186.34515 1008.4051 1945.2561 1
198.24313 1010.2905 1948.8932 1775390
208.2491 1002.8572 1934.554 1841436
221.07201 1009.0572 1946.5139 262915
232.64299 1009.2112 1946.8112 197123
243.23126 1005.2892 1939.2454 65792
253.53958 1000.6162 1930.231 6908511
266.77277 1007.3916 1943.3009 5394762
276.23648 999.961 1928.9669 3025956
289.60657 1006.6996 1941.9662 3288614
302.62482 1011.7472 1951.703 2303010
312.37247 1005.8912 1940.4065 2105112
322.47687 1001.5588 1932.0493 2696737
334.1199 1002.1387 1933.1678 3025701
347.92511 1008.9501 1946.3074 4473660
359.15546 1008.0971 1944.662 7237224
367.0744 998.29156 1925.7466 1645079
380.91803 1004.7042 1938.1167 1841946
393.01309 1006.2643 1941.1265 3683893
403.35159 1003.3662 1935.5359 8158074
414.93542 1003.6406 1936.0652 4013113
428.38846 1008.2998 1945.053 7828854
439.22781 1006.7242 1942.0134 2960685
450.77966 1006.8204 1942.199 2039844
462.25305 1006.7408 1942.0457 1117967
471.9458 1002.8813 1934.6005 198153
481.29184 998.48572 1926.1211 461582
495.81061 1004.7764 1938.2561 3684409
507.31482 1004.8115 1938.3237 460809
517.06067 1001.4394 1931.8188 2762794
526.53601 997.70081 1924.6069 394501
534.24225 990.83972 1911.3716 2828327
551.3941 1001.4181 1931.7778 3617585
561.81616 999.59253 1928.2562 789257
575.23193 1003.06 1934.9452 131328
584.27753 998.92035 1926.9596 526086
593.94702 995.98572 1921.2985 2960168
606.11792 997.27716 1923.7897 986635
619.41693 1000.3427 1929.7032 460294
627.3219 994.74377 1918.9027 1973276
636.38373 991.146 1911.9625 2367520
646.15558 988.76062 1907.3611 327938
657.42395 988.70795 1907.2594 131072
670.81592 991.79681 1913.2179 2893608
681.7702 991.23859 1912.1412 2695715
697.64264 997.73254 1924.6682 1182987
708.8725 997.48468 1924.1901 1117193
717.08771 993.06982 1915.6736 4473149
728.13611 992.65491 1914.8732 1249807
734.01459 985.31287 1900.7102 131585
742.62042 981.79865 1893.931 656899
760.1261 989.98004 1909.7133 722950
775.30096 994.9303 1919.2625 393729
786.87891 995.18817 1919.76 327680
794.95789 991.07672 1911.8289 524801
805.88647 990.58337 1910.8772 327680
819.02423 992.78168 1915.1178 1576459
822.41791 983.2699 1896.7692 196608
830.69739 979.77734 1890.0317 1840656
847.05756 985.78168 1901.6145 3484709
859.82037 987.49695 1904.9233 2169620
865.56696 981.21405 1892.8033 3287588
870.97296 974.71075 1880.2582 262144
893.89752 987.72919 1905.3713 1445899
908.88361 991.7605 1913.1479 7432804
913.49402 984.51025 1899.1617 3419174
924.16785 983.89166 1897.9686 2892827
925.08929 973.03021 1877.0164 2432019
935.74518 972.54407 1876.0786 2366227
958.90961 984.91718 1899.9469 2892570
975.01794 989.83972 1909.4426 5524292
984.56488 988.06458 1906.0183 1051144
999.31445 991.4917 1912.6294 3023650
999.73438 980.78387 1891.9735 3484714
1022.2117 991.71283 1913.0559 787972
1041.2419 999.09454 1927.2955 4077877
1060.6686 1006.6922 1941.9518 4078134
1056.208 991.69855 1913.0284 1117708
1064.4569 988.82977 1907.4945 460036
1075.6134 988.69403 1907.2325 2696224
1078.046 980.62549 1891.6681 1840914
1089.9711 981.26886 1892.9092 3814704
1097.6591 978.12354 1886.8416 328449
1103.4841 973.39819 1877.7263 459264
1125.9983 983.34204 1896.9083 1446157
1132.2963 979.06757 1888.6626 788227
1147.6079 982.59424 1895.4658 787972
1158.2439 982.08807 1894.4894 327680
1168.1313 980.96313 1892.3192 919043
1168.394 971.8537 1874.7468 393216
1187.7238 978.62622 1887.8113 853508
1203.3303 982.23328 1894.7694 1116423
1217.3604 984.49866 1899.1395 1116678
1231.9862 987.20001 1904.3505 393472
1243.3307 987.24677 1904.4407 657414
1234.0538 971.06586 1873.2272 787972
1273.4222 993.11084 1915.7528 4143668
1282.0154 990.97742 1911.6373 3880498
1289.9578 988.38275 1906.632 656642
1307.1328 992.84583 1915.2416 262657
1320.3597 994.25916 1917.9679 1445904
1327.7162 991.26544 1912.1929 1511694
1339.6843 991.73633 1913.1012 196608
1349.8584 990.88232 1911.4539 196608
1358.8274 989.16516 1908.1415 262144
1370.2684 989.26129 1908.3269 327680
1379.691 987.9104 1905.7209 590849
1384.5085 983.31079 1896.8481 1247751
1404.7454 989.64838 1909.0735 1247752
1420.8101 992.96887 1915.4789 1182473
1428.4227 990.37653 1910.4781 1446157
1441.2163 991.38892 1912.431 1249036
1443.7395 985.37573 1900.8314 1314829
1454.4684 985.01282 1900.1313 393985
1458.1045 979.88898 1890.2472 1643536
1481.639 988.11365 1906.1129 2038552
1482.7584 981.37811 1893.1199 525057
1484.5031 975.15448 1881.1141 1774090
1506.9141 982.49792 1895.28 1971468
1517.3472 981.98102 1894.2828 3089949
1533.2684 984.99738 1900.1016 2365968
1535.0925 978.97949 1888.4928 3418914
1543.9492 977.50128 1885.6412 3221534
1543.1654 969.9845 1871.1411 3747622
1561.0575 974.23029 1879.3314 2695193
1558.4987 965.74341 1862.9598 1840657
1583.3905 974.26624 1879.4008 327680
1596.0935 975.22266 1881.2456 327680
1598.5983 969.97778 1871.1281 787973
1623.5555 978.33484 1887.2493 393473
1619.1842 969.02539 1869.2909 524288
1635.9484 972.40527 1875.8109 393216
1646.2728 971.93768 1874.9088 1182216
1677.5931 983.78906 1897.7706 1247495
1671.2506 973.54291 1878.0055 458752
1679.9728 972.1499 1875.3182 524288
1687.0912 969.85321 1870.8878 393216
1692.3005 966.49628 1864.4122 721408
1709.5281 970.00214 1871.175 1510409
1712.9032 965.65338 1862.7863 2366229
1721.3555 964.20435 1859.9908 1050373
1742.7113 969.95557 1871.0852 786688
1739.5776 962.0899 1855.912 918528
1771.0405 973.33673 1877.6077 1115648
1755.3177 958.67249 1849.3197 1971215
1768.4576 959.85596 1851.6028 1971729
0 0 0 0
0 0 0 0
0 0 0 0
0 0 0 0
0 0 0 0
0 0 0 0
0 0 0 0
0 0 0 0
0 0 0 0
0 0 0 0
0 0 0 0
-1715.0146 1033.3671 1970.8777 1842716
-1699.1987 1030.8578 1966.0919 3422259
-1678.111 1025.0936 1955.0983 2040864
-1663.01 1022.9316 1950.975 265481
-1663.8063 1030.5864 1965.5746 1382166
-1648.3147 1028.1892 1961.0023 1514520
-1637.7361 1028.8441 1962.2516 2040607
-1621.3036 1025.8048 1956.4548 2172965
-1613.4016 1028.1578 1960.9425 526601
-1600.2826 1027.1964 1959.1088 1119764
-1583.2238 1023.6733 1952.3895 331275
-1573.0986 1024.6146 1954.1848 3687741
-1568.3876 1029.1223 1962.782 4016453
-1558.3871 1030.2008 1964.8389 4148808
-1542.0054 1027.0453 1958.8207 1646364
-1533.1394 1028.8857 1962.3308 3094320
-1515.5261 1024.8391 1954.6129 1514777
-1493.1765 1017.5027 1940.6207 263944
-1478.4784 1015.3068 1936.4326 1119250
-1458.4901 1009.4153 1925.1962 2961965
-1461.676 1019.5961 1944.6133 3160626
-1452.204 1021.0391 1947.3652 4673095
-1440.8505 1021.1714 1947.6178 2699565
-1445.4559 1032.708 1969.6208 5595226
-1433.1407 1032.245 1968.7379 5594455
-1420.6892 1031.6755 1967.6516 5396308
-1423.6647 1042.392 1988.0905 5199185
-1406.131 1038.1454 1979.9911 6252132
-1367.5658 1018.1691 1941.8916 2369318
-1364.9342 1024.8339 1954.6029 4738123
-1359.4326 1029.4393 1963.3867 5593435
-1352.4048 1032.9585 1970.0986 1448988
-1344.5726 1035.9196 1975.746 1383453
-1325.3779 1030.1012 1964.6492 2435625
-1316.4067 1032.1962 1968.6447 3225395
-1299.8306 1028.3121 1961.2369 2831152
-1291.7258 1031.1202 1966.5927 659472
-1277.4414 1029.0018 1962.5522 4147528
-1262.0166 1025.9175 1956.6696 6055523
-1245.7656 1022.098 1949.3849 2962737
-1241.3226 1027.9855 1960.6139 4541252
-1225.407 1024.3937 1953.7635 4869962
-1220.3181 1029.8705 1964.209 2962483
-1199.3311 1021.9064 1949.0197 1580572
-1181.4602 1016.4686 1938.6484 2830381
-1167.0021 1013.8889 1933.7283 3884094
-1158.9498 1016.8785 1939.4303 4672841
-1154.4279 1023.0568 1951.2137 2896941
-1149.7054 1029.1805 1962.8931 3290932
-1139.0479 1030.0623 1964.5747 2830384
-1125.4716 1028.2953 1961.2048 4541002
-1121.4684 1035.3295 1974.6206 2897204
-1113.6537 1038.9561 1981.5374 4016455
-1098.855 1036.075 1976.0425 3490369
-1089.7695 1038.5767 1980.8137 3095613
-1078.2762 1038.813 1981.2646 4609623
-1058.6414 1031.1248 1966.6011 4213061
-1047.3882 1031.52 1967.355 5331542
-1039.1172 1034.8942 1973.7903 3357496
-1023.2903 1030.7344 1965.8567 5133911
-1020.9327 1040.2023 1983.9142 921616
-1011.1916 1042.2803 1987.8773 1381654
-999.99957 1042.894 1989.048 197380
-975.39636 1029.3691 1963.2529 1
-962.00201 1027.4896 1959.6682 2764072
-949.59717 1026.634 1958.0363 5396821
-941.49146 1030.4628 1965.3385 4148043
-935.86646 1037.1364 1978.0668 3753797
-919.77405 1032.2319 1968.713 4543316
-915.04333 1040.1163 1983.7504 5924452
-903.08368 1039.8821 1983.3035 6252901
-894.57068 1043.6626 1990.5138 6450792
-879.50903 1039.802 1983.1508 2964535
-857.67816 1027.7256 1960.1182 3095611
-842.58484 1023.5016 1952.0621 4279887
-830.42358 1022.7715 1950.6696 4016716
-820.3468 1024.6241 1954.203 5003351
-808.00757 1023.6635 1952.3708 4674644
-796.54333 1023.7997 1952.6306 1975844
-788.15961 1027.9576 1960.5607 6516331
-780.19366 1032.7931 1969.783 4345422
-767.5 1031.4218 1967.1677 4938076
-754.79431 1029.9919 1964.4407 6188658
-743.7041 1030.7563 1965.8986 8161937
-730.78143 1028.9648 1962.4817 4806490
-718.96075 1028.6921 1961.9617 5069401
-707.14838 1028.4225 1961.4474 5924709
-695.216 1027.9666 1960.5776 6976883
-681.04791 1024.1329 1953.2662 6516589
-666.95514 1020.282 1945.9216 5398370
-658.57001 1025.1807 1955.2643 6714488
-646.16705 1023.8882 1952.7994 5333606
-633.92493 1022.8081 1950.7394 1713189
-618.24988 1016.0463 1937.8429 6910835
-608.71143 1019.3041 1944.0565 3225911
-598.44904 1021.4522 1948.1533 2108454
-589.60883 1026.16 1957.1322 2372398
-577.16095 1024.6519 1954.2559 5466469
-564.49164 1022.6808 1950.4966 4084306
-552.63446 1022.1294 1949.4448 4412760
-539.974 1020.037 1945.4543 2241079
-527.94171 1019.0659 1943.6021 4872540
-516.50513 1019.227 1943.9093 1909791
-501.77557 1012.7491 1931.5544 5989213
-491.74866 1015.6818 1937.1477 2829867
-483.63956 1022.8105 1950.744 6844266
-468.70123 1015.4922 1936.7861 6976626
-452.51389 1005.0322 1916.8365 10398373
-441.79425 1006.4901 1919.6171 10332580
-433.51694 1013.7363 1933.4373 9280146
-421.71307 1012.9055 1931.8528 9937820
-410.26633 1012.9099 1931.8612 9608601
-399.89676 1015.6505 1937.0881 10135209
-392.04013 1025.1239 1955.1562 8424597
-379.11902 1021.5284 1948.2987 9148834
-365.79636 1016.5909 1938.8818 10925501
-351.94031 1009.8029 1925.9352 8885402
-340.76093 1010.4971 1927.2593 10136238
-329.97662 1012.4518 1930.9873 10596787
-317.48477 1009.1193 1924.6316 10399150
-308.51114 1017.138 1939.925 9478817
-296.89102 1016.7143 1939.1171 9280924
-285.09244 1015.6207 1937.0314 10464167
-272.91269 1013.0208 1932.0725 8161667
-260.03067 1007.4719 1921.4896 10333609
-250.09689 1013.3608 1932.7211 8162183
-239.42889 1016.6973 1939.0845 11319480
-226.31863 1009.4766 1925.313 9805986
-213.61163 1003.3834 1913.6918 9148315
-201.28128 998.47534 1904.3309 1712161
-193.72359 1018.0657 1941.6945 3490634
-182.08835 1017.3487 1940.3269 2370352
-169.30698 1009.6998 1925.7386 2369836
-157.25696 1005.622 1917.9613 3290681
-145.46861 1002.7124 1912.412 3225403
-134.15356 1002.8492 1912.6731 4542552
-122.62675 1001.2822 1909.6844 10069932
-112.67507 1013.5658 1933.1121 12702422
-100.56982 1007.0648 1920.7131 12373712
-89.369499 1009.1226 1924.6378 12307662
-78.108253 1010.9937 1928.2065 12241870
-66.765091 1012.2643 1930.6299 12373712
-54.999542 1006.3319 1919.3153 11979467
-43.61491 1006.093 1918.8596 11848138
-31.958172 997.19482 1901.8888 10467254
-20.678801 996.79126 1901.119 10928060
-9.4541636 1001.218 1909.5618 9280922
1.8721113 1006.4891 1919.6152 5134421
13.307105 1010.9673 1928.1561 7634815
24.81078 1014.115 1934.1595 11057849
36.348351 1016.221 1938.1763 7440263
47.614117 1011.5413 1929.2509 9085604
58.83659 1007.9322 1922.3674 8098708
70.115692 1006.3066 1919.2672 9282724
81.158798 1002.2206 1911.4741 7702661
92.677795 1004.2926 1915.4258 10530731
103.8985 1003.0324 1913.0225 6977394
114.47327 996.39813 1900.3691 10464165
125.10346 991.3913 1890.8201 9411222
138.80141 1009.52 1925.3956 11713977
149.90297 1007.4449 1921.4382 11516342
160.49901 1002.5054 1912.0172 8555401
173.9091 1014.6353 1935.1519 12503239
185.35899 1014.5355 1934.9614 11648444
197.08199 1015.855 1937.4781 12042945
208.62531 1016.1542 1938.0487 12306117
219.90115 1015.1872 1936.2045 11648188
229.63144 1007.535 1921.6097 10990001
240.08937 1003.6475 1914.1954 12766411
251.38304 1003.4469 1913.8129 10660779
262.99591 1004.4828 1915.7886 10331816
277.12891 1014.6599 1935.1987 11055796
285.70386 1004.4869 1915.7965 10858677
297.93045 1007.4396 1921.4279 9674146
308.88153 1006.0204 1918.7213 9476511
319.76517 1004.4902 1915.8027 11384766
332.78632 1009.5494 1925.4519 11187641
346.79138 1017.1591 1939.9652 10991031
356.98325 1013.4548 1932.9004 11517374
367.90073 1011.9769 1930.0817 12372425
378.2074 1008.9586 1924.3251 10727087
389.61996 1008.9808 1924.3674 11976640
397.48019 1000.0641 1907.3612 11318713
410.74124 1004.8533 1916.4954 11516606
426.99078 1016.4994 1938.707 11056059
439.96805 1019.949 1945.2864 10793659
446.62485 1008.9444 1924.2979 10860224
456.97455 1006.6223 1919.8693 10663103
471.08405 1012.4941 1931.068 10728640
481.84659 1011.0644 1928.3413 10070966
492.61838 1009.7198 1925.7767 10531774
501.84808 1005.3469 1917.4366 10926018
514.66815 1008.2009 1922.8799 11255237
524.74847 1005.6806 1918.0731 11254979
538.16071 1009.5174 1925.3907 11386564
549.74817 1009.8428 1926.0115 11452098
562.323 1011.9319 1929.9958 11254718
573.95312 1012.2715 1930.6434 11583168
585.23962 1012.0036 1930.1326 10398383
593.09735 1005.9307 1918.55 7174269
600.95209 1000.0811 1907.3936 8885144
614.87018 1004.3516 1915.5385 7766667
623.27832 999.63043 1906.5339 9543076
630.87659 993.80139 1895.4167 8819606
644.41455 997.36957 1902.2219 7964038
654.84869 996.09351 1899.7882 10333097
669.29547 1000.8612 1908.8813 9280408
682.40723 1003.5071 1913.9277 6714221
695.32306 1005.7832 1918.2688 7502713
704.44006 1002.5795 1912.1584 6713197
714.15118 1000.3093 1907.8287 6253160
724.37921 998.82257 1904.9933 7239800
731.75598 993.51038 1894.8616 5529179
747.13226 999.05554 1905.4376 6778989
762.7995 1004.819 1916.4298 6778476
775.62213 1006.7211 1920.0576 5593947
785.90497 1005.3192 1917.3839 3224885
794.1438 1001.38 1909.871 2500905
803.93286 999.47882 1906.2449 66308
811.57202 994.99463 1897.6924 921360
819.7002 991.22418 1890.5012 790030
834.7099 995.76477 1899.1613 131844
836.776 984.94897 1878.533 65794
853.81464 991.80957 1891.6177 65793
861.99982 988.34125 1885.0028 131844
871.62085 986.58691 1881.6569 1248786
878.33936 981.63306 1872.2086 2499109
899.84332 993.12091 1894.1188 131332
913.90997 996.21838 1900.0265 131072
926.06464 997.18188 1901.864 196608
933.08624 992.66125 1893.2422 1774868
937.00006 984.98126 1878.5946 2498589
953.69 990.75421 1889.605 3550247
967.41998 993.35388 1894.5631 4076849
987.52527 1002.365 1911.7495 2760989
995.36133 998.85938 1905.0634 2103571
1003.1923 995.42725 1898.5175 4537659
1020.5411 1001.4107 1909.9293 1643024
1029.33 998.95563 1905.2469 1051145
1036.4272 994.92987 1897.569 2760994
1049.7927 996.94324 1901.4089 2564895
1058.5718 994.60461 1896.9485 985865
1062.5537 987.8551 1884.0757 459778
1074.8701 988.91406 1886.0953 262144
1087.2335 989.99402 1888.155 131072
1092.1267 984.31909 1877.3317 1643279
1101.4261 982.68994 1874.2245 1840914
1119.0278 988.42664 1885.1656 788227
1129.5796 987.88422 1884.1311 1906708
1146.3038 992.69788 1893.3119 656644
1155.6537 991.09387 1890.2528 1774609
1160.4341 985.63947 1879.8499 1116422
1173.1213 986.9408 1882.3319 327680
1189.0245 990.89783 1889.8789 393216
1197.3588 988.53198 1885.3667 196865
1209.3728 989.21991 1886.6786 722179
1223.9906 992.00531 1891.9911 1971731
1227.9253 986.16071 1880.8439 262144
1244.1649 990.21442 1888.5753 853251
1271.3462 1002.8264 1912.6295 2498075
1273.4326 995.59595 1898.8394 1248523
1275.7092 988.63959 1885.5719 1445645
1300.9028 999.40985 1906.1133 1577745
1307.833 996.08478 1899.7715 262657
1328.8698 1003.4686 1913.8542 196864
1338.7095 1002.3439 1911.7091 1578002
1347.9302 1000.7783 1908.7234 1577744
1354.144 997.02509 1901.5651 985607
1366.5944 997.88757 1903.21 1051913
1372.4119 993.93243 1895.6665 985606
1382.7739 993.30603 1894.4718 1380108
1392.6097 992.3147 1892.5811 1445388
1406.6542 994.31403 1896.3944 196608
1425.7933 999.85461 1906.9615 393216
1413.088 983.15222 1875.1061 853509
1440.4534 994.37201 1896.5049 1314572
1450.6639 993.66742 1895.1611 788228
1454.6466 988.7406 1885.7645 1511951
1475.9589 995.57819 1898.8054 2630432
1485.731 994.58704 1896.915 1643537
1484.9573 986.60413 1881.6897 854021
1492.5126 984.23273 1877.1669 1577999
1510.1738 988.51154 1885.3275 2234903
1534.2207 996.87646 1901.2816 1708813
1538.7009 992.49866 1892.932 1182214
1532.9133 981.60907 1872.163 1905936
1539.2247 978.56799 1866.3629 1906448
1543.8635 974.51459 1858.632 1643022
1557.2434 975.99695 1861.4592 2761762
1573.5121 979.25629 1867.6755 3353385
1588.1342 981.45251 1871.8644 2958370
1592.043 977.04346 1863.4553 1313546
1600.24 975.30878 1860.1469 327680
1618.1179 979.45776 1868.0598 393216
1630.7017 980.36743 1869.7949 327680
1639.1053 978.76892 1866.7461 196608
1650.988 979.25525 1867.6736 393216
1663.3011 979.98871 1869.0725 393216
1674.7797 980.224 1869.5214 393216
1682.479 978.25879 1865.7732 393216
1683.3177 972.3562 1854.5156 393216
1677.8215 962.89484 1836.4703 1641997
1680.8298 958.40454 1827.9062 524545
1704.6158 965.7431 1841.9028 1708560
1712.9084 964.26666 1839.0868 1247495
1735.2015 970.64038 1851.243 787201
1744.411 969.66138 1849.3757 919557
1755.7899 969.89288 1849.8174 1708297
1761.5706 967.04816 1844.3918 1576715
0 0 0 0
0 0 0 0
0 0 0 0
0 0 0 0
0 0 0 0
0 0 0 0
0 0 0 0
0 0 0 0
0 0 0 0
0 0 0 0
0 0 0 0
-1697.7065 1034.5002 1950.9875 10530726
-1683.4275 1032.8333 1947.8438 10727590
-1674.3723 1034.3702 1950.7424 10859176
-1657.9198 1031.3271 1945.0033 10596263
-1649.5177 1033.2843 1948.6946 9939103
-1624.9114 1025.0469 1933.1593 10004125
-1605.613 1020.0648 1923.7635 10465446
-1595.5195 1020.9012 1925.3408 10794414
-1588.7131 1023.868 1930.936 10597035
-1575.2695 1022.5695 1928.4871 9873572
-1566.6544 1024.4092 1931.9567 10268328
-1567.7725 1032.6871 1947.5682 10268328
-1556.6781 1032.9839 1948.1279 10334638
-1533.7744 1025.3903 1933.8069 9808039
-1522.1055 1025.2496 1933.5416 9149848
-1525.4338 1035.2853 1952.4681 9413019
-1511.0671 1033.3732 1948.8621 10465964
-1502.6112 1035.5049 1952.8824 6979449
-1488.587 1033.8029 1949.6724 8887960
-1477.3557 1034.0288 1950.0985 9282460
-1465.8063 1034.0339 1950.1082 9478556
-1449.5021 1030.6583 1943.7419 9742243
-1444.2185 1035.1274 1952.1705 8425871
-1427.5682 1031.4562 1945.2467 9346461
-1408.8231 1026.1991 1935.3323 9412254
-1396.465 1025.5463 1934.1011 9675424
-1378.6622 1020.851 1925.2462 9544609
-1371.4767 1024.0048 1931.194 9084316
-1360.0778 1024.0393 1931.259 8886166
-1353.2068 1027.5125 1937.8091 8753807
-1334.5442 1022.0148 1927.4412 10069410
-1323.6722 1022.44 1928.2429 9544865
-1314.7618 1024.401 1931.9412 9347487
-1303.4609 1024.5175 1932.1609 9215645
-1291.4592 1024.0803 1931.3364 9215389
-1282.105 1025.7533 1934.4917 9412766
-1266.3895 1022.3215 1928.0195 9018523
-1266.0583 1031.3595 1945.0643 9084059
-1239.4956 1018.9983 1921.7522 9017237
-1249.205 1036.5042 1954.7667 8161671
-1225.6674 1026.4934 1935.8872 9215130
-1222.0289 1033.1163 1948.3776 8557200
-1221.3868 1042.423 1965.9292 7043962
-1198.9756 1033.1504 1948.4419 9149596
-1183.2378 1029.504 1941.5652 9149337
-1171.5532 1029.3473 1941.2697 9017750
-1159.5631 1028.9161 1940.4565 9740704
-1153.7128 1033.9792 1950.005 9083032
-1109.288 1004.2237 1893.8883 9149082
-1121.7767 1025.9095 1934.7863 8556945
-1117.6926 1032.7302 1947.6495 7899016
-1103.5779 1030.3284 1943.1199 9346719
-1096.5862 1034.5963 1951.1687 9215648
-1087.0552 1036.5339 1954.823 9084319
-1072.1439 1033.3278 1948.7765 9084062
-1054.941 1027.8192 1938.3877 9018013
-1046.4901 1030.8101 1944.0282 9149340
-1035.8226 1031.6598 1945.6309 9675172
-1021.3197 1028.6658 1939.9843 9741734
-1011.1465 1030.014 1942.527 9281181
-1002.7271 1033.2003 1948.5361 8689046
-1006.3046 1048.9666 1978.27 8557461
-990.25208 1044.4011 1969.6598 9544100
-980.42352 1046.3691 1973.3715 8820377
-958.47192 1035.29 1952.4773 7833995
-948.38654 1036.9142 1955.54 8952476
-934.97015 1034.8914 1951.7253 9083548
-922.25824 1033.6075 1949.3041 9083549
-907.48615 1029.9529 1942.4116 9083547
-900.43549 1035.0803 1952.0817 7570310
-898.90369 1046.7679 1974.1235 8359571
-884.94482 1044.1017 1969.0953 8491156
-870.93683 1041.3055 1963.8219 8755098
-858.28113 1040.0724 1961.4962 8426135
-840.7027 1032.7579 1947.7018 8360598
-828.29004 1031.6741 1945.6577 7702669
-818.58228 1033.9763 1949.9996 7899022
-800.17175 1025.1942 1933.4373 8754586
-793.27533 1031.1235 1944.6194 9083552
-778.71942 1027.1248 1937.078 8952221
-772.38324 1034.0103 1950.0637 8755099
-758.20129 1030.4421 1943.3345 8820638
-746.84894 1030.6688 1943.762 8952222
-736.88062 1032.8425 1947.8615 9017759
-726.80902 1034.9384 1951.814 9018273
-711.99756 1030.2435 1942.9598 8952479
-700.23761 1029.8824 1942.2787 8886429
-689.78412 1031.4626 1945.259 9017759
-673.74756 1024.6064 1932.3286 8951967
-660.24854 1021.4386 1926.3544 9083295
-643.76141 1013.4553 1911.2983 9148573
-635.16345 1017.8279 1919.545 9082266
-628.71008 1025.8595 1934.692 8951706
-619.1568 1029.0377 1940.6855 9214622
-606.25092 1026.6583 1936.1984 8556692
-597.0423 1030.5692 1943.5741 8622485
-583.86774 1027.6536 1938.0754 8359314
-568.34595 1020.4067 1924.4083 7504002
-558.59631 1023.4386 1930.1262 7898761
-546.17273 1021.5958 1926.6509 7964554
-534.35394 1020.8297 1925.2061 8688532
-522.64636 1020.2471 1924.1073 8820118
-511.28943 1020.3384 1924.2794 9807526
-498.75183 1018.0239 1919.9146 8886169
-492.45157 1028.63 1939.9167 9807272
-479.63928 1025.8154 1934.6089 9609381
-465.36548 1019.661 1923.002 10135467
-452.96024 1017.3944 1918.7274 10201258
-443.6149 1022.0609 1927.5278 10134953
-432.06876 1021.7695 1926.9785 10004137
-419.41449 1018.7708 1921.323 10398642
-407.95834 1018.5959 1920.9934 10530229
-395.80405 1016.6181 1917.2632 10398901
-384.27518 1016.1771 1916.4315 10398900
-373.02496 1016.4686 1916.9812 10530486
-361.45673 1015.8845 1915.8799 10201521
-350.08179 1015.8235 1915.7648 10398900
-337.66687 1012.6395 1909.7601 10662071
-326.90262 1014.3568 1912.9987 10793655
-315.25864 1013.3695 1911.1366 10793913
-304.75784 1016.1201 1916.3241 10991033
-292.78647 1013.9908 1912.3085 10990777
-280.08994 1009.0775 1903.0424 10661812
-269.3082 1010.9398 1906.5546 11122363
-257.95895 1010.7416 1906.1807 10990779
-246.32832 1009.3723 1903.5981 11056573
-234.86847 1008.6046 1902.1505 11319747
-225.78551 1018.4815 1920.7776 11254215
-212.87004 1011.2015 1907.0481 10992069
-201.70131 1011.8679 1908.3049 11188934
-189.41162 1006.6561 1898.4757 11188935
-177.77003 1004.4479 1894.3113 10992068
-165.74094 999.60486 1885.1776 10926532
-153.98105 995.80273 1878.0071 11320008
-142.15941 990.97766 1868.9073 11386311
-132.08789 998.56805 1883.2222 11780553
-121.91643 1006.734 1898.6227 12043725
-110.46795 1004.9432 1895.2455 12109516
-98.680954 999.31927 1884.639 12241099
-87.531342 999.53809 1885.0516 12241099
-76.45388 1000.7654 1887.3662 12109513
-65.5009 1004.3218 1894.0735 12175308
-54.11797 1001.3937 1888.5513 12043979
-43.037041 1003.9838 1893.4359 12175307
-31.77718 1002.7545 1891.1177 12043975
-20.667877 1007.5252 1900.1147 12569804
-9.4246979 1009.3787 1903.6104 11648187
1.8613495 1012.014 1908.5802 1909024
13.233635 1016.7492 1917.5105 6120292
24.391985 1008.266 1901.5118 10528681
35.575329 1005.8508 1896.957 12174020
47.026768 1010.3555 1905.4524 12108741
58.152687 1007.4761 1900.0222 11911362
69.292137 1005.7274 1896.7242 12174533
80.929199 1010.6812 1906.0665 12437447
92.386635 1012.4529 1909.4082 12240324
102.70525 1002.7197 1891.052 12306118
114.24235 1005.6274 1896.5355 12108741
125.56604 1006.3039 1897.8115 11911362
137.70847 1012.8914 1910.2349 12239556
147.98743 1005.8126 1896.885 13028045
159.05167 1004.6939 1894.7751 10659755
170.43544 1005.608 1896.4991 10133411
182.32812 1009.226 1903.3223 12041924
193.24857 1007.3543 1899.7925 11976646
205.23112 1010.9205 1906.5181 12042440
215.87393 1007.8596 1900.7455 12174283
227.81773 1010.875 1906.4323 11582148
238.60164 1008.702 1902.334 11976649
250.33408 1010.5541 1905.827 11846089
260.80261 1007.3644 1899.8115 11845833
272.32812 1008.3523 1901.6747 11845834
284.13315 1010.2556 1905.2642 11780297
295.10004 1009.1473 1903.174 11846090
306.79886 1010.5313 1905.7841 11780553
317.87607 1009.8424 1904.4847 11188160
329.8822 1012.0505 1908.649 11583174
340.88269 1011.1293 1906.9117 11714503
354.81998 1018.6987 1921.1873 11977676
365.13531 1015.7222 1915.5737 11780298
376.70605 1016.3121 1916.6862 11648712
387.1467 1013.9078 1912.1519 11780297
397.42566 1011.2288 1907.0995 11648712
408.67139 1011.09 1906.8375 11714762
420.68823 1012.8148 1910.0907 11451591
431.39526 1011.3788 1907.3824 11385799
441.48163 1008.5981 1902.1382 11386825
452.25995 1007.4973 1900.062 11452361
463.953 1008.438 1901.8364 11518155
475.3494 1008.7048 1902.3395 11518156
485.31335 1005.99 1897.2195 11649740
496.89438 1006.6742 1898.5098 11517644
508.84836 1008.067 1901.1364 11452107
518.62793 1005.1848 1895.701 11386571
528.74963 1003.0743 1891.7206 11254472
539.94379 1003.0433 1891.6624 11188680
551.47357 1003.6247 1892.7587 11320522
561.4754 1001.4575 1888.6714 11386314
574.11261 1003.9835 1893.4354 11451850
581.07996 996.68774 1879.6761 10793661
591.81122 996.00085 1878.3809 11187903
601.06964 992.90649 1872.5449 10464178
614.30811 996.3797 1879.0952 10331822
624.83478 995.40912 1877.2648 10331822
638.77087 999.80896 1885.5625 10463409
650.65466 1000.9005 1887.621 10595249
661.68188 1000.6596 1887.1669 10397870
673.37341 1001.4147 1888.5909 10266540
687.56372 1005.8005 1896.8622 10661297
700.85205 1008.7471 1902.4191 10265513
708.86481 1004.1271 1893.7063 10002598
720.36963 1004.5208 1894.4487 10331563
733.68439 1007.3875 1899.8552 9936806
748.06659 1011.6111 1907.8206 9937061
751.56323 1001.2076 1888.2002 9608352
761.40985 999.4444 1884.8749 9739937
779.3573 1008.2119 1901.4097 10068645
793.30688 1011.6312 1907.8583 10266535
808.38214 1016.3698 1916.7948 10200483
817.79004 1013.9502 1912.2318 8753038
822.02307 1005.2684 1895.8586 8029572
827.54236 998.37238 1882.8533 8556171
849.73602 1011.5089 1907.6277 9016210
861.61725 1012.1857 1908.9042 9542554
868.89404 1007.5062 1900.0789 7897213
880.60797 1008.0255 1901.0582 10199456
889.61371 1005.4708 1896.2402 5659739
903.7453 1008.7009 1902.3322 4343877
911.28436 1004.584 1894.5679 5856860
922.76501 1004.8596 1895.0875 5790810
932.45605 1003.2031 1891.9636 5329486
942.31696 1001.7666 1889.2545 5856343
950.16577 998.24988 1882.6222 5395534
969.48499 1006.7258 1898.6071 7369581
982.67847 1008.7192 1902.3665 6053721
991.47205 1006.2021 1897.6195 5527121
997.17535 1000.6404 1887.1307 4408130
1001.1486 993.48523 1873.6365 4802886
1024.5966 1005.6009 1896.4857 986894
1025.8734 995.9295 1878.2462 3749431
1033.3188 992.39008 1871.571 1776154
1051.0869 998.73413 1883.5355 1644307
1064.6848 1001.0244 1887.8546 6249822
1076.0161 1001.1577 1888.1062 855308
1082.973 997.26038 1880.7561 328964
1093.0682 996.30273 1878.9501 0
1104.3516 996.43665 1879.2025 0
1113.5365 994.69324 1875.9147 592136
1115.725 986.79639 1861.0217 328707
1142.4192 1000.5159 1886.8958 986894
1152.1705 999.27502 1884.5555 0
1159.2156 995.73315 1877.876 724237
1174.5922 999.34735 1884.692 460807
1189.0245 1002.0977 1889.8789 789000
1198.3184 1000.5063 1886.8776 65536
1209.865 1000.808 1887.4465 986377
1221.127 1000.8707 1887.5648 65536
1229.429 998.5282 1883.1471 460550
1256.334 1011.2012 1907.0472 2433052
1264.4509 1008.6608 1902.2563 1972503
1276.7455 1009.4683 1903.7793 590850
1274.2834 998.69647 1883.4645 1643281
1296.6326 1007.3882 1899.8564 920073
1309.1227 1008.3365 1901.6448 2367518
1325.6532 1012.3542 1909.2218 1315342
1329.8632 1006.9745 1899.0763 1315086
1332.6899 1000.6467 1887.1426 4999237
1335.8293 994.6571 1875.8466 263171
1351.5409 998.05017 1882.2456 3814963
1366.5671 1000.8859 1887.5934 1051914
1381.2416 1003.4199 1892.3723 262401
1391.1097 1002.4495 1890.5425 262656
1395.4572 997.54816 1881.299 1314315
1417.7262 1005.4345 1896.1719 196608
1427.6768 1004.5292 1894.4646 196864
1431.6708 999.47974 1884.9417 985607
1445.2831 1001.1712 1888.1316 1511950
1456.6118 1001.267 1888.3121 525828
1469.7769 1002.6138 1890.8523 656644
1482.8075 1003.8494 1893.1825 131072
1488.9863 1000.4626 1886.7952 65536
1499.2721 999.86523 1885.6686 1117707
1500.9598 993.58502 1873.8246 3880497
1517.9702 997.4657 1881.1432 3946290
1520.6312 991.9295 1870.7024 196608
1531.2673 991.638 1870.1527 853509
1541.1564 990.87036 1868.7051 1313800
1538.3136 981.98633 1851.9504 1708558
1544.2738 978.8078 1845.9559 4340024
1542.3179 970.69171 1830.6497 1380879
1566.4696 979.00568 1846.3292 2367005
1585.8513 984.2439 1856.2081 1314830
1588.6494 979.18842 1846.6738 131072
1598.3895 978.45154 1845.2841 920071
1611.6909 979.88989 1847.9968 1051400
1621.1715 979.00165 1846.3215 1511694
1646.1572 987.42572 1862.2087 1314062
1655.5277 986.43347 1860.3374 393216
1663.926 984.87885 1857.4055 393216
1672.2881 983.32349 1854.4722 393216
1678.108 980.30316 1848.7761 393216
1683.1084 976.8465 1842.2572 327680
1672.3994 964.37573 1818.7382 393472
1691.7417 969.28247 1827.9919 2563869
1707.5594 972.1203 1833.3438 1511181
1733.0142 980.3739 1848.9095 1510667
1742.771 979.69916 1847.6371 393216
1752.1683 978.83209 1846.0017 262144
1742.3696 967.31866 1824.2883 1774097
0 0 0 0
0 0 0 0
0 0 0 0
0 0 0 0
0 0 0 0
0 0 0 0
0 0 0 0
0 0 0 0
0 0 0 0
0 0 0 0
0 0 0 0
-1697.1626 1045.7271 1950.3624 11253684
-1671.5721 1037.0216 1934.1262 11122867
-1650.7396 1031.1681 1923.209 11122097
-1642.3643 1033.069 1926.7542 10925228
-1624.1761 1028.7809 1918.7566 10794158
-1618.8658 1032.647 1925.9672 10662315
-1596.4542 1025.5817 1912.7898 10530987
-1587.1194 1026.8762 1915.2041 10530988
-1579.1428 1029.0745 1919.3043 10530478
-1565.9077 1027.853 1917.026 10727603
-1554.6256 1027.9049 1917.1228 10530738
-1540.871 1026.3109 1914.1499 10530741
-1532.6444 1028.4025 1918.0508 10661813
-1523.0544 1029.6036 1920.291 10727861
-1515.528 1032.2281 1925.1862 10135723
-1509.1519 1035.6823 1931.6282 10004137
-1497.2498 1035.3677 1931.0415 10004651
-1490.0294 1038.3107 1936.5305 10070189
-1473.5352 1034.7869 1929.9581 10135726
-1465.5885 1037.2574 1934.5659 10069932
-1455.155 1037.9929 1935.9377 9938603
-1437.5527 1033.5858 1927.7183 9872810
-1431.0831 1037.1766 1934.4153 9806758
-1417.2827 1035.4694 1931.2312 10004394
-1398.639 1030.1671 1921.3422 9872297
-1391.5122 1033.3302 1927.2415 9806506
-1377.9148 1031.7008 1924.2025 9674918
-1369.2463 1033.7655 1928.0533 9674919
-1354.3235 1031.1033 1923.088 9872298
-1347.4448 1034.5721 1929.5579 9938093
-1333.5013 1032.6296 1925.9348 9674664
-1326.1465 1035.7998 1931.8473 9543334
-1314.9532 1036.0009 1932.2224 9609126
-1302.877 1035.5037 1931.2952 9543332
-1291.2589 1035.3651 1931.0367 9411747
-1274.5509 1031.1063 1923.0939 9477792
-1268.0435 1035.0974 1930.5375 9543587
-1255.4199 1034.1232 1928.7205 9280159
-1246.1157 1035.8903 1932.0162 8885655
-1235.3903 1036.4978 1933.1493 9148828
-1223.2029 1035.8788 1931.9946 9280415
-1211.2184 1035.4213 1931.1415 9346207
-1200.735 1036.2506 1932.6882 9346208
-1193.1327 1039.6063 1938.9469 9214880
-1176.6848 1035.2449 1930.8125 9345953
-1165.5029 1035.4763 1931.244 9411747
-1153.0721 1034.5918 1929.5944 9346210
-1140.745 1033.7836 1928.0869 9346211
-1127.8094 1032.4019 1925.51 9280420
-1116.6655 1032.6488 1925.9707 9083042
-1107.5626 1034.8079 1929.9974 9214628
-1090.7441 1029.728 1920.5231 9412005
-1081.8782 1032.1277 1924.9988 9478054
-1070.2346 1031.9006 1924.5751 9412005
-1058.1061 1031.1959 1923.2607 9346469
-1046.415 1030.9069 1922.7217 9412259
-1036.1117 1031.9937 1924.7487 9675431
-1023.8773 1031.1598 1923.1935 9675175
-1012.9881 1031.6772 1924.1584 9149344
-1004.3818 1034.5579 1929.5311 9083039
-998.38129 1040.22 1940.0913 8886174
-987.62225 1040.9983 1941.5428 8951968
-978.26373 1043.2885 1945.8143 8886433
-965.86719 1042.3547 1944.0729 8820640
-951.17694 1038.8932 1937.6168 8886431
-939.14551 1038.2866 1936.4855 8886430
-928.37891 1039.0806 1937.9663 9149087
-919.2066 1041.7013 1942.854 8556950
-904.14264 1037.6268 1935.255 8885916
-899.17987 1045.1893 1949.3596 8951709
-883.27716 1040.0667 1939.8054 9083296
-873.57849 1042.2106 1943.804 9083040
-862.17096 1042.3459 1944.0564 9148577
-848.39801 1039.5862 1938.9094 9082784
-837.69647 1040.566 1940.7369 8688282
-824.06451 1037.8826 1935.7318 9083296
-810.3382 1035.0027 1930.3607 9017503
-798.40009 1034.3571 1929.1566 8951710
-787.14276 1034.5874 1929.5862 8885661
-776.5155 1035.6649 1931.5958 9017247
-764.37341 1034.724 1929.8409 8951711
-753.43713 1035.4116 1931.1234 8951455
-741.36493 1034.5353 1929.4891 9017249
-729.30542 1033.6497 1927.8373 9083042
-718.7677 1034.9269 1930.2194 9017502
-707.44 1035.0895 1930.5227 9083296
-694.57123 1032.9657 1926.5616 9149089
-682.94281 1032.6464 1925.9661 9017503
-669.79126 1029.974 1920.9818 9082783
-657.83905 1029.0853 1919.3245 9148574
-646.77576 1029.5804 1920.2478 9148574
-635.91498 1030.4214 1921.8164 9016988
-624.45447 1030.3037 1921.5967 9082781
-610.72467 1026.3677 1914.2559 9016988
-601.15015 1029.3982 1919.908 9214368
-588.35114 1026.9176 1915.2814 9280161
-576.97638 1026.8741 1915.2003 9345955
-565.19061 1026.0829 1913.7246 9280420
-555.3324 1028.8302 1918.8485 9280674
-541.57928 1024.3256 1910.4471 9082783
-530.09937 1024.02 1909.8772 9148576
-518.41919 1023.3057 1908.545 9345953
-505.45612 1019.971 1902.3254 9477539
-496.37134 1024.4884 1910.751 9412001
-483.43433 1021.0806 1904.395 9412001
-473.33197 1023.6402 1909.1687 9937574
-461.59586 1022.7051 1907.4249 9806245
-449.83292 1021.6624 1905.48 10332079
-439.21082 1023.2238 1908.3921 9871786
-427.4299 1022.0965 1906.2897 10003115
-416.92249 1024.0361 1909.9072 10266288
-405.6597 1024.1768 1910.1696 10069678
-394.02411 1023.3573 1908.6411 10135728
-382.47675 1022.7253 1907.4625 10267057
-370.63336 1021.2393 1904.6908 9872556
-359.6926 1022.2249 1906.5292 10267058
-347.91516 1020.8196 1903.9082 10201268
-336.67108 1020.9374 1904.1281 10464184
-324.82236 1019.1666 1900.8251 10464440
-313.38113 1018.5928 1899.755 10661560
-301.73193 1017.2751 1897.2974 10530230
-290.26849 1016.5059 1895.8627 10464437
-279.06067 1016.606 1896.0493 10793402
-267.94864 1017.0779 1896.9297 10727353
-256.33899 1015.6196 1894.2098 10793404
-244.99808 1015.1414 1893.318 10661562
-233.38213 1013.423 1890.1129 10991041
-221.6694 1011.0898 1885.7615 10991043
-210.70303 1012.0941 1887.6344 10991042
-199.11069 1010.0355 1883.795 11056579
-188.34303 1012.1642 1887.7651 11187911
-176.68317 1009.4643 1882.7296 11123144
-165.26677 1007.8851 1879.7843 10991558
-154.19768 1008.3488 1880.6492 11188937
-143.08636 1008.587 1881.0935 11254215
-131.72704 1006.9698 1878.0773 11320264
-120.50954 1006.2383 1876.7129 11385797
-109.28506 1005.2938 1874.9514 11583178
-98.412529 1007.7394 1879.5126 11780554
-87.078781 1005.4836 1875.3054 11912140
-75.876358 1004.3061 1873.1093 11780811
-64.805069 1004.7582 1873.9524 11648968
-53.668053 1004.1674 1872.8505 11912139
-42.58046 1004.4343 1873.3484 11846602
-31.517809 1005.6855 1875.682 11780805
-20.507509 1010.8806 1885.3712 12569291
-9.3415585 1011.6562 1886.8177 13358037
1.8490158 1016.5438 1895.9336 4344653
13.090548 1016.9965 1896.7776 11779519
24.122885 1008.2869 1880.5337 8094599
35.280846 1008.6733 1881.2545 7568257
46.578121 1011.9008 1887.2739 11647679
57.862064 1013.6449 1890.5267 12174024
69.048744 1013.3955 1890.0616 12108487
80.230125 1013.149 1889.6019 12174536
91.36676 1012.467 1888.3298 12371915
102.47515 1011.655 1886.8154 12371915
113.85845 1013.4496 1890.1626 12306892
125.17569 1014.3875 1891.9117 12241100
136.21568 1013.1091 1889.5276 12438222
146.9225 1009.7352 1883.235 12371917
157.64322 1006.9265 1877.9965 12174795
169.48962 1011.2041 1885.9746 12371405
180.64835 1011.1036 1885.7872 12371406
192.06258 1012.3616 1888.1333 12371149
203.03934 1011.3021 1886.1572 12108491
214.32718 1011.8217 1887.1262 12108492
225.56714 1012.075 1887.5988 11779527
236.26909 1010.0043 1883.7369 11779784
247.85629 1011.7343 1886.9633 11977676
259.07114 1011.8604 1887.1985 12108749
271.14661 1015.1983 1893.424 11977933
282.48935 1015.6365 1894.2415 11912139
293.83307 1016.0448 1895.0028 12043468
305.30002 1016.8334 1896.4735 11911884
316.12039 1015.489 1893.9661 11648712
327.26276 1015.2355 1893.4934 11714250
339.33707 1017.7941 1898.2655 11780298
350.86728 1018.6089 1899.7852 11911883
361.70584 1017.4277 1897.582 11977675
372.79468 1017.0004 1896.785 12109260
383.75787 1016.2653 1895.4141 11977673
394.32245 1014.5466 1892.2085 12240588
405.63504 1014.794 1892.67 12240845
416.09488 1012.9525 1889.2352 11911880
426.86423 1011.9409 1887.3488 11846858
438.36768 1012.6769 1888.7216 12043725
448.81274 1010.9922 1885.5793 11781580
458.77457 1008.3273 1880.609 11913166
469.75458 1007.9735 1879.9492 12175825
481.16272 1008.5335 1880.9937 12043726
492.44803 1008.8164 1881.5214 12043726
503.51065 1008.6409 1881.1938 11781070
514.17596 1007.6942 1879.4281 11649996
524.47601 1006.0869 1876.4307 11583947
535.98444 1006.8163 1877.7909 11583948
546.71533 1006.0853 1876.4275 11715533
557.14185 1004.8343 1874.0942 11781583
568.1109 1004.5917 1873.6418 11649997
578.74908 1003.7844 1872.1362 11648971
587.88031 1000.4431 1865.9043 11517383
597.53113 998.09302 1861.5212 11319746
602.8161 988.66772 1843.9424 10661302
616.98505 993.8891 1853.6808 9674407
633.4278 1002.5267 1869.7904 11055803
645.14532 1003.5171 1871.6377 11055803
656.31317 1003.6335 1871.8549 11055804
669.6994 1007.0821 1878.2866 10858425
680.92041 1007.215 1878.5345 10858424
693.37012 1009.1319 1882.1096 11121597
699.78296 1002.3412 1869.4445 10661046
715.16943 1008.4153 1880.7732 10332337
726.73505 1008.9981 1881.8601 10661045
735.82196 1006.1738 1876.5927 10595252
745.96326 1004.8539 1874.131 10331823
760.64819 1009.6036 1882.9895 10463666
763.9931 999.38196 1863.9253 10200492
775.80713 1000.3723 1865.7723 10068649
788.39545 1002.3192 1869.4033 10265514
800.06866 1003.0648 1870.7941 10199718
810.53021 1002.2916 1869.3522 10134181
825.61298 1007.1769 1878.4635 10002594
833.53839 1003.317 1871.2644 10068386
848.06732 1007.4026 1878.8845 9805215
859.49548 1007.7467 1879.5262 9805215
863.91254 999.96674 1865.016 9805215
877.47516 1002.8356 1870.3665 9147286
890.95587 1005.5403 1875.4111 8555662
899.12634 1002.259 1869.2914 8028805
904.00726 995.43536 1856.5647 9475737
919.1532 999.94312 1864.9718 9541783
925.23615 994.60126 1855.009 8357253
938.96179 997.50421 1860.4231 9014930
953.14471 1000.8198 1866.6069 9212308
967.935 1004.6896 1873.8246 8685962
979.58545 1005.2498 1874.8693 9081233
990.06458 1004.6087 1873.6736 9344149
1015.7106 1019.201 1900.8893 9278611
1022.0218 1014.2845 1891.7198 7633530
1030.9756 1012.069 1887.5875 6580329
1035.0818 1005.1935 1874.7643 7303794
1040.3049 999.53705 1864.2146 8553601
1046.13 994.57172 1854.9539 4540228
1062.0907 999.24554 1863.6709 6711653
1075.4696 1001.4193 1867.7251 7172461
1091.4454 1005.9421 1876.1605 7107184
1099.8557 1003.4713 1871.5521 8357764
1113.8121 1006.0593 1876.379 5067599
1129.7815 1010.3964 1884.468 8028543
1142.3241 1011.6138 1886.7388 6713197
1157.0488 1014.7215 1892.5348 8226180
1179.1768 1024.1997 1910.2122 8225923
1191.1412 1024.7539 1911.2458 6910060
1207.7694 1029.272 1919.6726 8949385
1224.4341 1033.7367 1927.9995 8290688
1230.7289 1029.4449 1919.9951 6580329
1238.271 1026.2655 1914.0652 5988193
1258.7274 1033.7499 1928.0243 5659997
1264.5991 1029.2295 1919.5933 5067603
1270.7803 1025.0393 1911.7783 7106928
1279.8182 1023.2071 1908.3611 3619642
1285.6688 1018.881 1900.2927 2237990
1293.1521 1015.9128 1894.7567 4409933
1305.5599 1016.8312 1896.4696 3752260
1316.0117 1016.2233 1895.3358 2303526
1322.9484 1012.9346 1889.2019 1842459
1322.1873 1003.8563 1872.2703 395014
1328.4075 1000.1856 1865.4242 1448731
1352.6493 1010.0324 1883.7892 1711388
1361.8412 1008.572 1881.0656 3026988
1368.3555 1005.1685 1874.7178 3290417
1376.162 1002.7614 1870.2283 1579544
1392.6976 1006.7025 1877.5787 1184530
1408.6382 1010.1544 1884.0168 1908511
1426.4625 1014.8925 1892.8535 329222
1445.233 1020.2242 1902.7977 1710616
1455.1405 1019.2654 1901.0095 855051
1454.1375 1010.7375 1885.1044 0
1464.9384 1010.4819 1884.6276 197122
1472.1622 1007.7814 1879.5909 920590
1488.7412 1011.4775 1886.4845 65536
1502.4646 1013.1929 1889.6838 131072
1505.2578 1007.5667 1879.1903 2893864
1505.2369 1000.1531 1865.3635 262914
1516.7294 1000.442 1865.9022 656899
1528.5142 1000.9181 1866.7903 262914
1541.7922 1002.3582 1869.4761 262658
1551.5535 1001.5076 1867.8898 196864
1547.3722 991.73315 1849.6597 1841173
1542.915 981.92059 1831.3585 1709330
1553.9847 982.0575 1831.6139 1643537
1581.5287 992.53156 1851.1487 2366749
1581.1919 985.48419 1838.0049 1380624
1586.5668 982.06891 1831.6351 2828325
1598.4897 982.72571 1832.8601 2959910
1617.6144 987.77112 1842.2703 3683634
1638.9431 994.08606 1854.048 2367775
1636.9851 986.28632 1839.5009 1644567
1639.4376 981.22961 1830.0697 1184013
1662.6898 988.60657 1843.8282 131072
1675.5007 989.7193 1845.9036 196608
1683.6584 988.08698 1842.8593 262144
1679.2258 979.13434 1826.1619 393987
1689.5504 978.84607 1825.6243 1774612
1710.9641 984.94495 1836.9991 919560
1729.8607 989.52704 1845.545 459264
1744.5295 991.64838 1849.5015 327680
1755.4884 991.64734 1849.4996 393216
1751.2751 983.12903 1833.6123 984837
0 0 0 0
0 0 0 0
0 0 0 0
0 0 0 0
0 0 0 0
0 0 0 0
0 0 0 0
0 0 0 0
0 0 0 0
0 0 0 0
0 0 0 0
-1665.7296 1037.7035 1914.24 11384761
-1653.7367 1037.2964 1913.4891 10991031
-1641.4814 1036.7183 1912.4226 11056823
-1627.8408 1035.2509 1909.7158 10991030
-1618.1503 1036.2927 1911.6378 10859443
-1605.8015 1035.635 1910.4244 10662066
-1591.9865 1034.0155 1907.4369 10464688
-1579.0295 1032.9341 1905.442 10596531
-1565.9863 1031.7803 1903.3137 10662326
-1555.5143 1032.3162 1904.3021 10333618
-1543.3937 1031.7577 1903.2721 10202032
