# .PCD v0.7 - Point Cloud Data file format
VERSION 0.7
FIELDS x y z rgb
SIZE 4 4 4 4
TYPE F F F U
COUNT 1 1 1 1
WIDTH 1290
HEIGHT 1
VIEWPOINT 0 0 0 1 0 0 0
POINTS 1290
DATA ascii
-1403.3762 1006.2892 2136.5754 7105114
-1384.8894 1002.0742 2127.6262 6644820
-1382.6727 1009.6628 2143.7385 2499609
-1373.6438 1012.3716 2149.4897 4933948
-1360.2061 1011.8512 2148.385 2828315
-1371.1218 1029.6088 2186.0881 3815210
-1332.0332 1009.7974 2144.0242 6776659
-1318.2452 1008.9692 2142.2659 7960678
-1310.8213 1013.0433 2150.916 3946797
-1304.645 1018.171 2161.8032 2170639
-1277.9365 1007.2177 2138.5471 4999738
-1270.1938 1011.1429 2146.8811 1381130
-1255.2146 1009.3287 2143.0291 4934454
-1246.2872 1012.3932 2149.5359 6645586
-1240.851 1018.3863 2162.2605 5131576
-1227.9335 1018.3007 2162.0786 2763029
-1216.6371 1019.5715 2164.7769 2499860
-1197.7377 1014.4301 2153.8606 5789255
-1183.9697 1013.5708 2152.0361 1973516
-1159.7711 1003.6661 2131.0063 4999993
-1158.8291 1013.8913 2152.7166 3815465
-1141.9254 1010.2232 2144.9285 2696727
-1128.2856 1009.3926 2143.1648 7105117
-1115.2134 1009.0565 2142.4512 4078639
-1093.7762 1001.0569 2125.4663 6315859
-1081.797 1001.6279 2126.6787 2499872
-1065.3903 998.06476 2119.1133 7960168
-1057.3256 1002.3245 2128.1577 4012840
-1034.8909 992.90033 2108.1482 5393979
-1037.7784 1007.8376 2139.863 3024919
-1026.6235 1009.3382 2143.0493 4538414
-991.46454 986.9809 2095.5798 4801586
-977.21478 985.13519 2091.6609 3748642
-980.45532 1001.1006 2125.5591 3222299
-968.76501 1002.038 2127.5493 3485986
-966.95013 1013.3492 2151.5657 4012587
-958.7453 1018.1769 2161.8157 2433556
-936.13843 1007.6333 2139.4294 2959644
-924.84125 1009.1407 2142.6301 262400
-903.82141 999.93365 2123.0813 1709580
-881.47699 988.98047 2099.8252 3288091
-868.13312 987.9563 2097.6509 2958355
-858.05066 990.66803 2103.4084 2432266
-839.2608 983.25824 2087.6758 1840131
-811.69989 965.19708 2049.3279 2761488
-815.2652 984.16168 2089.594 7038803
-793.32947 972.45264 2064.7329 6907731
-782.51813 974.22632 2068.499 5197113
-783.5719 991.06354 2104.248 4539182
-774.45599 995.37482 2113.4019 5920579
-770.06744 1006.0034 2135.9688 3617825
-762.54211 1012.8209 2150.4438 4407084
-758.09094 1024.0228 2174.228 5854530
-748.50641 1028.558 2183.8572 6315597
-730.52722 1021.5144 2168.9021 2959900
-704.58801 1002.8884 2129.355 2433044
-695.68427 1008.2731 2140.7878 2170391
-687.70813 1015.2271 2155.5527 3420196
-664.81836 1000.0114 2123.2466 2038801
-648.18158 993.79596 2110.0496 3617574
-636.53772 995.1416 2112.9067 3486502
-626.33936 998.8465 2120.7729 5328447
-608.32123 989.97723 2101.9417 6644821
-594.47278 987.66473 2097.0317 6184785
-572.28021 971.09442 2061.8491 3683881
-581.31036 1007.9384 2140.0771 6184015
-565.76636 1002.8662 2129.3079 6447188
-540.32404 979.61682 2079.9443 6907996
-534.47058 991.62604 2105.4424 5197634
-521.32855 990.36322 2102.7612 3354916
-506.07629 984.93164 2091.2288 5460035
-497.32254 992.19238 2106.6448 4341297
-478.0278 978.25549 2077.0537 4538929
-475.62823 999.07068 2121.249 3617829
-470.58618 1015.3147 2155.7388 4999226
-458.06555 1015.8795 2156.938 5723463
-443.604 1012.0489 2148.8047 4209966
-433.4649 1018.1447 2161.7473 5855047
-419.59409 1015.5794 2156.3008 8948088
-404.2608 1009.2021 2142.7603 2039827
-393.07526 1013.1014 2151.0396 2565656
-381.83707 1017.1218 2159.5757 2368022
-366.11447 1009.0617 2142.4622 788994
-353.28494 1008.6823 2141.6567 1249544
-339.80301 1006.3426 2136.689 2434070
-324.09924 996.98712 2116.8252 3223586
-311.2565 996.03357 2114.8005 4801847
-299.53949 998.75354 2120.5757 2367765
-288.70621 1004.7873 2133.3867 9078650
-274.18964 997.96771 2118.9072 5328968
-261.55872 997.68616 2118.3093 6710617
-253.01334 1013.7456 2152.4072 5855564
-239.44872 1010.3322 2145.1597 5460808
-228.52187 1018.2897 2162.0554 5789518
-216.08218 1020.0511 2165.7952 5131846
-204.33736 1025.5222 2177.4116 4671550
-190.31685 1019.54 2164.71 2170904
-176.9223 1016.2886 2157.8066 2697248
-164.89806 1021.0153 2167.8423 591875
-150.60358 1011.2961 2147.2065 4538939
-137.23236 1006.555 2137.1399 4671299
-123.86184 1000.8553 2125.0381 6447966
-110.68042 995.56635 2113.8086 6053208
-98.031303 994.32642 2111.176 4013882
-86.149498 1001.6453 2126.7156 1381648
-73.330894 998.71387 2120.4915 4473662
-61.563816 1011.8528 2148.3884 3224106
-48.274696 1000.3047 2123.8691 5987411
-35.673286 999.88678 2122.9819 2039830
-23.03791 997.54297 2118.0054 1381645
-10.484948 997.42773 2117.7607 4275767
2.0692396 999.30457 2121.7456 3946802
14.727604 1005.0675 2133.9817 2696735
26.969988 990.23254 2102.4836 3551785
39.502903 992.06946 2106.384 3354404
51.944855 991.28851 2104.7258 3880490
63.153709 971.83453 2063.4207 4209711
75.506027 973.43378 2066.8162 3683621
87.822296 974.18665 2068.4148 6183757
101.85545 991.46735 2105.1055 8354927
112.03286 971.54022 2062.7959 4933949
123.52513 965.81451 2050.6389 4538934
137.68579 980.10938 2080.99 5328196
148.371 969.3479 2058.1411 7170657
160.03108 966.10663 2051.259 5986899
174.2943 977.92871 2076.3599 3815729
186.6463 978.17529 2076.8835 5328199
201.71219 991.73438 2105.6724 4801339
213.0144 986.28723 2094.1069 4274480
225.01146 984.47992 2090.2698 5129788
237.65236 985.53131 2092.502 6511955
250.6281 987.79797 2097.3147 7170399
264.88556 994.66357 2111.8918 5920590
277.20605 993.96423 2110.407 6249555
291.63333 1000.5534 2124.3972 6644315
303.92642 999.57806 2122.3264 6447707
316.9761 1001.0698 2125.4937 5000006
329.00784 999.35547 2121.8538 7039846
339.49606 993.25159 2108.8938 6776163
351.90054 992.98834 2108.335 5328972
364.78873 994.06134 2110.613 7368555
381.5199 1005.1883 2134.238 5855315
390.5498 995.96173 2114.6479 7631981
402.52359 994.58276 2111.7202 5131849
418.74854 1003.4743 2130.5989 5066057
432.28674 1005.5954 2135.1025 6579295
442.88702 1000.9559 2125.252 5986390
452.82199 995.11102 2112.8418 5000008
466.1376 996.80988 2116.449 3157548
478.20255 995.81543 2114.3374 2762790
480.95258 975.96942 2072.2 4078907
497.00406 983.43158 2088.0437 4144698
513.67786 991.7326 2105.6687 7302249
513.97278 968.76801 2056.9097 6183511
528.51843 973.10577 2066.1199 4604991
544.05182 979.02448 2078.6865 7894127
558.50604 982.78235 2086.6653 6906975
586.65582 1009.9546 2144.3582 4867135
587.32373 989.66675 2101.2825 5065283
597.12372 985.28973 2091.989 6117969
612.3382 989.84326 2101.6572 5920331
620.91907 983.70575 2088.626 6709848
636.75494 989.07751 2100.0312 5130560
652.52216 994.13855 2110.7771 4209205
663.54169 991.91205 2106.0498 2827294
665.22711 976.0722 2072.4182 4867392
669.24982 964.17377 2047.1553 4604219
685.40887 969.87238 2059.2546 3617326
696.42737 968.22479 2055.7563 4932930
708.84949 968.5517 2056.4504 5985874
718.13147 964.64954 2048.1653 4275256
728.20398 961.92126 2042.3726 6446938
737.78601 958.64502 2035.4163 4867906
748.43127 956.83331 2031.5698 5525321
755.70947 950.84259 2018.8501 5262404
764.08234 946.39447 2009.4058 5591366
775.31793 945.57416 2007.6642 6051663
790.78381 949.85992 2016.7637 4670522
812.88434 961.86865 2042.261 986120
833.69202 972.01776 2063.8098 2235156
844.2403 970.08478 2059.7056 1511690
851.03198 963.95184 2046.684 1708812
847.12134 946.03912 2008.6512 1314570
855.20111 941.82776 1999.7097 3090464
870.37213 945.43445 2007.3674 1774091
883.47308 946.72571 2010.109 1839628
890.07544 941.11121 1998.1882 2365458
895.25018 934.15454 1983.4176 2957337
909.46362 936.68744 1988.7955 3681828
925.96564 941.48242 1998.9764 5787461
936.04974 939.71326 1995.2201 4274991
944.87708 936.74237 1988.9122 7301213
962.12256 942.0874 2000.261 7103835
976.18298 944.22162 2004.7924 4866869
991.63147 947.63104 2012.0312 4867383
999.51965 943.82031 2003.9403 6249296
1008.7186 941.32233 1998.6365 6446677
1023.0006 943.57074 2003.4103 9539208
1050.4381 957.76233 2033.5422 9078659
1068.1847 962.89642 2044.4431 8552571
1056.8258 941.9729 2000.0177 8025970
1080.1179 952.05615 2021.4268 2696737
1102.5908 961.20398 2040.8496 4539455
1120.2838 966.03168 2051.0999 3354154
1134.7605 968.0119 2055.3044 5262149
1150.4775 970.99707 2061.6426 2762529
1150.202 960.56372 2039.4901 6051665
1170.5963 967.4295 2054.0679 7039330
1182.1613 966.93231 2053.0122 7105379
1203.8798 974.66559 2069.4316 6644317
1217.1904 975.50452 2071.2129 1775889
1227.5198 973.96118 2067.936 6579294
0 0 0 0
1243.7136 967.492 2054.2004 7368297
1257.1228 968.44379 2056.2214 5656910
1240.8464 946.72821 2010.1144 5657424
1249.3342 944.1402 2004.6195 8157814
1261.6433 944.46155 2005.3018 4539454
1261.6823 935.67731 1986.6508 6776419
1284.1221 943.51447 2003.2909 7236970
1327.9041 966.74585 2052.6162 7631470
1325.9535 956.56305 2030.996 6579035
1365.5596 976.27362 2072.8459 7697005
1387.2975 982.97217 2087.0684 4407354
1379.9534 969.12817 2057.6746 4407355
1387.4921 965.88739 2050.7935 4341051
1399.796 965.99121 2051.0139 525571
1406.4812 962.24915 2043.0687 196608
1405.6566 953.47705 2024.4436 131072
1415.5309 952.04919 2021.412 657414
1442.9144 962.32269 2043.2249 1774863
1449.9869 958.99194 2036.153 1577224
1456.4885 955.34161 2028.4026 1906185
1464.563 952.77441 2022.9518 2563860
1460.9192 942.68738 2001.5348 1511171
1468.4888 939.94031 1995.702 2629649
1467.8547 932.02795 1978.9025 1576963
1476.5236 930.10132 1974.8118 4142629
1506.4091 941.46478 1998.939 3221269
1533.0656 950.64856 2018.4382 5128495
1543.2539 949.5575 2016.1216 3549209
1555.3348 949.63873 2016.2941 3417881
1577.4963 955.82654 2029.4321 3483932
1571.9873 945.28186 2007.0433 3220505
1583.9861 945.34418 2007.1758 3088918
1612.9298 955.44324 2028.6184 3022611
1607.0159 944.89722 2006.2268 2167045
1614.5341 942.34595 2000.8099 2759179
1633.1777 946.27802 2009.1586 2627597
1634.8396 940.38513 1996.6466 4470829
1647.0847 940.62067 1997.1467 4998717
1664.3829 943.71814 2003.7233 6183250
1675.1582 943.09924 2002.4093 7104353
1681.3474 939.92535 1995.6705 6709597
1690.2521 938.30328 1992.2263 8486008
1698.0493 936.09314 1987.5338 5920082
1715.4293 939.15979 1994.0449 4538942
1736.4197 944.14764 2004.6351 6381401
1747.412 943.66827 2003.6173 6710110
1777.4106 953.39032 2024.2594 5789009
1792.0421 954.79425 2027.2404 7104612
1781.9321 943.08527 2002.3796 7301991
1796.3639 944.43396 2005.2432 6183511
1813.1438 946.99139 2010.6731 6578269
1822.9445 945.89392 2008.3429 5591376
1820.0327 938.25726 1992.1285 5329230
1825.8191 935.17401 1985.5824 7500143
1847.7013 940.3219 1996.5123 8092280
1868.1353 944.67181 2005.7482 7236971
1880.9156 945.12091 2006.7018 6776420
1859.019 928.24945 1970.8799 7500145
1862.4594 924.16101 1962.1991 5000522
1877.1101 925.65137 1965.3635 7763828
0 0 0 0
0 0 0 0
0 0 0 0
0 0 0 0
0 0 0 0
0 0 0 0
0 0 0 0
0 0 0 0
0 0 0 0
0 0 0 0
-1848.6124 1006.2944 2110.0369 9736828
-1860.0996 1019.4433 2137.6079 7237206
-1837.4596 1013.9406 2126.0696 7500378
-1836.032 1020.1479 2139.0854 7171413
-1837.5591 1028.0948 2155.7488 6776655
-1816.8909 1023.6481 2146.4246 7237202
-1793.0575 1017.3427 2133.2031 7434583
-1791.0144 1023.3988 2145.9019 6776654
-1755.6118 1010.3434 2118.5269 6644812
-1735.9553 1006.2271 2109.8955 6974034
-1724.8457 1007.041 2111.6021 8158307
-1721.1525 1012.2285 2122.4795 7434583
-1700.1567 1007.2415 2112.0227 8947820
-1693.8625 1010.9551 2119.8096 8421477
-1678.6062 1009.3353 2116.4131 8224099
-1699.7909 1029.7679 2159.2568 5000500
-1652.0403 1008.4311 2114.5171 7368793
-1627.5673 1001.0859 2099.1152 6776400
-1624.1984 1006.7081 2110.9043 8289894
-1628.7806 1017.3843 2133.2905 8223590
-1599.149 1006.6893 2110.8647 6249800
-1581.629 1003.5103 2104.1987 7565917
-1578.0341 1009.186 2116.0999 7170903
-1563.5802 1007.9525 2113.5134 6973523
-1551.0333 1007.9384 2113.4839 7039316
-1542.7255 1010.7011 2119.2769 6250054
-1518.0995 1002.731 2102.5647 6973521
-1507.7672 1004.148 2105.5361 7302486
-1501.4972 1008.317 2114.2776 4078375
-1495.1367 1012.4946 2123.0376 7959902
-1486.6338 1015.28 2128.8782 5656891
-1473.4667 1014.9006 2128.0825 4012322
-1455.4093 1011.1172 2120.1494 6512455
-1434.5199 1005.2833 2107.9165 6446662
-1433.4722 1013.3736 2124.8806 8157793
-1413.061 1007.7973 2113.188 4012836
-1403.5223 1009.9449 2117.6912 6512716
-1392.5106 1011.0617 2120.033 7039062
-1379.4669 1010.71 2119.2957 5328701
-1380.3397 1020.642 2140.1213 5460288
-1364.7598 1018.4799 2135.5879 6841943
-1343.12 1011.713 2121.3984 4671028
-1360.2347 1034.2856 2168.73 3091997
-1338.8503 1027.7365 2154.9971 3618087
-1297.4723 1005.5652 2108.5078 8224109
-1306.8667 1022.6953 2144.4268 2236946
-1287.08 1017.1017 2132.698 3420958
-1266.3234 1010.623 2119.1133 4605747
-1259.7144 1015.4187 2129.1689 5526593
-1238.5237 1008.4384 2114.5325 5723715
-1233.7548 1014.8232 2127.9204 5197368
-1230.8666 1022.903 2144.8623 6052678
-1224.6754 1028.3777 2156.3418 3026717
-1203.0864 1020.9018 2140.666 1974285
-1195.3275 1025.1274 2149.5264 6053195
-1182.1831 1024.7755 2148.7886 3224098
-1149.6136 1007.394 2112.3425 3618598
-1156.9447 1024.9792 2149.2158 3354915
-1140.2396 1021.4244 2141.762 2631189
-1116.9725 1011.8452 2121.6758 6974043
-1094.0906 1002.4006 2101.8721 6117709
-1077.4403 998.51361 2093.7217 6381138
-1066.9331 1000.2956 2097.4583 3485990
-1059.3049 1004.8506 2107.0093 7301984
-1035.6041 994.08588 2084.4375 5657412
-1031.281 1001.8868 2100.7947 3157021
-1016.7892 999.87866 2096.584 3682596
-1002.3804 997.90344 2092.4424 3222299
-983.09985 990.9682 2077.9001 5853761
-963.96582 984.00641 2063.3025 2827539
-964.95453 997.67084 2091.9546 1182979
-951.67078 996.74237 2090.0078 3551516
-946.3653 1004.256 2105.7625 5328446
-933.99768 1004.3759 2106.0139 1644039
-921.41144 1004.2608 2105.7727 459264
-906.3172 1001.3716 2099.7144 327680
-882.11377 988.19733 2072.0901 1905673
-862.31543 979.65546 2054.1792 2300940
-852.44281 982.30688 2059.7388 1971720
-839.9859 982.0141 2059.1248 2037254
-834.67242 990.18707 2076.2622 1642756
-822.82153 990.73309 2077.4072 3024403
-812.03253 992.59357 2081.3083 2893072
-793.19824 984.52588 2064.3916 4472617
-769.35004 969.88434 2033.6907 1972747
-765.70569 980.65228 2056.2693 6775630
-758.46912 987.09338 2069.7754 7303003
-747.49927 988.80792 2073.3704 5592133
-749.89752 1008.5588 2114.7849 5657413
-737.86139 1009.238 2116.209 4472879
-734.87561 1022.5336 2144.0879 2960155
-721.08105 1020.9929 2140.8569 1512455
-702.98474 1013.1967 2124.5098 3354404
-688.87433 1010.9659 2119.832 3749415
-674.15131 1007.7363 2113.0603 3420452
-650.82123 991.27509 2078.5437 4670776
-643.08521 998.38843 2093.4592 3289379
-633.51923 1002.8847 2102.8872 4013358
-618.48969 998.73889 2094.1941 5592646
-607.74982 1001.4921 2099.967 6908249
-590.24066 992.97229 2082.1025 5723975
-577.1969 991.76141 2079.5635 4078637
-566.6452 994.87292 2086.0879 4274991
-559.05219 1003.4338 2104.0386 5854537
-542.84912 996.5788 2089.6646 4472884
-527.44818 990.91046 2077.7791 5722951
-514.36908 989.43744 2074.6904 3617575
-505.65387 996.49219 2089.4832 4012587
-487.70926 985.25616 2065.9231 6051397
-472.85284 979.84094 2054.5681 4801333
-469.39966 998.39368 2093.4702 3419677
-458.72528 1002.1775 2101.4043 2038539
-449.24573 1008.8557 2115.4072 2104076
-437.16306 1009.9037 2117.605 4341548
-427.66666 1017.165 2132.8306 2894358
-416.61664 1021.0608 2140.9995 5723719
-401.82986 1015.7556 2129.8752 4210738
-387.77429 1012.0144 2122.0308 789254
-376.36002 1015.1468 2128.5989 1184267
-364.83102 1018.1764 2134.9514 4934718
-347.22928 1003.8668 2104.9465 5329221
-331.8623 995.1925 2086.7578 3552553
-321.10568 1000.2073 2097.2729 4802878
-308.17374 998.57721 2093.855 4933949
-295.87186 998.93768 2094.6108 4604984
-284.9726 1004.2725 2105.7971 6513237
-272.83176 1005.5203 2108.4136 4538677
-259.49448 1002.2668 2101.5916 5196867
-246.79546 1001.2747 2099.5112 6052947
-234.46387 1001.7471 2100.5017 6513499
-225.39072 1016.9746 2132.4314 7434600
-210.26579 1005.0834 2107.4973 6710878
-198.13391 1006.9006 2111.3079 7895151
-188.36098 1021.759 2142.4634 7697518
-176.46098 1026.3929 2152.1802 5592398
-161.46883 1012.3621 2122.7598 4473919
-147.84172 1005.2419 2107.8298 2434593
-135.33788 1005.1498 2107.6367 7237740
-122.27941 1000.5011 2097.8892 6513503
-109.99418 1001.8427 2100.7024 7303275
-96.514908 991.26343 2078.5193 4869190
-85.260399 1003.7812 2104.7668 5658707
-73.202614 1009.5112 2116.782 921611
-60.733673 1010.7688 2119.4189 1644819
-47.851223 1004.006 2105.2383 5460557
-35.338844 1002.9761 2103.0789 3420974
-23.083963 1012.1139 2122.2393 1644818
-10.433764 1005.0476 2107.4224 4078645
2.0410929 998.11438 2092.8845 2104344
14.451508 998.63507 2093.9763 2762015
26.832214 997.57013 2091.7434 1577995
38.707752 984.33191 2063.9849 1971981
50.764481 980.95239 2056.8987 4077357
63.111492 983.40497 2062.0413 3090719
74.708786 975.27466 2044.9934 5525573
86.881874 975.88141 2046.2656 5723725
98.935768 975.16467 2044.7628 5460039
108.91788 956.41199 2005.4415 6447191
121.70886 963.58734 2020.4871 4999998
135.73669 978.39264 2051.5312 4275504
145.37085 961.69757 2016.5243 4801848
156.65527 957.62671 2007.9884 7302239
168.12854 955.20355 2002.9075 4671032
180.42044 957.4444 2007.6061 4012847
195.35045 972.54138 2039.2622 7368285
207.33716 972.08008 2038.2949 5986124
219.79306 973.74829 2041.7928 4472114
234.75615 985.77039 2067.0012 3747879
244.541 975.93427 2046.3765 4668980
258.35675 982.35449 2059.8386 6051147
272.69217 990.08197 2076.042 5722953
286.64502 995.81354 2088.0601 5130560
301.05176 1002.582 2102.2524 5459781
315.11911 1007.7274 2113.0415 6052178
324.4743 997.98615 2092.6157 3552047
341.79944 1012.573 2123.2019 1052173
350.32391 1000.9779 2098.8889 3684146
362.58728 1000.4947 2097.8757 855563
374.74051 999.74976 2096.3137 6316379
389.05429 1004.6317 2106.5503 6052695
404.86057 1012.9443 2123.9805 1710358
415.29288 1007.7155 2113.0164 4539455
422.97733 996.32013 2089.1223 3026473
437.46603 1001.1447 2099.2385 4407101
446.49576 993.55481 2083.324 2105116
459.45413 994.88037 2086.1033 2104861
470.85843 992.8595 2081.866 2368289
478.15707 982.50562 2060.1555 5460559
483.89667 969.54346 2032.9761 3815992
498.08017 973.71857 2041.7306 4934216
499.71463 953.74487 1999.8488 6184281
523.65796 976.28833 2047.1189 6118231
538.14227 980.57513 2056.1077 5920851
551.73566 983.08478 2061.3699 6446939
561.35626 978.5603 2051.8828 5855058
578.09515 986.37317 2068.2651 5394250
589.65527 985.20886 2065.8237 5920594
608.95764 996.76471 2090.0544 5130822
614.94653 986.5022 2068.5356 5065029
631.63208 993.46521 2083.136 5723215
645.11584 995.22186 2086.8193 3946547
657.66058 995.49097 2087.3835 3419944
654.40533 972.27545 2038.7046 1512206
665.1687 970.35211 2034.6716 1512721
679.4137 973.4859 2041.2426 6183766
685.84192 965.5058 2024.5095 5328715
702.75122 972.30133 2038.7588 3551792
715.71417 973.49939 2041.271 2104603
725.35602 970.21558 2034.3851 4801858
728.1629 958.04614 2008.8679 3354410
742.91602 961.73309 2016.599 4998976
749.2702 954.60284 2001.6478 5656648
759.12958 952.09088 1996.3807 4604214
773.37952 955.07825 2002.6447 4143919
786.18024 956.21259 2005.0232 7039066
797.13947 955.10669 2002.7043 4406583
816.80304 964.30945 2022.0011 7038561
826.54675 961.70428 2016.5385 3946546
835.63226 958.4184 2009.6484 1445897
843.19531 953.50323 1999.3422 1971983
851.31989 949.3504 1990.6344 2958878
866.0144 952.53748 1997.3171 1906192
875.5296 950.01868 1992.0355 985349
882.44238 944.78064 1981.0522 1182983
889.72247 940.06818 1971.171 788484
898.65588 937.20221 1965.1615 4406065
915.11554 942.15808 1975.5532 3879464
934.13452 949.59045 1991.1378 4997688
943.62695 947.27405 1986.2806 5787204
945.64832 937.60724 1966.0109 6445903
952.21875 932.63123 1955.5769 6248526
961.88959 930.77496 1951.6846 6380112
973.617 930.92914 1952.0079 4209715
984.21344 930.01099 1950.0829 6380884
1004.493 938.1579 1967.1655 7630953
1023.6847 945.11359 1981.7505 7697004
1042.5177 951.58392 1995.3177 8420985
1053.8082 951.10193 1994.307 7368040
1069.0856 954.18884 2000.7798 9933713
1079.0769 952.54181 1997.3263 3617579
1112.2832 971.20117 2036.4518 4143920
1132.486 978.22742 2051.1848 7762537
1138.3738 972.87079 2039.9528 6381139
1132.9694 958.07758 2008.9337 5657162
1146.4363 959.3844 2011.674 3749422
1158.6458 959.62274 2012.1737 5986385
1164.8888 954.96503 2002.4073 8223348
1180.2662 957.81415 2008.3815 6117971
1212.215 973.9201 2042.153 6446937
1201.3531 955.65253 2003.849 6381402
1203.3684 947.88593 1987.5636 6973539
1191.6979 929.59412 1949.2086 5328458
1224.4929 946.00635 1983.6224 3419948
1217.1437 931.38708 1952.9681 7104356
1234.5525 935.81018 1962.2427 6511960
1238.665 930.16595 1950.4077 8485749
1254.0114 932.98401 1956.3168 6906974
1283.5986 946.24872 1984.1307 8617849
1308.0435 955.51611 2003.5629 7302502
1313.6783 950.99982 1994.0929 6644573
1359.4918 975.39087 2045.2371 8355191
1368.8477 973.4248 2041.1145 3092009
1379.671 972.52759 2039.2333 5657936
1378.009 962.92169 2019.0911 5263179
1382.1024 957.4682 2007.656 197120
1402.8593 963.55292 2020.4147 1183497
1407.0363 958.24329 2009.2814 1841169
1420.3993 959.2262 2011.3424 920579
1438.3726 963.2804 2019.8434 2564887
1442.5533 958.10699 2008.9956 854532
1440.9913 949.23529 1990.3931 1840395
1454.3136 950.23291 1992.4849 327680
1462.9653 948.18726 1988.1954 656384
1461.1267 939.42963 1969.8322 327680
1453.7936 927.30609 1944.411 4405551
1481.2108 937.3645 1965.502 3352349
1494.0573 938.11707 1967.0798 2234123
1501.8391 935.70251 1962.017 2825744
1524.0974 942.27515 1975.7986 2759696
1531.9807 939.92786 1970.8768 2628366
1545.2185 940.87653 1972.8661 1708297
1528.3772 923.63336 1936.71 919808
1498.9757 899.11353 1885.2958 1314569
1509.3381 898.63116 1884.2843 3879721
1572.7125 929.48627 1948.9825 722693
1590.3186 933.03943 1956.4329 1246980
1602.1298 933.16571 1956.6978 1509892
1615.0105 933.90881 1958.2559 3022613
1631.7415 936.85181 1964.4269 3877921
1637.0336 933.23199 1956.8368 3615007
1661.1498 940.31891 1971.6969 4406065
1670.6127 939.07007 1969.0782 3813414
1681.0494 938.38214 1967.6357 6774099
1686.193 934.76923 1960.0601 4931382
1700.87 936.45477 1963.5942 4799538
1737.9642 950.37579 1992.7844 5062711
1722.8837 935.77057 1962.1597 5326910
1746.7294 942.36182 1975.9805 6051150
1720.5571 922.06042 1933.4117 6511960
1753.0544 933.26105 1956.8977 7038562
1770.1292 936.15814 1962.9723 7170405
1798.1927 944.79083 1981.0737 5262152
1812.7832 946.27875 1984.1936 4342079
1803.8175 935.53015 1961.6556 6250333
1808.6305 932.01971 1954.2948 8289916
1828.7759 936.40472 1963.4894 9473676
1859.36 946.04547 1983.7046 6250076
1844.8663 932.77362 1955.8756 5592147
1854.3143 931.6969 1953.6179 7960437
1860.0599 928.78491 1947.512 3420720
0 0 0 0
0 0 0 0
0 0 0 0
0 0 0 0
0 0 0 0
0 0 0 0
0 0 0 0
0 0 0 0
0 0 0 0
0 0 0 0
-1857.2278 1023.5471 2119.8706 9145201
-1865.4913 1035.103 2143.8042 5658173
-1835.5829 1025.4916 2123.8979 7763549
-1809.3383 1017.8087 2107.9858 6710861
-1785.1631 1011.191 2094.2798 9408375
-1770.3455 1009.8183 2091.437 6315847
-1728.3934 992.83954 2056.2722 8158308
-1751.1732 1013.0674 2098.1663 9276788
-1721.9983 1003.3135 2077.9648 8026723
-1697.8641 996.3772 2063.5991 8158311
-1708.9625 1010.1662 2092.1575 7500383
-1691.3704 1007.0739 2085.7529 6777432
-1691.3418 1014.4706 2101.0725 4145455
-1692.265 1022.5522 2117.8103 9868670
-1677.3163 1021.0925 2114.7869 7895128
-1684.4668 1033.165 2139.7905 6250307
-1650.66 1020.1092 2112.7505 8092514
-1634.1014 1017.5946 2107.5425 6513482
-1641.6722 1030.1831 2133.6145 9276790
-1614.3688 1020.9127 2114.4146 8158310
-1568.4117 999.60864 2070.2917 8224103
-1556.2935 999.70538 2070.4922 5460542
-1563.5758 1012.3651 2096.7117 7828575
-1554.4637 1014.5276 2101.1904 8090974
-1545.8585 1017.0587 2106.4324 5656377
-1521.5977 1009.2467 2090.2532 6314817
-1510.2137 1009.9177 2091.6428 5985851
-1507.7264 1016.5984 2105.4792 6906956
-1495.4955 1016.7661 2105.8264 6511941
-1488.6848 1020.6526 2113.876 7696215
-1475.6407 1020.2954 2113.136 6577994
-1461.7017 1019.3077 2111.0906 5460284
-1450.5381 1020.2554 2113.0532 7104597
-1430.5347 1014.9477 2102.0605 4012842
-1419.0424 1015.6383 2103.4907 5526075
-1406.7861 1015.7896 2103.8042 5723713
-1400.5808 1020.3518 2113.2529 7565660
-1387.2906 1019.7882 2112.0857 8421743
-1379.4442 1023.2526 2119.2607 8224109
-1376.6223 1030.5419 2134.3577 5461059
-1363.3844 1030.0968 2133.4358 5592131
-1338.9408 1021.0977 2114.7976 4999992
-1318.2018 1014.7802 2101.7136 4934203
-1310.1146 1018.1749 2108.7444 2697756
-1306.2416 1024.9415 2122.7588 6381391
-1287.0673 1019.7169 2111.938 4013098
-1275.2325 1020.2618 2113.0667 5657411
-1253.0214 1012.4335 2096.8533 6776403
-1253.0953 1022.6349 2117.9814 4605235
-1232.3962 1015.9185 2104.071 4999991
-1215.5054 1012.2363 2096.4448 5724226
-1219.08 1025.6969 2124.3232 3619363
-1204.1188 1023.6804 2120.1467 5462083
-1187.4606 1020.1635 2112.8628 8028009
-1189.038 1032.4049 2138.2161 4804152
-1162.8413 1020.5349 2113.6321 2040590
-1153.7732 1023.6026 2119.9856 3882028
-1139.2017 1021.8015 2116.2554 7698022
-1125.0431 1020.3347 2113.2175 3947309
-1114.7662 1022.3951 2117.4849 5196864
-1070.3347 992.82129 2056.2344 5591878
-1060.3793 994.91382 2060.5681 5460037
-1059.3218 1005.5009 2082.4951 8552052
-1051.127 1009.4832 2090.7429 2105109
-1041.1743 1011.852 2095.6489 3683878
-1022.4285 1005.6295 2082.7615 1446662
-1013.6292 1009.1573 2090.0681 4340781
-1001.4376 1009.3536 2090.4744 2697237
-974.11102 994.10883 2058.9011 6578767
-962.9964 995.23212 2061.2275 5723195
-951.24512 995.71783 2062.2334 3880733
-943.76965 1000.7501 2072.6558 1840902
-929.49951 998.61517 2068.2341 459520
-924.48083 1006.4955 2084.5549 3683364
-908.10785 1002.0601 2075.3689 197121
-856.1615 957.71033 1983.516 1644044
-873.75745 990.99933 2052.4609 2104336
-845.44385 972.42346 2013.9883 4472367
-838.44073 978.17761 2025.9059 985601
-796.47693 942.71912 1952.4678 3024919
-831.63654 998.84509 2068.7102 2893588
-815.61896 994.26404 2059.2224 4077347
-800.1673 990.2442 2050.897 2300937
-793.43707 997.05994 2065.0129 2169095
-776.20715 990.68823 2051.8167 4603692
-763.41907 989.87329 2050.1287 4603692
-750.1297 988.37134 2047.0181 5985345
-746.2392 999.40753 2069.8752 3353625
-738.76855 1005.9379 2083.4001 4143399
-718.8371 995.43457 2061.6467 3682850
-722.42603 1017.7019 2107.7646 3223069
-709.33063 1016.8356 2105.9705 3354914
-698.21002 1018.8198 2110.0798 1381126
-684.48242 1017.0028 2106.3169 1775886
-665.97534 1007.8853 2087.4336 4210225
-647.00873 997.71399 2066.3677 3157537
-636.64941 1000.679 2072.5085 1512716
-621.59381 996.23401 2063.3025 5262656
-608.13452 994.22021 2059.1318 4473138
-598.39417 998.32849 2067.6404 4012331
-583.87036 994.46136 2059.6311 3486244
-569.90009 991.39185 2053.2739 4143403
-557.4845 990.95203 2052.363 4735027
-555.65448 1009.7285 2091.251 5130295
-533.81183 992.16541 2054.876 3814949
-518.3996 986.01306 2042.1339 6578003
-509.98953 993.20331 2057.0256 5130301
-495.36896 988.35468 2046.9835 3222558
-479.78558 981.29333 2032.3588 7170389
-465.81064 977.24274 2023.9696 5328182
-461.12674 992.98529 2056.574 4143910
-454.66925 1005.6596 2082.8237 5196600
-436.77368 993.03595 2056.679 4012584
-427.60031 1000.0875 2071.2834 2959897
-419.8493 1010.9808 2093.8445 3815462
-409.76889 1016.7575 2105.8088 3947050
-397.37949 1016.9881 2106.2864 5197119
-385.10269 1017.5311 2107.4109 5526599
-366.8129 1001.6902 2074.6028 4408379
-350.19098 989.46326 2049.2795 4539963
-339.58966 993.98004 2058.6343 7434855
-328.80112 998.26495 2067.5088 5395273
-318.68491 1005.0021 2081.4619 7895406
-304.84659 1000.0709 2071.249 5525833
-295.16327 1008.9285 2089.5942 5262660
-282.90509 1009.3753 2090.5195 4407092
-271.02786 1011.2844 2094.4734 5986124
-258.59183 1011.1915 2094.281 6446932
-242.02104 994.10577 2058.8948 8420466
-229.48981 992.67926 2055.9402 7301984
-217.28873 992.60101 2055.7781 7630952
-206.46313 999.17004 2069.3833 3289125
-195.21611 1004.4003 2080.2158 8486775
-184.89519 1015.422 2103.0427 6710624
-173.62057 1022.4206 2117.5376 6381657
-159.33649 1011.4067 2094.7268 4341819
-147.75066 1017.1064 2106.5315 986888
-133.69164 1005.2616 2081.9995 6052949
-120.59292 998.96313 2068.9548 5131590
-107.87388 994.73999 2060.2083 7039844
-97.165749 1010.3488 2092.5356 4473658
-83.18 991.45734 2053.4094 4342071
-72.569557 1013.2172 2098.4763 5131846
-59.859482 1008.5994 2088.9124 4605761
-47.412296 1007.1582 2085.9275 3552817
-34.809875 1000.2398 2071.5989 1381905
-22.75913 1010.2715 2092.3755 3486768
-10.279843 1002.5258 2076.3335 5197385
2.0077868 994.02789 2058.7334 1249547
14.230502 995.58264 2061.9534 3090724
26.251606 988.11206 2046.4812 920324
38.362061 987.66345 2045.552 1971983
50.177368 981.65601 2033.11 5196349
62.5429 986.65503 2043.4635 2104338
74.222061 980.96082 2031.6702 3551011
86.060951 978.67261 2026.931 4472372
97.063774 968.60175 2006.0732 4209969
107.76904 958.08337 1984.2886 7038811
120.10685 962.72028 1993.8922 6116939
130.51022 952.40985 1972.5382 4011819
141.30756 946.43311 1960.1598 5393729
153.59938 950.61377 1968.8184 4341299
164.72752 947.51068 1962.3914 5262657
179.19327 962.7486 1993.9508 6315601
189.7632 956.46515 1980.9371 6446932
202.18466 959.70245 1987.6418 3880748
216.36984 970.49408 2009.9924 4670264
230.1666 978.5083 2026.5907 4933183
243.31525 983.10889 2036.119 8091245
256.47198 987.30585 2044.8114 3617835
268.43286 986.72839 2043.6154 4472885
281.45209 989.92316 2050.2322 4867644
295.40939 996.01642 2062.8518 7499623
311.4093 1008.2386 2088.1653 2434081
322.38303 1003.8754 2079.1287 2170909
332.72147 997.9281 2066.811 8420986
344.58972 996.82849 2064.5337 6381658
357.69983 999.27356 2069.5977 6908001
371.84537 1004.3532 2080.1182 1907992
385.992 1009.1097 2089.9695 7895411
400.52197 1014.5415 2101.2192 3684402
414.41425 1018.0792 2108.5461 4407869
422.98355 1008.7156 2089.1533 6579809
433.00284 1003.2442 2077.8213 6644833
444.29779 1000.9493 2073.0684 5131851
442.83868 970.81763 2010.6626 3750199
456.76242 975.10468 2019.5415 5395279
470.82422 979.4599 2028.5616 5000009
477.92996 969.48792 2007.9086 3750197
490.64917 971.1106 2011.2693 4012598
502.44516 970.87256 2010.7762 7236198
513.224 968.72559 2006.3297 4473148
523.50934 965.76544 2000.1989 4210231
537.10028 968.89948 2006.6899 7367781
551.69574 973.67065 2016.5714 7302245
569.12354 983.1322 2036.1672 3749421
582.92889 986.07318 2042.2583 3024931
597.9646 990.93329 2052.3242 4406843
606.35156 984.80133 2039.6243 3288361
621.09436 989.03009 2048.3823 4012085
634.64648 991.23688 2052.9529 2696735
644.42316 987.57489 2045.3685 3683630
650.79083 978.92023 2027.444 3749422
658.63086 972.75409 2014.6732 2105111
673.46155 976.9483 2023.3597 5263178
688.37225 981.1098 2031.9788 4934726
698.87488 978.95355 2027.5129 5065543
714.02423 983.26923 2036.4512 3880500
721.27679 976.74762 2022.9442 1117709
725.82086 966.83142 2002.4066 1774609
725.70062 951.12103 1969.8689 3222312
730.7998 942.6405 1952.3048 5985102
739.36823 938.82941 1944.4117 3551013
761.61487 952.23706 1972.1804 4407092
780.77563 961.43958 1991.2396 6051408
795.40826 964.875 1998.3549 5328455
805.57153 962.8678 1994.1976 7302502
808.99707 952.98157 1973.7223 3683118
829.29761 962.97223 1994.4139 1314571
836.25665 957.40778 1982.8894 4143412
847.71313 957.07532 1982.2008 591618
857.30658 954.67719 1977.234 1906705
863.69458 948.82239 1965.1082 1774861
875.85913 949.38483 1966.2731 1511950
887.61267 949.49286 1966.4968 1183242
897.98077 948.13525 1963.6851 4077615
903.92389 942.20013 1951.3927 1248263
912.80243 939.43579 1945.6676 4011051
933.39691 948.64801 1964.7471 3089949
935.45026 939.02124 1944.809 3879464
944.53052 936.59668 1939.7875 7827559
958.33582 938.85938 1944.4739 7894376
971.29535 940.24976 1947.3533 2828063
985.1748 942.48737 1951.9877 4078386
1002.9211 948.32947 1964.0873 5788494
1022.956 956.1767 1980.3397 7828078
1030.8209 952.59949 1972.9309 7170404
1052.6082 961.82404 1992.0359 8881279
1068.707 965.70386 2000.0714 9999760
1075.1409 960.86084 1990.041 8617851
1104.4146 976.31354 2022.0452 5196612
1109.1982 970.01758 2009.0055 4802368
1119.7347 968.83282 2006.5518 6710108
1113.8694 953.63055 1975.0664 7433832
1130.6741 957.95154 1984.0156 5263176
1162.8104 975.03943 2019.4064 6249557
1168.5837 969.8985 2008.759 5131077
1161.3688 954.18988 1976.2249 8749949
1152.9437 937.81067 1942.3018 5788493
1187.8408 956.64545 1981.3105 6644059
1182.1625 942.75342 1952.5386 4670266
1195.5457 944.18439 1955.5023 6183251
1200.5044 938.9986 1944.7621 5525577
1208.1693 936.008 1938.5682 2302232
1208.8719 927.73065 1921.425 2433303
1226.2739 932.30389 1930.8966 8024678
1240.5023 934.40204 1935.2422 4340526
1245.4155 929.50934 1925.1089 5130302
1238.5934 916.02643 1897.1844 8025451
1291.3898 946.48151 1960.26 5525576
1321.5144 959.92523 1988.1033 5723211
1346.8373 969.67426 2008.2944 7960432
1353.4656 965.91101 2000.5004 5854799
1351.7416 956.30402 1980.6034 5723213
1365.7362 957.88721 1983.8822 5131076
1367.0914 950.65393 1968.9016 657414
1407.3936 970.39703 2009.7915 3421486
1416.0822 968.19427 2005.2294 5592140
1427.9636 968.19293 2005.2266 5591882
1413.8134 950.68719 1968.9703 2959646
1427.9866 952.35754 1972.4299 2695961
1436.5303 950.27698 1968.1207 3748650
1448.375 950.39581 1968.3669 656898
1459.9095 950.31097 1968.1912 985860
1457.1354 940.98718 1948.8806 723205
1463.5297 937.68427 1942.0399 4208940
1480.2841 941.0188 1948.946 3550753
1490.851 940.39874 1947.6619 1445383
1504.7471 941.87207 1950.7133 1379072
1525.5907 947.63855 1962.6562 2826260
1529.0891 942.62494 1952.2727 590848
1526.8964 934.20471 1934.8335 1116676
1517.0585 921.26733 1908.0388 1182981
1508.3855 909.22363 1883.095 5196100
1528.6619 914.67859 1894.3929 4275255
1552.6681 922.26959 1910.1146 2367258
1567.0238 924.05981 1913.8223 262144
1612.5551 944.07623 1955.2784 1182210
1598.4906 929.16553 1924.3967 2629142
1620.505 935.28912 1937.0795 5852996
1621.9316 929.52777 1925.147 3878690
1655.3087 942.02985 1951.0402 4272678
1650.2402 932.63098 1931.574 2825232
1665.2941 934.6554 1935.7668 3351833
1683.011 938.13647 1942.9767 4009762
1703.8668 943.30817 1953.6876 3088145
1707.9813 939.20398 1945.1875 4732715
1698.0017 927.45673 1920.8577 4141349
1708.8992 927.19312 1920.3116 4733489
1709.4503 921.35645 1908.2233 5458496
1710.5803 915.90656 1896.936 5853771
1750.0804 930.93817 1928.0682 6709338
1758.8599 929.53949 1925.1714 5854545
1769.01 928.87854 1923.8024 7170661
1777.9296 927.58392 1921.1212 7368554
1790.5756 928.23767 1922.4752 7038819
1805.0781 929.83942 1925.7926 5656655
1812.2534 927.67053 1921.3004 6710114
1811.6045 921.5484 1908.621 4473409
1834.7306 927.52142 1920.9917 7631727
0 0 0 0
0 0 0 0
0 0 0 0
0 0 0 0
0 0 0 0
0 0 0 0
0 0 0 0
0 0 0 0
0 0 0 0
0 0 0 0
0 0 0 0
-1835.6968 1031.0726 2109.5645 5198395
-1794.472 1014.8289 2076.3298 5395518
-1786.8177 1017.477 2081.748 5526591
-1765.7939 1012.496 2071.5569 9211257
-1737.0349 1002.9789 2052.085 4672053
-1734.5991 1008.6339 2063.655 8223847
-1719.8558 1007.1619 2060.6433 8026979
-1695.2405 999.84631 2045.6758 6579791
-1710.0266 1015.8317 2078.3816 8619888
-1715.8646 1026.6948 2100.6074 6645587
-1670.9741 1007.1411 2060.6008 4802869
-1655.864 1005.3812 2057 7829091
-1640.0798 1003.183 2052.5024 9342580
-1666.6495 1027.0519 2101.3379 7631962
-1656.2168 1028.3062 2103.9043 6118724
-1641.3485 1026.8047 2100.8323 8092260
-1617.0292 1019.3226 2085.5239 7500124
-1596.9456 1014.416 2075.4851 6644815
-1581.0526 1012.1157 2070.7788 7829089
-1567.9849 1011.6023 2069.7283 6381385
-1541.3124 1002.2343 2050.5615 4670249
-1536.6063 1007.1145 2060.5464 6578243
-1537.6577 1015.8766 2078.4736 6314556
-1535.8219 1022.8575 2092.7563 6117177
-1513.3209 1016.0768 2078.8833 8288603
-1490.9907 1009.3006 2065.019 5590837
-1484.5627 1013.2659 2073.1321 4669737
-1483.9039 1021.2679 2089.5042 4209447
-1469.382 1019.7834 2086.4668 6775116
-1461.8132 1023.1403 2093.335 6907477
-1457.7649 1029.0397 2105.405 5525821
-1441.8287 1026.5768 2100.366 6052421
-1418.2509 1018.5827 2084.0103 3617825
-1406.6471 1019.1237 2085.1169 5263161
-1409.4252 1030.1862 2107.7507 3684387
-1397.5298 1030.6255 2108.6494 9737606
-1384.4005 1030.1544 2107.6858 5395013
-1370.9725 1029.4504 2106.2456 7829098
-1358.6238 1029.5515 2106.4521 7236958
-1346.7999 1030.0559 2107.4841 7631716
-1333.3815 1029.3387 2106.0168 7302751
-1319.4423 1028.202 2103.6914 4013359
-1306.7614 1028.0337 2103.3469 6184524
-1269.1625 1008.0704 2062.502 7829861
-1282.4752 1028.5499 2104.4031 5000762
-1260.558 1020.8997 2088.7507 3684397
-1232.1373 1007.7786 2061.905 8158570
-1233.0728 1018.6458 2084.1392 5526852
-1223.9213 1021.3156 2089.6018 6974042
-1215.129 1024.343 2095.7957 8027243
-1210.0421 1030.5886 2108.5742 6250832
-1198.9719 1031.8156 2111.0845 6711893
-1179.3071 1025.594 2098.3552 7435103
-1161.2006 1020.6094 2088.1567 5856330
-1153.163 1024.4625 2096.0403 4013871
-1138.9314 1022.8371 2092.7146 3158308
-1130.6755 1026.6014 2100.4165 5592135
-1113.5304 1022.2888 2091.5928 3354660
-1090.2802 1012.211 2070.9739 3947054
-1072.6227 1007.1553 2060.6299 2499351
-1062.5199 1009.1582 2064.7278 2236182
-1053.5031 1012.2514 2071.0564 4407349
-1043.9406 1014.887 2076.4487 6579545
-1028.954 1012.2493 2071.0522 3092515
-1023.1181 1018.659 2084.1663 3617575
-995.85303 1003.6287 2053.4143 2893592
-989.00983 1009.0623 2064.5317 3682848
-970.65186 1002.7369 2051.5898 2630418
-956.37231 1000.5176 2047.0491 5788992
-945.50909 1001.8611 2049.7981 2630931
-928.69672 996.85388 2039.5533 6710608
-918.50952 998.91992 2043.7804 5724233
-910.68719 1003.6473 2053.4526 5526851
-895.90076 1000.7238 2047.4711 3026462
-866.82275 981.53723 2008.2155 1907467
-852.00427 978.18781 2001.3627 4144426
-839.35577 977.27032 1999.4855 3815459
-828.02252 977.87982 2000.7325 2499341
-816.20593 977.92804 2000.8312 3486494
-812.22864 987.50861 2020.4329 4538157
-805.94318 994.52759 2034.7937 2366992
-795.30475 996.3067 2038.4338 3748897
-787.9032 1002.2581 2050.6104 1643267
-774.10547 1000.1324 2046.2611 2366732
-758.97284 996.18683 2038.1884 5064500
-743.77911 992.03217 2029.688 1314563
-736.20502 998.0708 2042.043 4472618
-725.21051 999.5968 2045.1652 2367248
-719.27948 1008.2725 2062.9155 3288861
-706.84241 1007.9705 2062.2976 2894362
-699.11658 1014.4943 2075.6453 1841675
-682.41931 1008.0002 2062.3584 3618088
-671.40442 1009.8157 2066.073 2302229
-653.07581 1000.4943 2047.0013 4210483
-640.33966 999.5495 2045.0685 3289637
-626.55762 996.90424 2039.6564 4736569
-615.33429 998.30615 2042.5245 1710093
-606.18451 1003.1959 2052.5291 6380877
-589.74701 995.97827 2037.7618 3420190
-579.01379 998.29388 2042.4994 3419933
-565.9093 996.53247 2038.8956 3617567
-550.81512 991.11426 2027.8099 4604206
-533.49829 981.36566 2007.8645 3485471
-525.20374 988.14728 2021.7396 2630162
-512.95123 987.625 2020.6711 3025179
-501.2836 988.23077 2021.9105 4143661
-485.06546 979.67572 2004.407 2695958
-476.28244 986.08466 2017.5195 3682850
-466.0726 989.79352 2025.1078 5064243
-454.43619 990.58875 2026.7349 2827536
-440.64359 986.59943 2018.5728 5854013
-426.99405 982.71661 2010.6285 3485211
-420.08704 994.57422 2034.8892 2630673
-415.4902 1012.7639 2072.105 4736050
-400.88766 1006.9296 2060.1682 4802100
-389.82648 1009.9031 2066.252 4407602
-377.00748 1008.368 2063.1111 4933948
-362.70627 1002.6327 2051.3767 6381911
-349.36273 999.23871 2044.4326 6644826
-338.89478 1004.121 2054.4216 3090719
-326.30655 1002.8508 2051.823 4538683
-315.88351 1008.3943 2063.1648 5591882
-302.51141 1004.5908 2055.3828 7829613
-290.49777 1005.1686 2056.5652 4407865
-280.37045 1012.6098 2071.7898 7039584
-268.3392 1013.5413 2073.6956 3025699
-255.02022 1009.4648 2065.3552 5591368
-240.649 1000.6025 2047.2228 2039063
-227.14777 994.60822 2034.9586 4867645
-214.80011 993.27618 2032.2333 6051918
-202.40836 991.56982 2028.7421 5789518
-190.87994 994.14447 2034.0099 7039330
-180.06033 1001.0067 2048.0498 6579292
-169.55328 1010.724 2067.9314 5987157
-158.17668 1016.3682 2079.4795 6382171
-144.10634 1004.1951 2054.5732 5921363
-132.34816 1007.3741 2061.0776 6316122
-120.07315 1006.8658 2060.0374 5921105
-107.06377 999.38727 2044.7366 5526348
-93.249878 981.53186 2008.2046 5592140
-80.579918 972.25433 1989.2229 5066052
-69.725403 985.45563 2016.2325 5987154
-58.013523 989.49359 2024.4941 6250584
-46.489861 999.68439 2045.3445 986889
-34.583599 1005.9347 2058.1326 2565665
-22.512911 1011.6075 2069.739 263171
-10.137815 1000.8095 2047.6465 3157802
1.9802401 992.42303 2030.4877 5131593
14.122247 1000.1356 2046.2676 197121
26.198017 998.19818 2042.3037 2104086
38.148663 994.2243 2034.1731 1972499
50.25975 995.33612 2036.4479 2038547
62.34803 995.6532 2037.0966 1709582
73.617645 984.91461 2015.1256 2367255
0 0 0 0
92.233231 931.69434 1906.2375 5195838
106.07071 954.55896 1953.0183 3813928
118.11404 958.367 1960.8096 4472115
129.36481 955.63818 1955.2263 4998715
141.92802 962.25629 1968.7668 4603700
154.6156 968.64789 1981.8441 2893081
165.49898 963.63208 1971.5818 4538419
176.62604 960.60297 1965.3843 4209193
187.75357 957.95105 1959.9585 5393725
202.64781 973.70703 1992.1949 5788741
214.62503 974.48364 1993.7839 4670519
226.73676 975.75793 1996.3912 3880747
241.5471 987.94354 2021.3229 3815212
254.07634 990.08856 2025.7114 4276020
266.89154 993.10406 2031.8811 5197381
280.22299 997.69733 2041.2789 6512986
292.15347 997.12872 2040.1156 4210489
306.63553 1004.968 2056.1545 5789522
319.89279 1008.3473 2063.0686 2368288
332.31882 1008.9539 2064.3098 2697512
341.20645 999.15613 2044.2635 5657934
350.48041 991.12256 2027.8271 6842723
369.66351 1010.7149 2067.9128 3619122
382.95642 1013.4619 2073.5332 3156774
395.58878 1014.3444 2075.3386 4539456
408.17822 1015.0669 2076.8169 5723987
419.62881 1012.998 2072.584 5789524
429.76093 1007.9543 2062.2646 5526099
438.32513 999.61395 2045.2003 2039581
443.14404 983.41083 2012.049 4473666
455.3699 984.06354 2013.3844 1644566
464.74451 978.67865 2002.3669 6184026
476.68149 978.82355 2002.6633 1775895
488.57687 978.87799 2002.7748 3486510
500.53571 979.05396 2003.1348 1183757
512.50745 979.24634 2003.5284 3156517
521.49341 973.85437 1992.4965 4998463
534.03003 975.18494 1995.2189 4209204
546.00739 975.45886 1995.7792 4998977
555.40509 971.21002 1987.0863 6381143
573.25281 981.60724 2008.3586 4802370
586.54797 983.94427 2013.1404 4736577
597.11755 981.70715 2008.5632 4539198
606.42523 977.52344 2000.0033 4078647
617.69061 976.59521 1998.1041 3946804
636.81763 987.89771 2021.229 1973015
643.55157 979.91241 2004.8912 2959909
657.69 983.28687 2011.7953 3354667
665.29724 976.95044 1998.8309 4275514
679.43146 980.25244 2005.5868 6183767
687.00336 974.13593 1993.0725 4999492
694.82623 968.57605 1981.697 2564895
714.0827 978.87421 2002.7671 3288362
721.33466 972.64893 1990.03 131072
716.67542 950.82111 1945.3706 657928
720.41211 940.64697 1924.5544 920843
726.11945 933.323 1909.5698 4999489
742.93433 940.28198 1923.8077 3946285
767.64294 956.87012 1957.7468 6184275
782.24359 960.55219 1965.2804 7565932
795.71515 962.76019 1969.798 5921108
803.32739 957.91748 1959.8896 3617585
815.76324 958.88269 1961.8646 3750196
823.62347 954.51782 1952.9342 5065800
836.47797 955.98199 1955.9297 3486766
850.41278 958.62372 1961.3347 789513
856.45117 952.4129 1948.6276 4407612
861.75769 945.56464 1934.616 1841942
881.51544 954.54431 1952.9884 4538941
891.44135 952.78314 1949.3849 723461
900.92145 950.59644 1944.911 1906451
907.47473 945.41595 1934.3116 2893344
916.42029 942.82568 1929.0122 1379591
930.05377 945.06305 1933.5897 985602
943.17908 946.73578 1937.0121 3419687
960.44043 952.46997 1948.7443 5590851
972.52539 952.99548 1949.8193 7827558
970.01617 939.37555 1921.9531 1643534
984.13171 941.98438 1927.2908 5788493
1000.8007 946.9494 1937.4492 3157032
1017.7372 952.05225 1947.8895 5723472
1023.8247 947.00543 1937.5638 7499883
1038.3636 949.80133 1943.2842 6381143
1059.5303 958.53174 1961.1465 8092275
1075.5336 962.45221 1969.1678 7170659
1088.046 963.19836 1970.6943 4406840
1081.606 947.3288 1938.2255 4538426
1078.5514 934.72699 1912.4421 3749167
1104.9379 947.63684 1938.8557 4802111
1126.2562 955.97919 1955.9241 5131334
1134.6583 953.2998 1950.4421 6052179
1119.1523 930.79028 1904.3878 5723729
1134.8953 934.46021 1911.8965 6447449
1157.3099 943.49677 1930.3851 5196356
1157.2577 934.21954 1911.4041 3616295
1176.9528 940.90906 1925.0907 5459523
1180.111 934.37677 1911.7257 6051916
1196.0089 937.95966 1919.0563 5064762
1216.6129 945.1311 1933.7289 3945769
1216.7173 936.39197 1915.8488 5853505
1233.6099 940.6153 1924.4896 5327415
1249.9525 944.3457 1932.1221 5722173
1244.3582 931.58533 1906.0145 5919553
1266.5022 939.63416 1922.4822 5854278
1290.0931 948.60321 1940.8329 6906715
1299.0663 946.76025 1937.0623 6511960
1323.9397 956.43628 1956.8593 5657164
1323.2169 947.61383 1938.8085 6446681
1367.7285 971.05853 1986.7762 6512733
1387.5126 976.6969 1998.3123 8749951
1399.3202 976.67273 1998.2627 3157032
1405.3486 972.64899 1990.0303 3091492
1391.2321 954.86584 1953.6461 5328452
1402.2506 954.48517 1952.8672 6644053
1409.5009 951.56677 1946.8962 5130814
1418.507 949.87152 1943.4279 4801849
1431.938 951.14276 1946.0287 3551781
1446.7772 953.32159 1950.4866 4538677
1456.3232 952.0058 1947.7944 3354148
1464.0791 949.54956 1942.769 4867639
1477.5342 950.79907 1945.3254 5920323
1492.4429 952.9574 1949.7416 9998467
1505.7225 954.05054 1951.9779 2892828
1512.3312 950.93219 1945.598 2958870
1519.4061 948.1521 1939.9099 3748132
1509.0927 934.64441 1912.2733 3551011
1506.9941 926.38794 1895.3807 3485218
1508.8784 920.68396 1883.7103 459777
1508.8654 913.91449 1869.8601 3551531
1515.1605 911.03674 1863.9722 3946803
1559.8373 931.11169 1905.0454 1249036
1579.3625 935.99243 1915.0314 131072
1594.8562 938.43121 1920.0211 2958366
1610.1477 940.71747 1924.6987 985864
1616.0083 937.50037 1918.1165 2629398
1622.7693 934.84668 1912.6871 3747621
1631.9716 933.62665 1910.1909 3155484
1646.5197 935.46051 1913.943 2234126
1629.6832 919.56049 1881.4117 2168334
1653.6996 926.77124 1896.1648 1181701
1649.9288 918.4173 1879.0728 3023899
1652.6119 913.74371 1869.5107 2957333
1654.7593 908.83813 1859.4739 4338725
1654.2069 902.52448 1846.5563 4338468
1677.3419 909.13257 1860.0764 5456948
1702.0414 916.49695 1875.1437 6114621
1731.418 926.26776 1895.1348 5128239
1742.9523 926.42902 1895.4646 5720121
1719.0819 907.89001 1857.5341 5325366
1740.748 913.48297 1868.9773 5194041
1775.4948 925.82599 1894.231 5918024
1769.8309 917.07434 1876.3252 3681319
1809.1803 931.61102 1906.0669 6050379
1818.1666 930.4292 1903.6489 4209205
0 0 0 0
0 0 0 0
0 0 0 0
0 0 0 0
0 0 0 0
0 0 0 0
0 0 0 0
0 0 0 0
0 0 0 0
0 0 0 0
0 0 0 0
-1810.5677 1029.2888 2080.6865 10066818
-1782.5226 1020.2939 2062.5034 9079925
-1757.1343 1012.7061 2047.1649 9540221
-1725.8275 1001.5782 2024.67 7698014
-1710.9388 999.8891 2021.2557 5329724
-1747.7925 1028.6283 2079.3513 6580048
-1725.5851 1022.7695 2067.5078 7500895
-1702.6018 1016.3638 2054.5588 6316620
-1686.6459 1014.0909 2049.9644 7237722
-1640.4418 993.46661 2008.2726 9277047
-1618.8844 987.57611 1996.3652 7631964
-1615.955 993.04626 2007.4231 9079155
-1628.5116 1008.1848 2038.0251 7697758
-1629.8873 1016.5759 2054.9875 8618855
-1622.6635 1019.6893 2061.2812 5263666
-1620.0995 1025.8004 2073.6348 6842444
-1594.5746 1017.3555 2056.5637 7763803
-1581.5515 1016.8185 2055.478 7829342
-1577.9534 1022.3796 2066.7197 7828829
-1545.8212 1009.3954 2040.4724 7171152
-1533.0543 1008.9514 2039.575 6841928
-1522.3054 1009.8391 2041.3691 6183485
-1514.6791 1012.8288 2047.4131 5130284
-1510.673 1018.3073 2058.4875 4143643
-1495.9536 1016.5945 2055.0254 5130539
-1484.0382 1016.7748 2055.3899 6117178
-1483.9058 1025.0979 2072.2146 7038793
-1476.9613 1028.8148 2079.7283 7104335
-1450.6637 1018.9999 2059.8877 8355431
-1438.287 1018.8799 2059.645 7170902
-1441.257 1029.7224 2081.563 8092263
-1415.5339 1020.0751 2062.0613 5658180
-1399.1036 1017.0148 2055.875 8487539
-1393.905 1022.1368 2066.229 4144943
-1382.0072 1022.3936 2066.748 4341809
-1374.0015 1025.5601 2073.1489 5986634
-1361.0741 1025.077 2072.1724 6249806
-1355.8579 1030.4454 2083.0247 4868153
-1341.5298 1028.9241 2079.9492 4933945
-1340.8008 1037.9015 2098.0967 4013355
-1325.6924 1035.8116 2093.8723 6710611
-1319.6439 1040.828 2104.0129 5526336
-1285.1483 1023.2894 2068.5588 8158053
-1270.7065 1021.5344 2065.0112 4276269
-1258.9618 1021.9346 2065.8201 4473649
-1256.943 1030.3148 2082.7607 3552037
