# .PCD v0.7 - Point Cloud Data file format
VERSION 0.7
FIELDS x y z rgb
SIZE 4 4 4 4
TYPE F F F U
COUNT 1 1 1 1
WIDTH 1310
HEIGHT 1
VIEWPOINT 0 0 0 1 0 0 0
POINTS 1310
DATA ascii
-4455.2095 1027.3003 5338.0044 8354674
-4480.3438 1040.4836 5406.5078 8815228
-4487.0894 1049.556 5453.6484 8688015
-4695.6572 1106.3096 5748.5488 517
-5157.0161 1223.8864 6359.4951 657937
-5356.0835 1280.4879 6653.605 6319745
-5633.52 1356.8036 7050.1528 6385029
-5604.4067 1359.8773 7066.1245 7043475
-5608.5312 1371.1229 7124.5581 7569818
-5599.3628 1379.2646 7166.8638 8161955
-5557.1655 1379.333 7167.2188 8819884
-5551.1182 1388.4441 7214.5615 9083055
-5490.7993 1384.017 7191.5576 9017775
-5427.8813 1378.8602 7164.7627 9083825
-5354.1133 1370.8444 7123.1104 9281461
-5212.2876 1345.1372 6989.5327 9347254
-5116.7705 1331.0649 6916.4106 9150389
-4933.1768 1293.6683 6722.0928 9018804
-4717.9834 1247.3086 6481.2007 8887218
-4439.5552 1183.3331 6148.7744 8755632
-4300.8003 1155.8358 6005.8945 8493488
-4174.3501 1131.214 5877.9561 8428459
-4183.3374 1143.1892 5940.1807 8165031
-4217.6514 1162.3474 6039.73 10
-4244.0908 1179.6449 6129.6099 15
-4235.9546 1187.5476 6170.6738 14
-4252.54 1202.5791 6248.7798 14
-4247.1182 1211.5966 6295.6357 15
-4271.4517 1229.3376 6387.8208 11
-4329.8286 1257.2814 6533.0205 9872572
-4388.3164 1285.7617 6681.0088 9280436
-4588.5962 1356.6835 7049.5288 9149622
-4551.4009 1358.0507 7056.6328 9149366
-4566.8872 1375.3081 7146.3047 9083829
-4574.9238 1390.624 7225.8892 9149623
-4675.8521 1434.7323 7455.082 9149622
-4702.4341 1456.652 7568.98 9281208
-4735.6909 1481.0813 7695.9185 9215672
-4704.3877 1485.5986 7719.3911 9281466
-4703.9897 1500.0599 7794.5342 9347002
-4688.522 1509.9548 7845.9497 9412796
-4984.8848 1621.4799 8425.4502 9412796
-4952.8682 1627.3661 8456.0361 9346747
-4964.7222 1647.9346 8562.9121 9346747
-4972.3701 1667.5173 8664.667 9215417
-4952.356 1678.135 8719.8389 9281210
-4647.1514 1591.3196 8268.7324 9281208
-4687.9106 1622.3838 8430.1475 9215672
-4864.3428 1701.5769 8841.6465 9149622
-4799.8677 1697.306 8819.4541 9018037
-4502.5518 1609.6987 8364.2334 9018037
-4555.5361 1646.7703 8556.8623 8952500
-4556.749 1665.751 8655.4893 8820914
-4465.8315 1651.1016 8579.3682 8820913
-4342.626 1624.0397 8438.751 8689070
-4293.2451 1624.2776 8439.9873 8623020
-4176.8628 1598.8737 8307.9844 8820399
-4174.9233 1617.1937 8403.1787 8755119
-4134.8208 1620.9952 8422.9316 8820656
-4098.3398 1626.3264 8450.6338 8820911
-4063.064 1632.2739 8481.5381 8491689
-4083.2527 1660.9316 8630.4473 6779267
-4017.7966 1655.0369 8599.8174 8754347
-3979.5251 1660.3325 8627.334 8885933
-3917.2346 1655.6145 8602.8184 5859197
-3852.9919 1649.9362 8573.3125 6977164
-3777.637 1639.2836 8517.9609 8951465
-3694.2659 1624.8171 8442.791 9084082
-3638.9797 1622.4755 8430.623 8820909
-3557.7136 1608.3235 8357.0879 7767704
-3542.4685 1624.0397 8438.751 4213080
-3475.2451 1616.035 8397.1582 6646392
-3356.7605 1583.6145 8228.6963 7304322
-3300.8726 1580.2046 8210.9775 7435908
-3244.2532 1576.3374 8190.8828 7239301
-3151.5427 1554.55 8077.6724 7568011
-3092.4036 1548.9055 8048.3433 7436937
-3003.6616 1528.0247 7939.8428 7765129
-2955.4182 1527.4095 7936.647 6317934
-2905.939 1526.1256 7929.9751 5264730
-2872.6577 1533.4459 7968.0127 5132888
-2815.7358 1528.1805 7940.6528 5527908
-2774.0718 1531.1577 7956.1226 6383478
-2717.3613 1525.7893 7928.228 5791341
-2696.4795 1540.7036 8005.7246 5264739
-2613.532 1520.0542 7898.4272 6581115
-2583.7046 1530.1102 7950.6802 6647167
-2496.9028 1506.1721 7826.2939 7173514
-2458.7354 1511.22 7852.5229 7963028
-2385.0754 1494.2269 7764.2251 6120822
-2387.7146 1525.3064 7925.7183 5593703
-2232.5034 1454.7723 7559.2134 5066840
-2248.0305 1494.8868 7767.6538 3685182
-2195.9712 1490.7957 7746.3955 6185059
-2158.5811 1496.7009 7777.0801 5132119
-2094.8367 1484.1917 7712.0801 4539981
-2043.2411 1479.924 7689.9048 3289912
-1983.8417 1469.6803 7636.6772 3882049
-1865.5829 1414.3358 7349.0986 4934992
-1838.1063 1426.8146 7413.9399 5461336
-1852.5094 1473.2092 7655.0137 5263956
-1852.0537 1509.8201 7845.249 4737866
-1861.4899 1556.588 8088.2622 5593175
-1814.2544 1557.1866 8091.3726 5066575
-1723.1365 1519.1304 7893.627 4868683
-1564.1136 1417.4143 7365.0952 4210496
-1535.4532 1431.3854 7437.6904 3618615
-1462.48 1403.6516 7293.5825 5592405
-1436.1002 1420.3102 7380.1421 5855577
-1392.6104 1420.5614 7381.4478 2631720
-1355.8933 1427.962 7419.9023 2960685
-1286.2081 1399.9742 7274.4741 3816251
-1239.8513 1396.3179 7255.4751 3750717
-1171.4415 1366.6704 7101.4224 1513500
-1117.7545 1352.6299 7028.4653 1184281
-1039.2693 1306.3319 6787.894 11
-1017.9543 1331.0603 6916.3867 13
-988.57202 1346.8723 6998.5483 11
-949.59827 1350.4292 7017.0303 131848
-915.52484 1361.5999 7075.0747 658193
-876.66705 1366.3857 7099.9429 2237742
-842.55103 1379.4175 7167.6577 4673117
-789.00952 1360.3412 7068.5342 6318455
-733.76672 1336.028 6942.1992 8028298
-710.4101 1370.3326 7120.4517 2567984
-668.45117 1370.8214 7122.9917 3949124
-635.34583 1390.7566 7226.5776 6185571
-597.32751 1402.0416 7285.2168 5659227
-555.5423 1405.5547 7303.4707 5066573
-501.71747 1376.6268 7153.1572 5000524
-461.74942 1383.8889 7190.8921 2303011
-417.87335 1379.7244 7169.2524 4869195
-374.43225 1376.2158 7151.0215 4869195
-337.00717 1396.7455 7257.6968 5263953
-295.67914 1404.7395 7299.2349 4211008
-244.49246 1360.6095 7069.9287 4540230
-203.44408 1366.3147 7099.5742 4606023
-162.4257 1375.2494 7145.9995 5066574
-121.44919 1390.9651 7227.6611 3816507
-78.677711 1392.0477 7233.2866 5066831
-36.385155 1414.3383 7349.1113 4277315
7.0793495 1396.9932 7258.9839 3750969
49.859039 1390.3398 7224.4121 2434852
92.169281 1382.791 7185.1875 3355956
135.11005 1386.4833 7204.373 5395538
176.94026 1379.7427 7169.3477 5987675
217.98427 1370.6687 7122.1978 5592918
259.02408 1364.5166 7090.231 5197906
301.34518 1365.8894 7097.3643 5526615
338.88275 1347.8997 7003.8862 4868940
376.05444 1332.5392 6924.0718 4539975
416.55298 1330.83 6915.1899 5461077
463.5759 1348.4044 7006.5098 6448742
503.94916 1345.3376 6990.5737 5330263
548.05719 1351.9497 7024.9312 4672332
587.30591 1346.4874 6996.5483 3817022
621.76331 1331.485 6918.5938 5264469
654.44598 1314.7736 6831.7583 5263699
685.82178 1297.5366 6742.1929 4342851
732.19293 1309.0061 6801.79 5000525
760.50708 1288.681 6696.1777 5197647
813.25092 1309.7152 6805.4741 5723991
832.36121 1277.1552 6636.2876 6118749
866.13928 1269.0237 6594.0352 5723989
884.50128 1239.9823 6443.1323 3815735
938.72595 1261.5399 6555.1489 5526607
979.41815 1263.9209 6567.5205 4868421
1009.1111 1252.468 6508.0098 5723986
1037.583 1240.3986 6445.2949 5132362
1096.2582 1264.0114 6567.9907 4934983
1134.4316 1263.1764 6563.6519 5329485
1166.5215 1255.8473 6525.5688 4934726
1203.238 1253.8098 6514.9819 5066313
1222.3315 1234.1061 6412.5986 4868933
1246.3817 1220.4442 6341.6094 5197901
1309.2817 1244.5099 6466.6582 5066059
1354.7335 1251.0936 6500.8682 4671301
1376.0366 1235.6284 6420.5088 3947578
1395.0999 1219.0385 6334.3047 4144957
1448.8384 1232.8232 6405.9321 4671300
1445.3657 1198.4657 6227.4058 4211007
1482.2606 1198.4575 6227.3633 3684663
1489.8612 1175.3398 6107.2402 3684407
1544.6431 1189.6569 6181.6333 5329231
1587.0032 1193.965 6204.0195 4013372
1593.5017 1171.709 6088.3735 4144700
1634.3325 1175.1241 6106.1196 3289133
1654.1084 1163.5804 6046.1362 4539200
1692.5908 1165.4062 6055.6235 4342078
1752.4883 1181.5951 6139.7432 4342591
1746.6141 1153.6815 5994.7002 5197386
1751.8385 1134.0656 5892.7729 5394765
1802.3647 1143.9698 5944.2373 4078392
1813.1355 1128.745 5865.1265 3881269
1872.5143 1143.7842 5943.272 4736064
1863.4979 1117.2615 5805.4565 4209977
1935.8213 1139.5837 5921.4463 3749425
1961.8497 1134.3434 5894.2163 4670527
1984.0396 1127.1056 5856.6079 4275769
2054.636 1147.1431 5960.7261 2893860
1989.2755 1091.8789 5673.5645 3157288
2025.0815 1093.0573 5679.6875 4670016
2058.3547 1092.8524 5678.6235 3552561
2079.3887 1086.2605 5644.3706 3486768
2108.3098 1083.9321 5632.2725 4209976
2133.4526 1079.7642 5610.6152 3420205
0 0 0 0
2236.1587 1097.5349 5702.9541 789257
2192.5549 1060.1113 5508.4956 854281
0 0 0 0
2238.3862 1050.9755 5461.0244 1512466
2293.9133 1061.6964 5516.7324 2959912
2339.8992 1067.7621 5548.2505 3354155
2328.2058 1047.7039 5444.0249 3748399
2376.7478 1054.9296 5481.5708 2958883
2465.1016 1079.3929 5608.6855 2958883
2455.4021 1060.8419 5512.292 2761761
0 0 0 0
2405.8721 1012.5019 5261.1099 3024673
2532.8452 1052.3008 5467.9111 2630429
2526.6936 1036.4847 5385.7285 3485482
2526.2812 1023.3882 5317.6772 4472377
2555.4692 1022.4578 5312.8423 3550762
2598.7 1027.1001 5336.9644 2827294
2591.3403 1011.8761 5257.8584 3353380
2602.5522 1004.1795 5217.8657 2497815
2669.0864 1017.7588 5288.4258 1905678
2647.5859 997.84375 5184.9443 3813673
2671.0007 995.11957 5170.7886 4274736
2772.9053 1021.3679 5307.1787 5130045
2802.2581 1020.6034 5303.2065 3156255
2803.343 1009.6749 5246.4204 4472115
2856.7949 1017.64 5287.8086 3616806
2883.2849 1015.9323 5278.9351 3419430
2890.7178 1007.6184 5235.7349 3814186
2895.6394 998.61517 5188.9526 3814187
2909.9268 992.99713 5159.7603 2893085
2940.6528 993.04712 5160.02 3222050
3016.8386 1008.2897 5239.2231 3090464
3032.6333 1003.2435 5213.002 3090464
2993.1108 980.18365 5093.1797 3287840
3059.3467 991.87225 5153.9155 3024412
3098.812 994.73639 5168.7979 3813928
3092.9373 983.13239 5108.502 2892827
3084.3516 970.90002 5044.9404 4603960
3153.7056 983.20099 5108.8584 2827291
3199.1355 987.88037 5133.1733 3090463
3214.6951 983.33472 5109.5532 3090209
3218.4275 975.28986 5067.751 3024930
3253.7378 976.87433 5075.9839 3419688
3353.1296 997.49298 5183.1216 3419688
3330.0032 981.62122 5100.6494 3617325
3365.6272 983.19769 5108.8408 4012084
3448.6475 998.46838 5188.1899 3419947
3460.3503 993.0036 5159.7939 3354154
3504.5806 996.88696 5179.9727 3551276
3504.7388 988.27539 5135.2256 3485484
3510.2979 981.3219 5099.0942 2498845
3464.0583 960.13007 4988.9785 3617068
3497.7803 961.27234 4994.9136 3946289
3491.5142 951.49799 4944.1245 4077875
3523.0701 952.10767 4947.2925 2367257
3566.4341 955.87201 4966.8525 3353638
3610.9646 959.88495 4987.7046 4012081
3669.2776 967.46655 5027.0996 3485738
3735.554 977.00891 5076.6836 3551531
3766.4783 977.22656 5077.814 3551531
3744.8701 963.91895 5008.666 3880496
3801.2925 970.74768 5044.1489 5196356
3732.8594 945.8338 4914.6929 4406840
3787.4309 952.23145 4947.936 3683117
3821.0908 953.31354 4953.5586 2300949
3843.0293 951.47705 4944.0161 3879981
3855.4172 947.32184 4922.4248 3879980
3900.0764 951.09882 4942.0503 4077359
3905.0742 945.21942 4911.5005 4340533
3813.8809 916.31635 4761.3159 4209461
3771.2632 899.42285 4673.5347 3419688
3900.7866 923.53088 4798.8037 3419688
3949.9819 928.40955 4824.1538 3090979
4023.2612 938.8382 4878.3428 2959137
4076.0591 944.37262 4907.1006 3946032
4100.3677 943.2749 4901.3965 2827294
4096.8364 935.83313 4862.728 2695452
4183.8315 949.02979 4931.2998 2498329
4147.8208 934.33502 4854.9434 2366742
4111.5771 919.79059 4779.3687 2958879
4099.4341 910.79999 4732.6519 2300435
4122.9829 909.80737 4727.4941 3682344
4091.4065 896.74609 4659.6255 1313797
4178.4087 909.67529 4726.8081 3681830
4319.7031 934.17365 4854.105 4274223
4275.2358 918.44092 4772.3555 4537650
4323.2202 922.64581 4794.2046 4603187
4339.6895 920.11371 4781.0474 3682086
4367.4351 919.98999 4780.4043 3418656
4365.9028 913.74011 4747.9292 2497814
4400.1484 915.01038 4754.5298 1971213
4336.1455 895.96362 4655.5601 2498071
4300.3276 882.94476 4587.9121 2629402
4284.0923 874.08496 4541.875 3156260
4295.9409 871.02991 4526.0005 2761246
4230.4102 852.42096 4429.3057 4077106
0 0 0 0
0 0 0 0
0 0 0 0
0 0 0 0
0 0 0 0
-4182.5913 916.08173 4617.8955 7242130
-4513.7246 995.11835 5016.313 8359838
-4678.3184 1038.2435 5233.7036 4215127
-4797.0513 1071.6986 5402.3481 4
-4776.127 1074.1932 5414.9229 460810
-4718.7993 1068.4785 5386.1157 460555
-4703.3252 1072.2277 5405.0146 9
-4685.4062 1075.4669 5421.3433 8
-4798.4795 1109.0258 5590.5112 394507
-4697.7217 1093.2871 5511.1738 1381144
-4521.6841 1059.6857 5341.792 1841949
-4648.5581 1097.1003 5530.396 5920854
-4476.9219 1064.0951 5364.019 7566442
-4449.7798 1065.2073 5369.6255 7632492
-4496.4609 1084.135 5465.0386 7831669
-4676.061 1135.6178 5724.5591 264
-5240.8291 1282.0774 6462.8511 657681
-5354.5068 1319.5299 6651.646 9739443
-5784.0737 1435.9609 7238.5654 9214899
-5810.8574 1453.3893 7326.4204 9149366
-5880.4473 1481.8671 7469.9751 9149877
-5896.1689 1497.0992 7546.7588 9150133
-5603.5522 1433.6757 7227.0454 9149877
-5576.9937 1437.8705 7248.1914 8953012
-5525.5762 1435.6715 7237.1064 8887477
-5468.8589 1432.0504 7218.853 9018548
-5358.9331 1414.3295 7129.5229 9018291
-5295.8218 1408.7802 7101.5493 9084084
-5127.3125 1374.88 6930.6611 9084084
-4984.2603 1347.3134 6791.7002 9215669
-4915.3667 1339.5073 6752.3506 9149877
-4783.6509 1314.3127 6625.3462 9150134
-4661.7134 1291.4099 6509.895 9084854
-4462.0405 1246.4105 6283.0566 9084852
-4467.5972 1258.4644 6343.8193 9150387
-4221.2646 1199.1665 6044.9038 5531769
-4249.4263 1217.4989 6137.3159 18
-4253.4268 1229.1656 6196.1265 19
-4248.1074 1238.3187 6242.2666 18
-4249.7036 1249.6663 6299.4688 19
-4232.1489 1255.5334 6329.0449 18
-4229.9082 1266.0892 6382.2559 7961749
-4327.917 1307.113 6589.0537 9215413
-4693.5088 1430.4347 7210.708 9083572
-4761.9585 1464.6309 7383.0879 9149622
-4698.3325 1458.4619 7351.9912 9018293
-4828.1274 1512.7816 7625.8125 9083829
-4818.7251 1524.1016 7682.8755 9149622
-4835.5762 1544.0203 7783.2837 9149622
-4815.1812 1552.3152 7825.0981 9149622
-4718.4961 1535.9379 7742.5415 9149622
-4664.8169 1533.3755 7729.625 8886193
-4719.2515 1566.6528 7897.373 9083828
-4769.8794 1599.3207 8062.0488 9018548
-4680.7778 1585.3246 7991.4961 8886962
-4671.0166 1598.1887 8056.3428 8820655
-4652.8921 1608.4276 8107.9565 8556968
-4575.9746 1598.3444 8057.127 8293795
-4504.7104 1590.0439 8015.2856 7569044
-4446.0288 1586.0551 7995.1777 7174285
-4414.2974 1591.6979 8023.6235 7897752
-4422.4644 1612.0071 8125.9995 7502739
-4377.5239 1613.1921 8131.9741 7700630
-4329.415 1613.223 8132.1294 8226717
-4290.958 1616.8915 8150.6226 8029080
-4206.6587 1603.1729 8081.4678 7304839
-4213.2881 1624.1906 8187.4165 5133411
-4212.2744 1642.7174 8280.8086 6053739
-4189.0752 1652.9271 8332.2754 5856358
-4133.2437 1650.3507 8319.2871 5396320
-4156.8872 1679.8285 8467.8828 3224893
-4124.1294 1686.9561 8503.8115 5856610
-4052.4683 1678.1497 8459.4199 5198680
-4014.5564 1683.2737 8485.249 6119523
-3899.1846 1655.6373 8345.9365 5330262
-3815.7368 1641.0201 8272.2529 5658713
-3744.7708 1631.4604 8224.0625 6382435
-3750.24 1655.3878 8344.6787 5790300
-3749.3828 1677.1246 8454.2529 5264212
-3631.1643 1646.2429 8298.5801 5592923
-3566.1228 1638.9528 8261.8311 5856607
-3431.2378 1598.9135 8059.9961 5066575
-3378.8098 1596.71 8048.8887 5395283
-3302.4761 1582.9845 7979.6997 4737352
-3255.6997 1583.234 7980.9575 5329232
-3155.3096 1557.0344 7848.8872 5197646
-3094.1086 1549.6786 7811.8071 5328975
-3023.0134 1537.0685 7748.2407 5723990
-2979.396 1538.2561 7754.2271 5329234
-2924.2957 1533.4595 7730.0479 5197648
-2846.218 1516.2695 7643.3945 5592405
-2824.4333 1528.9974 7707.5552 5724246
-2804.7095 1543.2778 7779.5415 5789781
-2756.3489 1542.015 7773.1758 5592145
-2695.0945 1533.3732 7729.6128 5723728
-2650.6689 1534.173 7733.6445 6316122
-2633.2893 1550.9302 7818.1162 5921621
-2595.2686 1555.9128 7843.2334 5658451
-2613.8433 1595.6261 8043.4243 5658707
-2527.4751 1571.5619 7922.1196 5658709
-2483.3491 1573.35 7931.1328 5658452
-2386.5898 1541.2175 7769.1553 5132107
-2310.7864 1521.6195 7670.3638 4342076
-2278.7542 1530.6366 7715.8179 4144696
-2213.4324 1517.2043 7648.1069 5328972
-2189.6777 1532.2982 7724.1943 5527376
-2134.7637 1525.7666 7691.2686 5855831
-2071.1719 1512.6123 7624.959 5461585
-2068.8398 1544.6083 7786.248 6448226
-1964.6013 1500.2443 7562.6123 5724249
-1894.5934 1480.559 7463.3804 5461331
-1800.2438 1440.4557 7261.2231 5658454
-1790.5835 1467.8113 7399.1206 4474181
-1740.3107 1462.4131 7371.9087 6579813
-1730.8033 1491.8749 7520.4233 4276802
-1674.3956 1481.3995 7467.6182 4013886
-1592.3199 1447.0295 7294.3613 4013629
-1539.9854 1438.5228 7251.48 1184017
-1483.5583 1425.5953 7186.313 2039840
-1449.022 1433.5605 7226.4653 1842461
-1413.2627 1440.7644 7262.7793 460550
-1381.2446 1452.3546 7321.2051 131586
-1300.8654 1412.1965 7118.771 0
-1246.5187 1398.5541 7050.0005 3
-1177.0476 1366.408 6887.9546 3
-1126.5135 1354.7253 6829.063 7
-1094.7609 1365.6 6883.8813 11
-1052.6699 1363.9213 6875.4189 197647
-1003.1666 1352.1167 6815.9131 328715
-970.39252 1362.8159 6869.8477 395020
-932.24585 1366.5767 6888.8052 1777188
-865.80798 1327.3107 6690.8682 2303787
-852.75079 1370.0375 6906.2505 1645343
-808.87091 1365.0557 6881.1372 2304042
-746.34814 1326.4126 6686.3413 4211781
-717.29742 1346.2584 6786.3823 4539974
-701.54938 1394.9119 7031.6406 2763563
-669.91095 1416.1196 7138.5474 5000526
-621.83228 1403.0911 7072.8711 5197649
-576.76965 1395.4763 7034.4858 2763308
-547.83832 1428.7449 7202.1899 1776924
-490.93246 1388.5144 6999.3916 3290164
-456.0542 1408.9092 7102.1997 3948093
-405.69882 1380.7755 6960.3799 3421749
-361.17953 1368.3844 6897.9175 4013886
-321.52472 1373.6122 6924.2705 4342851
-285.85547 1399.8878 7056.7241 4869194
-239.52393 1374.0059 6926.2549 4408643
-198.97536 1377.4528 6943.6299 5198160
-156.71022 1367.7152 6894.5439 4474436
-116.27708 1372.7374 6919.8604 5132367
-75.78231 1382.1078 6967.0957 4737609
-34.722385 1391.2662 7013.2632 5592917
6.921082 1407.8184 7096.7007 5198160
49.002769 1408.5405 7100.3413 5264208
89.238449 1380.0475 6956.71 5329745
127.39879 1347.6093 6793.1919 5198160
168.67334 1355.781 6834.3848 5132367
208.22108 1349.5958 6803.2056 5329746
247.32651 1343.0154 6770.0342 4606279
289.37683 1352.0312 6815.4824 5724245
329.97507 1352.8849 6819.7861 4276539
363.27469 1326.8936 6688.7656 4802627
399.53387 1315.7627 6632.6558 5000264
451.83371 1354.7202 6829.0376 5329484
497.66968 1369.4854 6903.4673 5000520
527.87262 1342.2562 6766.2075 5263692
567.60315 1341.3879 6761.8301 5198156
591.10883 1304.8192 6577.4902 5132365
631.22809 1307.1791 6589.3867 3356211
676.55078 1319.412 6651.0513 2369061
720.15118 1327.124 6689.9268 3092529
749.43317 1309.0215 6598.6738 3289907
773.15845 1283.4899 6469.9712 1645082
789.8266 1249.2094 6297.1655 5066059
843.50189 1273.9127 6421.6934 5526611
877.61975 1268.2213 6393.0034 2763303
914.07544 1266.2396 6383.0137 2631461
955.28687 1270.7415 6405.7075 3881527
980.92773 1254.9786 6326.248 4342077
1022.0844 1259.4961 6349.02 5065800
1066.1367 1267.1345 6387.5249 2631457
1100.2789 1262.8743 6366.0493 3421229
1111.6815 1233.662 6218.7925 5921877
1158.7217 1244.6031 6273.9458 4342590
1174.7621 1222.6018 6163.0391 6184538
1234.4458 1245.9785 6280.8789 4605761
1250.4219 1225.1619 6175.9443 5526865
1251.9237 1191.7507 6007.521 5592403
1285.8163 1190.1687 5999.5464 4539715
1320.7351 1189.5959 5996.6592 5526611
1355.3907 1188.8226 5992.7607 5592404
1404.7607 1200.665 6052.4575 5395024
1465.1904 1221.1354 6155.647 5197645
1476.5896 1200.7404 6052.8369 5066059
1498.0183 1189.275 5995.0415 2368288
1512.8669 1173.2383 5914.2012 3881526
1553.4755 1177.452 5935.4429 4342333
1569.6243 1163.3508 5864.3594 4868934
1558.8326 1130.3257 5697.8823 3749939
1645.4783 1167.8556 5887.0679 5065799
1674.5306 1163.7998 5866.6226 4868421
1689.7295 1150.4767 5799.4619 3420718
1689.8706 1127.6368 5684.3281 4802370
1689.4973 1105.3531 5571.9976 3749168
1751.583 1124.0044 5666.0171 3486251
1802.2343 1134.7542 5720.2061 3288104
1852.2959 1144.7428 5770.5581 2762016
1855.9592 1126.2144 5677.1577 2038552
1885.5281 1123.7856 5664.9141 4998722
1899.8594 1112.5188 5608.1196 2959396
1946.7445 1120.3748 5647.7207 2564381
1933.6982 1094.0568 5515.0537 2565151
1977.0485 1099.9917 5544.9707 4473406
2010.6788 1100.4128 5547.0938 5000007
2028.7604 1092.4478 5506.9429 4079162
0 0 0 0
0 0 0 0
0 0 0 0
0 0 0 0
0 0 0 0
0 0 0 0
0 0 0 0
0 0 0 0
0 0 0 0
0 0 0 0
0 0 0 0
0 0 0 0
0 0 0 0
0 0 0 0
0 0 0 0
0 0 0 0
2360.283 998.03571 5031.019 4143411
2462.7808 1028.3861 5184.0127 2695705
2472.3835 1019.6761 5140.1064 3287842
2463.4312 1003.6187 5059.1621 2564118
2527.6143 1017.3849 5128.5571 2893083
2588.6152 1029.5586 5189.9233 3682342
2594.8381 1019.9155 5141.313 3287841
2636.5906 1024.2992 5163.4111 3353634
2596.8564 997.28851 5027.2524 4603701
2676.7441 1016.3086 5123.1313 4274738
2715.271 1019.3744 5138.5859 4143151
2751.6792 1021.5856 5149.7319 4603702
2755.5413 1011.7977 5100.3921 5064252
2806.1267 1019.1924 5137.668 4866874
2772.1418 996.04169 5020.9673 2893085
2817.1174 1001.4523 5048.2422 3682601
2895.8354 1018.6183 5134.7739 4537910
2847.0061 991.02863 4995.6968 3353638
2915.9592 1004.5842 5064.0298 3945774
2992.4817 1020.445 5143.9824 2300691
2967.6299 1001.7655 5049.8208 3287329
2952.4612 986.69507 4973.8516 2629398
3047.3499 1008.3394 5082.959 3484707
2984.7827 977.96936 4929.8662 2695191
3032.1997 983.87531 4959.6377 2300690
3035.4915 975.48785 4917.3569 2958878
3073.1392 978.1955 4931.0059 2695706
3107.7388 979.89093 4939.5527 3616807
3160.4722 987.21924 4976.4941 3090723
3171.0381 981.36218 4946.9692 3617581
3186.3159 977.05719 4925.2681 2564636
3206.7014 974.38245 4911.7847 3617325
3241.3301 976.0448 4920.1646 4012084
3317.7664 990.15448 4991.2905 3354154
3425.1382 1013.1657 5107.2881 4078134
3497.5603 1025.5261 5169.5962 3880755
3409.3752 990.98889 4995.4966 4735807
3393.1501 977.78241 4928.9238 4275257
3405.584 972.9895 4904.7632 3288616
3411.8762 966.53778 4872.2407 3946290
3418.343 960.24341 4840.5112 3617325
3476.7566 968.52484 4882.2568 3683117
3506.3518 968.70758 4883.1782 4209461
3498.7717 958.70111 4832.7363 5130562
3648.0955 991.50122 4998.0791 4341049
3634.8896 979.95557 4939.8784 3419948
3655.7327 977.70056 4928.5112 2301467
3637.083 965.00299 4864.5039 3025189
3687.2874 970.63 4892.8691 2301467
3704.6375 967.5882 4877.5356 2498843
3739.6155 969.16205 4885.4692 5064770
3765.2263 968.30267 4881.1372 5591114
3810.6655 972.51685 4902.3804 3946289
3825.1104 968.81708 4883.73 4077875
3837.4609 964.64642 4862.7061 3485740
3815.1038 951.87817 4798.3428 4340791
3746.719 927.8999 4677.4697 4933184
3744.5215 920.5451 4640.395 3222052
3810.6069 929.96167 4687.8633 3024416
3840.1743 930.39447 4690.0449 1511434
3849.05 925.84387 4667.1055 3419431
3869.7603 924.18445 4658.7407 2564122
3979.7678 943.72382 4757.2368 4209204
3967.1758 934.12054 4708.8276 3617324
4021.8928 940.38959 4740.4292 3419944
3980.3237 924.21436 4658.8916 4406839
3865.5918 891.39087 4493.4312 4077875
4012.3743 918.90833 4632.144 4472632
4069.8267 925.73248 4666.5439 3682860
4052.2588 915.51538 4615.0405 3551272
4051.6594 909.24323 4583.4233 4735290
4110.1821 916.23407 4618.6636 5130047
4140.8154 916.95642 4622.3047 4011566
4176.207 918.71613 4631.1753 4143151
4230.9336 924.67847 4661.231 4669495
4206.7075 913.42023 4604.479 4208691
4255.4702 918.05322 4627.8335 5195841
4262.7202 913.72845 4606.0327 3682346
4243.2827 903.77472 4555.8569 2498330
4153.2886 879.01392 4431.0396 2827294
4180.2427 879.16003 4431.7764 3945775
4167.5781 871.02411 4390.7637 3616553
4156.8384 863.38892 4352.2749 3222053
0 0 0 0
0 0 0 0
0 0 0 0
0 0 0 0
0 0 0 0
0 0 0 0
-4088.3145 928.25629 4543.5352 9150638
0 0 0 0
-4884.5312 1123.8416 5500.8662 1449250
-4868.7227 1127.7308 5519.9028 2370602
-4905.5747 1143.9528 5599.3042 8159869
0 0 0 0
0 0 0 0
-4657.9121 1108.6979 5426.7422 7
-4846.8496 1161.6904 5686.1245 6
-4852.2783 1171.1337 5732.3467 591886
-5017.3745 1219.5189 5969.1777 3749689
-4673.7515 1144.0642 5599.8501 6053207
-4434.3545 1093.226 5351.0117 9869716
-4408.7173 1094.7341 5358.394 9938593
-4625.8501 1156.9843 5663.0894 258
-5248.7275 1322.3677 6472.5913 11
-5118.9297 1299.1606 6359 9278118
-5663.6855 1448.0776 7087.9038 9018033
-5704.5132 1469.4142 7192.3398 9017779
-5771.3022 1497.8097 7331.3276 9149108
-5662.2358 1480.6505 7247.3379 9149364
-5646.3896 1487.792 7282.2939 9018292
-5607.0562 1488.8071 7287.2622 9084085
-5516.7559 1476.2 7225.5542 9084084
-5489.6821 1480.4464 7246.3394 8952755
-5450.0503 1481.3466 7250.7451 9018548
-5369.2012 1470.9689 7199.9492 9084082
-5321.6304 1469.615 7193.3228 9018547
-5143.4932 1431.8911 7008.6753 9084339
-5036.3433 1413.476 6918.5391 9149876
-4891.4448 1384.0771 6774.6411 9084339
-4741.2021 1352.6671 6620.8979 9084339
-4652.5195 1338.4425 6551.2729 9019316
-4505.9912 1307.1973 6398.3369 8821935
-4428.4795 1295.6135 6341.6382 8427174
-4247.0918 1253.181 6133.9438 267
-4239.5547 1261.7566 6175.9185 18
-4248.4321 1275.4092 6242.7437 16
-4263.918 1291.3029 6320.5386 16
-4217.8296 1288.6658 6307.6309 18
-4219.2324 1300.621 6366.1479 7039871
-4324.2827 1345.0306 6583.52 8159631
-4599.0405 1443.5157 7065.5747 6909818
-4736.7446 1500.3978 7343.9956 7501698
-4675.8628 1494.8481 7316.8311 7173247
-4804.5723 1550.3728 7588.6079 7239039
-4855.9106 1581.7446 7742.1631 6844023
-4773.2178 1569.6394 7682.9121 6580337
-4728.7314 1569.9861 7684.6094 2698289
-4768.0928 1598.4486 7823.9248 4474442
-4754.0942 1609.406 7877.5576 6448232
-4720.9531 1614.0363 7900.2212 5593180
-4641.5361 1602.7795 7845.123 5264215
-4541.6738 1584.1637 7754.0034 6053473
-4484.3662 1580.1621 7734.418 6119267
-4469.8076 1591.2971 7788.9199 6185057
-4321.5151 1554.557 7609.0884 6119264
-4225.0859 1535.8955 7517.7456 6579300
-4283.873 1573.8613 7703.5771 5658195
-4229.2739 1570.5393 7687.3164 4473923
-4246.0723 1593.9469 7801.8896 4737351
-4229.6689 1605.2692 7857.3086 6447715
-4303.7666 1651.5732 8083.9531 5855578
-4338.9609 1683.8225 8241.8037 4211008
-4168.1943 1635.9686 8007.5737 4671044
-4093.8225 1625.2823 7955.2671 4934215
-4062.0383 1631.4515 7985.4639 4342076
-4044.0435 1643.3696 8043.7998 6119001
-3888.2659 1598.9139 7826.2021 5856085
-3936.3357 1638.2218 8018.6025 6053465
-3931.1455 1656.0538 8105.8848 5724502
-3833.9258 1635.0789 8003.2183 5066569
-3755.3733 1621.639 7937.4341 6119000
-3696.876 1616.6282 7912.9082 6119000
-3617.3157 1602.1597 7842.0894 5724242
-3630.4067 1628.8853 7972.9023 5658448
-3560.999 1618.8121 7923.5977 5461071
-3555.1443 1637.7466 8016.2764 5724499
-3480.5242 1625.0869 7954.311 5921623
-3443.7346 1629.9855 7978.2876 5921621
-3348.843 1607.1368 7866.4502 5198155
-3312.7532 1612.2607 7891.5308 5526606
-3239.7986 1599.3331 7828.2539 5066055
-3180.7241 1592.9814 7797.1641 3815988
-3127.4558 1589.3932 7779.6006 4671039
-3075.8235 1586.5414 7765.6416 4407609
-2974.6475 1557.6595 7624.2744 3683372
-2916.4993 1550.7659 7590.5317 3289128
-2829.3301 1527.9832 7479.0171 4802109
-2807.1707 1540.1427 7538.5347 5000259
-2776.4382 1547.9158 7576.5815 5329483
-2754.0713 1560.6853 7639.084 5987413
-2698.8901 1554.9753 7611.1362 4408382
-2624.9812 1538.0979 7528.5259 4277052
-2516.0906 1499.785 7340.9961 6579293
-2501.5967 1517.3818 7427.127 4934211
-2496.2317 1541.2452 7543.9307 3355178
-2449.3899 1539.9031 7537.3618 5131332
-2417.1077 1547.8346 7576.1841 5460811
-2405.0027 1569.2317 7680.916 2039577
-2287.2024 1521.1591 7445.6152 4342590
-2258.8389 1531.8472 7497.9307 3289389
-2216.344 1533.189 7504.498 2565408
-2159.8374 1524.6942 7462.9189 3420460
-2065.7881 1488.7878 7287.168 3288362
-2054.7603 1512.4583 7403.0273 2434081
-1994.0376 1499.7842 7340.9917 1513238
-1961.6111 1508.3019 7382.6831 1250066
-1920.5624 1510.4275 7393.0874 2171681
-1853.3695 1491.6111 7300.9868 4671303
-1781.9331 1468.3983 7187.3672 3947579
-1751.9297 1479.0276 7239.394 2631719
-1699.2064 1470.5282 7197.7925 2369064
-1663.4053 1476.6129 7227.5757 328965
-1608.6958 1465.7906 7174.6035 1052946
-1571.038 1470.3396 7196.8696 1184531
-1523.989 1466.1079 7176.1567 131843
-1469.778 1454.5454 7119.5615 3224369
-1379.4922 1405.5435 6879.7119 5197902
-1332.7865 1399.3121 6849.2114 4276797
-1310.2672 1418.8806 6944.9932 5526865
-1285.4438 1437.1425 7034.3794 4934727
-1220.4404 1410.2009 6902.5088 3619126
-1165.5138 1393.4381 6820.46 3553334
-1098.4792 1360.4752 6659.1162 3224369
-1083.1923 1391.5334 6811.1372 3026990
-1019.1186 1359.8961 6656.2817 4540228
-984.52234 1366.6289 6689.2368 2829609
-962.91919 1392.7191 6816.9404 4605762
-904.78906 1365.9501 6685.9141 3552818
-868.98407 1371.9767 6715.4126 3421488
-826.5224 1367.5677 6693.832 3552817
-790.52075 1373.9417 6725.0308 3947831
-750.68286 1373.9712 6725.1753 4671553
-703.92188 1360.6223 6659.8359 5066056
-686.27924 1405.3137 6878.5874 5790036
-653.53125 1422.7649 6964.0054 5132106
-619.02936 1438.4929 7040.9897 4539972
-577.45557 1438.8734 7042.8516 4013886
-537.75934 1444.3556 7069.6855 3947838
-481.62357 1402.8793 6866.6714 2237474
-432.40234 1375.7467 6733.8657 3619129
-386.26904 1353.9204 6627.0327 5658711
-344.24393 1343.183 6574.4761 4869195
-310.04736 1364.1488 6677.0977 4539971
-267.23386 1347.7898 6597.0249 4144956
-227.50903 1344.071 6578.8232 5000520
-189.91891 1354.0339 6627.5879 5197899
-157.50902 1415.7537 6929.6875 5263692
-113.10577 1375.1877 6731.1294 4671301
-73.245583 1375.7498 6733.8804 4078907
-32.851105 1355.6095 6635.3003 4539716
6.5911317 1380.7548 6758.3784 4210749
45.973743 1360.9512 6661.4458 4144699
85.004974 1353.8491 6626.6831 4276026
123.26063 1342.7866 6572.5356 4604734
156.21509 1293.1532 6329.5952 3947061
202.10426 1349.0822 6603.3506 4539455
242.61143 1356.7678 6640.9697 5592145
275.41174 1325.2241 6486.5728 4934471
315.80823 1333.4818 6526.9917 3684659
341.71884 1285.4458 6291.8701 4934470
386.3093 1310.2166 6413.1152 5000261
433.75717 1339.3732 6555.8281 4803396
477.90494 1354.3835 6629.2993 5132362
504.22296 1320.4222 6463.0693 4868933
537.80304 1308.9309 6406.8223 5395278
574.06085 1305.0426 6387.7905 4934727
612.42157 1306.1205 6393.0659 4868936
656.52332 1318.603 6454.1646 4408641
672.91949 1277.1292 6251.1626 4079679
717.49115 1290.6672 6317.4277 5790297
740.63019 1266.2203 6197.7671 5066574
778.76221 1268.5052 6208.9507 5724504
811.48315 1262.1676 6177.9302 6513505
866.44653 1289.4791 6311.6123 6579553
870.98743 1242.5951 6082.1289 5526864
904.33063 1238.8951 6064.0186 4407868
932.84595 1229.1167 6016.1562 4079161
992.40503 1259.4559 6164.6572 5197128
1019.2907 1247.6471 6106.8569 3223338
1048.0439 1238.8557 6063.8257 2631201
1094.7263 1251.1381 6123.9438 3091240
1117.078 1235.7175 6048.4648 1709843
1150.5605 1233.186 6036.0737 2564893
1174.0687 1220.4387 5973.6797 4538682
1195.9818 1206.8281 5907.0601 4999235
1224.218 1200.1908 5874.5723 3354666
1238.2607 1180.3903 5777.6548 4144183
1256.6895 1165.7238 5705.8667 5460301
1321.39 1193.6238 5842.4287 5328973
1317.8425 1160.0239 5677.9678 4934727
1393.1096 1195.7461 5852.8169 5197386
1418.8126 1188.2239 5815.998 5395022
1462.9421 1196.1241 5854.6675 3684916
1470.4603 1174.4181 5748.4224 4145211
1484.3967 1158.7047 5671.5103 3618867
1531.2313 1168.7987 5720.9175 3355182
1583.4525 1182.478 5787.8735 4013111
1573.0531 1149.8053 5627.9507 3946804
1617.2451 1157.5638 5665.9263 2894115
1623.2716 1138.245 5571.3662 3814703
1653.3872 1136.251 5561.606 3419687
1670.9351 1125.8669 5510.7793 4209717
1707.1339 1128.2069 5522.2329 2564891
1764.1193 1143.9377 5599.231 4341815
1803.3248 1147.7716 5617.9961 3156517
1802.7772 1126.6229 5514.48 4341046
1834.6794 1126.1456 5512.1436 3683119
1860.9941 1122.3152 5493.395 3420460
1836.8375 1088.7019 5328.8682 2893602
1901.2666 1107.8427 5422.5562 3815218
1906.4139 1092.3785 5346.8638 3749425
1920.849 1082.655 5299.27 3421231
1955.4012 1084.4006 5307.8145 3157803
0 0 0 0
0 0 0 0
0 0 0 0
1547.2062 806.15668 3945.8943 65545
1549.576 795.37042 3893.0986 11
1552.781 785.323 3843.9194 11
1558.5333 776.83569 3802.377 11
1574.5815 773.64917 3786.7795 11
1587.3193 768.94855 3763.7715 65547
1601.2588 764.95215 3744.2104 65547
1609.6036 758.42889 3712.281 14
1627.0988 756.33502 3702.032 131344
1625.7549 745.65625 3649.7627 591894
1647.2811 745.60962 3649.5344 131590
0 0 0 0
0 0 0 0
2156.5891 939.14648 4596.8389 4275511
2343.6965 1007.896 4933.3472 4604218
2367.8269 1005.7274 4922.7324 3682857
2375.6367 996.76367 4878.8579 4472116
2445.7532 1013.8438 4962.46 2234897
2524.5449 1034.0715 5061.4688 1971467
2536.4536 1026.75 5025.6323 2629396
2592.866 1037.4044 5077.7822 2103566
2564.0186 1014.0934 4963.6816 4208685
2592.2515 1013.6308 4961.4175 4011565
2602.9475 1006.3983 4926.0161 3682601
2678.8547 1024.2595 5013.4419 4011566
2693.8584 1018.698 4986.2197 3814187
2708.4031 1013.0854 4958.748 5261633
2720.8879 1006.8311 4928.1353 4274738
2775.1465 1016.0034 4973.0303 4866875
2839.218 1028.5377 5034.3823 3024925
2847.0405 1020.6464 4995.7568 2234641
2847.9097 1010.4504 4945.8506 2958107
2864.3943 1005.9464 4923.8042 1642246
2913.4817 1012.8672 4957.6802 2365969
2948.9106 1014.9491 4967.8701 2168846
2920.8474 995.35327 4871.9541 2826777
2951.074 995.81024 4874.1909 3418914
2954.0701 987.15881 4831.8447 2564118
2974.8157 984.54785 4819.0649 3287585
3036.5967 995.43854 4872.3716 3550757
3033.6194 985.09534 4821.7451 3090463
3084.0496 992.12616 4856.1587 2893084
3084.8767 983.21747 4812.5532 3090465
3154.8318 996.30255 4876.6011 3287844
3162.2151 989.56934 4843.644 2959135
3177.1797 985.30823 4822.7871 3485222
3232.7578 993.60602 4863.4023 3682858
3228.3518 983.48358 4813.856 3222567
3246.3762 980.31189 4798.3315 2630431
3371.7678 1009.3355 4940.3931 2498845
3347.749 993.51843 4862.9736 2827810
3322.1948 977.51978 4784.665 788483
3357.4121 979.52185 4794.4644 1840913
3384.5315 979.14764 4792.6328 3288359
3412.3865 978.9906 4791.8643 4143668
3418.6379 972.68945 4761.022 4209461
3383.5859 954.83582 4673.6338 4275254
3487.9238 976.28796 4778.6357 3880750
3545.8093 984.49719 4818.8169 4275252
3553.2034 978.66809 4790.2856 4735805
3545.311 968.75446 4741.7612 4670012
3526.1313 955.93665 4679.022 4143668
3556.4939 956.6452 4682.4897 4406584
3627.1477 968.0965 4738.5405 3551533
3686.7043 976.43268 4779.3438 1511950
3689.8608 969.81793 4746.9668 2827810
3778.9854 985.7276 4824.8398 3353383
3759.8335 973.36713 4764.3389 3484713
3697.5681 950.11261 4650.5151 3484970
3707.9475 945.73065 4629.0669 1578773
3683.0205 932.47412 4564.1797 1972756
3695.6914 928.8606 4546.4927 6512217
3765.8523 939.64398 4599.2744 3485738
3796.7456 940.54504 4603.6846 3616810
3823.0276 940.29889 4602.48 2761501
3835.8416 936.76733 4585.1938 3090466
3797.8687 920.96967 4507.8691 3156259
3869.7725 931.85138 4561.1318 2235157
3842.4221 918.84723 4497.4805 1971986
3898.7456 925.89349 4531.9697 3156260
3877.6887 914.59241 4476.6543 3683117
3972.7314 930.64215 4555.2129 4209204
3982.2212 926.56909 4535.2764 2696222
4020.4727 929.19781 4548.1436 1117707
4037.1731 926.84412 4536.6226 3748397
4071.0193 928.43158 4544.3931 3418920
4134.7129 936.7605 4585.1606 3287590
4145.0293 932.96661 4566.5903 3551017
4038.5183 903.09668 4420.3862 4602681
4090.2778 908.77637 4448.1865 2761501
4095.2996 904.06561 4425.1289 3945775
4069.2346 892.59589 4368.9878 2629916
4026.8767 877.71979 4296.1738 3156259
3975.5227 861.08221 4214.7378 3748396
3951.6216 850.5614 4163.2417 3156004
4078.0818 872.33472 4269.8154 4011570
0 0 0 0
0 0 0 0
0 0 0 0
0 0 0 0
0 0 0 0
0 0 0 0
-4196.8232 980.534 4664.126 9414322
0 0 0 0
-4909.7925 1162.4218 5529.3149 1512729
-4751.374 1132.4734 5386.8589 6448999
-4689.0034 1125.1672 5352.106 7633529
0 0 0 0
-4332.0259 1053.7633 5012.4575 10000534
0 0 0 0
0 0 0 0
-4777.2661 1186.475 5643.7295 10
-4378.9614 1095.2203 5209.6567 328976
-4589.1567 1155.942 5498.4932 4539983
-4435.4668 1125.2194 5352.354 9342860
-4371.8013 1117.0565 5313.5259 11184295
-4501.5693 1158.5591 5510.9414 4
-5062.3374 1312.4043 6242.7402 11
-5221.5835 1363.6543 6486.522 7369606
-5679.0737 1494.1306 7107.1616 8752801
-5958.4458 1579.3448 7512.5024 8029078
-6029.501 1610.2101 7659.3188 8094871
-6081.2598 1636.351 7783.6646 8818593
-5909.0645 1602.1696 7621.0723 8489886
-5843.2734 1596.5337 7594.2646 8160919
-5807.8755 1599.179 7606.8477 8029076
-5722.0332 1587.8676 7553.0415 7831440
-5646.7568 1579.3325 7512.4434 8357525
-5501.9995 1551.0746 7378.0283 6186098
-5349.2051 1520.08 7230.5957 5330788
-5206.0186 1491.3373 7093.8745 7567749
-5068.3481 1463.7195 6962.5044 7106683
-4922.5718 1433.2883 6817.7515 7041144
-4792.4199 1406.9403 6692.4219 7698815
-4649.0938 1376.2527 6546.4492 5922401
-4443.1934 1326.369 6309.1665 5856866
-4231.4819 1273.8893 6059.5352 5856867
-4193.4536 1273.2462 6056.4761 9
-4228.7012 1295.0325 6160.1074 13
-4247.5361 1312.1282 6241.4268 15
-4250.6763 1324.6334 6300.9106 14
-4231.3364 1330.2926 6327.8301 11
-4183.2607 1326.938 6311.873 3881025
-4340.2998 1389.1726 6607.9058 5591637
-4566.3281 1474.8224 7015.3179 4737096
-4730.8008 1541.9825 7334.7798 5527122
-5004.3247 1646.2626 7830.811 6251101
-4984.0811 1654.9501 7872.1348 6053722
-4953.582 1660.3643 7897.8882 5198413
-4857.9736 1643.8499 7819.3345 5724499
-4774.1602 1631.0472 7758.4355 5461070
-4792.9375 1653.3854 7864.6919 4803140
-4728.7217 1647.2515 7835.5151 4408382
-4668.5361 1642.4141 7812.5044 5855572
-4613.4438 1639.2894 7797.6416 5855571
-4543.2964 1630.698 7756.7739 6447452
-4501.7104 1632.2867 7764.332 5658448
-4411.4761 1616.087 7687.2739 5986385
-4329.9541 1602.7738 7623.9473 5065282
-4230.1401 1582.3378 7526.7388 3947056
-4218.1958 1594.6851 7585.4712 5197378
-4179.5015 1597.0769 7596.8481 5065537
-4163.8794 1608.433 7650.8657 5723724
-4194.6421 1638.1538 7792.2402 5855824
-4185.5068 1652.7817 7861.8208 5658188
-4203.0273 1678.3831 7983.5991 5066051
-4103.9951 1657.4946 7884.2388 5328964
-4026.1455 1644.7792 7823.7544 5658186
-3932.4846 1625.2327 7730.7773 5592392
-3861.8164 1614.8397 7681.3413 5723465
-3808.6909 1611.6222 7666.0361 4276019
-3943.0801 1688.6302 8032.3418 4012589
-3888.2222 1685.4845 8017.3789 4275764
-3750.863 1646.0558 7829.8267 6052175
-3646.272 1620.1993 7706.8354 5263430
-3648.5828 1641.7909 7809.54 6052945
-3581.2002 1632.1737 7763.7939 5526344
-3538.0825 1633.509 7770.1455 5526087
-3440.9221 1609.5994 7656.4136 5525574
-3405.6299 1614.3781 7679.1455 5328451
-3362.0288 1615.2944 7683.5044 5262657
-3294.0693 1604.3722 7631.5503 4868159
-3271.7563 1615.6874 7685.3735 3223077
-3194.7134 1599.9133 7610.3403 3947572
-3102.874 1576.1713 7497.4058 5460811
-3098.7166 1596.9263 7596.1323 6184534
-2971.1638 1553.7642 7390.8218 2631716
-2980.9805 1582.222 7526.1885 1578770
-2945.011 1586.8734 7548.3135 1512721
-2889.5586 1581.0085 7520.415 3617838
-2802.3413 1557.3074 7407.6758 3420458
-2744.9353 1549.6821 7371.4043 4670268
-2781.7898 1595.8865 7591.186 3025700
-2638.7563 1538.7135 7319.23 3157286
-2586.8308 1533.6444 7295.1177 4538942
-2546.3062 1535.277 7302.8833 1973273
-2465.5103 1512.265 7193.4219 855049
-2437.1711 1521.1847 7235.8501 1249804
-2411.2544 1531.9629 7287.1191 2828581
-2362.5984 1528.4236 7270.2837 2631712
-2314.7571 1525.2896 7255.376 5197637
-2265.1963 1520.8826 7234.4131 5658187
-2247.3335 1537.9984 7315.8286 4210745
-2212.1479 1543.6995 7342.9468 2039322
-2126.8508 1513.9583 7201.4761 1447187
-2092.2593 1519.8319 7229.4155 0
-1994.7861 1479.3186 7036.7051 0
-1887.1781 1429.3989 6799.251 592135
-1796.3628 1390.2977 6613.2578 2434336
-1836.915 1453.3921 6913.3799 4539968
-1816.2336 1469.811 6991.48 5000773
-1767.5396 1463.7979 6962.877 5263945
-1736.5658 1472.5229 7004.3799 3290414
-1711.9738 1487.2194 7074.2866 2895401
-1693.0068 1507.663 7171.5312 5461330
-1647.0115 1504.4702 7156.3438 4277055
-1574.7032 1476.4376 7023.001 2894889
-1543.0363 1486.0226 7068.5942 4013370
-1470.2137 1455.4017 6922.9395 4013371
-1394.6097 1420.1904 6755.4487 4210750
-1343.7389 1408.829 6701.4053 3552820
-1324.0581 1430.472 6804.3555 1710871
-1261.6136 1405.8231 6687.1079 4671300
-1232.668 1418.114 6745.5718 4474177
-1221.0768 1451.8633 6906.1074 3882298
-1137.6021 1399.5195 6657.123 4342849
-1085.3375 1383.1902 6579.4492 4540228
-1032.8199 1365.3093 6494.395 3092780
-1001.1547 1374.6766 6538.9526 3487281
-987.31757 1410.2634 6708.2285 3750452
-967.4035 1439.7917 6848.687 3882038
-884.01599 1373.3018 6532.4126 3553075
-854.7594 1388.6639 6605.4858 2829351
-819.90485 1395.9697 6640.2378 5000520
-777.12659 1389.8411 6611.0854 4737090
-759.64612 1430.7073 6805.4746 4276540
-697.23645 1386.7926 6596.5845 4079162
-656.88501 1384.1404 6583.9688 5000264
-631.71954 1415.1726 6731.5806 5000266
-588.97748 1408.3595 6699.1724 3882557
-546.64874 1401.6213 6667.1206 4211264
-493.19357 1363.082 6483.7998 5987677
-458.26498 1373.5598 6533.6401 6185054
-415.71494 1361.0197 6473.9902 6381918
-368.2587 1328.2339 6318.0376 6513504
-334.16937 1341.6952 6382.0688 5658451
-292.8999 1326.0847 6307.8145 5592657
-253.7877 1317.1024 6265.0884 5132106
-222.34203 1351.6477 6429.4102 5197643
-183.59598 1346.9232 6406.937 5263692
-143.27975 1325.2122 6303.6641 4737348
-108.97153 1363.354 6485.0938 4803141
-68.747658 1328.7224 6320.3608 4605761
-32.248066 1369.3253 6513.4976 5000520
6.1356101 1322.6124 6291.2979 5855573
44.598789 1358.545 6462.2188 5592656
82.764465 1356.4012 6452.0215 3882039
118.97915 1333.7418 6344.2373 5987415
152.87253 1302.1914 6194.1602 3882296
189.9474 1304.7119 6206.1499 3421490
229.3201 1319.6377 6277.1475 3026219
261.6011 1295.2833 6161.3008 4539714
305.28726 1326.4493 6309.5488 1841942
340.48453 1317.955 6269.1431 2236699
376.0769 1312.5109 6243.2471 2302488
418.12665 1328.5598 6319.5879 3815470
449.33862 1310.3649 6233.0396 4342073
497.22461 1339.8655 6373.3652 5724497
535.42316 1340.9388 6378.4712 6579808
547.0235 1279.6498 6086.936 6513759
576.43982 1265.0422 6017.4521 6250845
619.18188 1279.6774 6087.0679 6316895
648.38275 1266.256 6023.2256 4277314
683.77356 1265.6931 6020.5483 5263696
716.30621 1260.1577 5994.2183 5592662
758.18341 1270.8082 6044.8794 5987420
788.70862 1262.3287 6004.5449 4802889
828.56409 1268.8696 6035.6582 5592403
851.5827 1250.1522 5946.625 5000267
886.47845 1249.6656 5944.3101 4802885
905.65796 1227.9078 5840.8145 4605506
957.61725 1250.5593 5948.561 4013111
987.05988 1243.2417 5913.7529 5723729
1014.4351 1233.911 5869.3696 6118487
1035.0193 1217.2126 5789.9399 5328715
1074.0985 1222.6387 5815.7505 4934214
1092.0103 1204.3816 5728.9067 5196615
1115.5417 1193.2367 5675.8936 4012596
1148.8363 1192.8816 5674.2041 3551792
1175.8293 1186.1896 5642.3726 2696738
1196.1169 1173.2903 5581.0142 1973016
1229.5696 1173.6515 5582.7319 3947062
1273.1876 1183.4426 5629.3057 3289389
1303.5909 1180.764 5616.5645 5263179
1336.731 1180.636 5615.9556 4342076
1381.307 1190.3694 5662.2544 4342076
1419.0546 1193.8961 5679.0303 4078904
1431.9244 1176.8138 5597.7749 4276541
1457.1509 1170.4305 5567.4106 5460558
1486.1058 1167.2583 5552.3218 3355182
1521.8795 1169.4634 5562.8101 2433821
1541.9119 1159.7351 5516.5356 4604732
1546.9099 1139.3376 5419.5107 3946802
1592.7643 1149.2498 5466.6597 3683370
1578.6163 1116.3352 5310.0947 4538680
1591.4268 1103.3987 5248.5591 4407095
1617.1538 1099.7419 5231.165 5789005
1683.2075 1123.1311 5342.4209 4538681
1716.0623 1123.9135 5346.1421 3485736
1771.016 1138.8785 5417.3267 5064769
1762.5682 1113.2651 5295.4912 2827808
1802.6304 1118.6516 5321.1133 3222566
1806.4324 1101.738 5240.6597 5327943
1837.2598 1101.6002 5240.0039 3354667
1902.6881 1121.8684 5336.4146 3617583
1900.8564 1102.4642 5244.1143 4077879
0 0 0 0
0 0 0 0
0 0 0 0
1526.5348 831.01776 3952.9192 65545
1541.9426 826.71887 3932.4705 65547
1536.1725 811.36237 3859.4241 65548
1543.9547 803.5094 3822.0698 65547
1555.1031 797.61017 3794.0083 65547
1566.6572 792.08405 3767.7224 65547
1578.4896 786.85205 3742.835 11
1588.3705 780.80554 3714.0737 12
1590.3528 771.09479 3667.8823 16
1607.8604 769.0719 3658.26 461339
1620.3431 764.73145 3637.6135 330011
1641.2494 764.42816 3636.1711 4212040
1663.5521 764.77484 3637.8201 5789781
1711.1367 776.58661 3694.0054 5592139
0 0 0 0
2207.8975 977.03821 4647.4976 4012335
2315.6978 1012.1165 4814.355 3091233
2372.6008 1024.3661 4872.6235 4932929
2424.7097 1034.2761 4919.7627 459777
2488.6667 1048.9446 4989.5361 197120
2531.3513 1054.4078 5015.5229 328449
2524.9084 1039.5181 4944.6968 1051655
2561.9941 1042.6853 4959.7622 1577482
2568.3779 1033.4274 4915.7251 2300692
2587.6572 1029.5076 4897.0796 3682088
2583.804 1016.5734 4835.5557 3024413
2525.7913 982.84827 4675.1348 2827034
2634.8606 1014.1653 4824.1011 4142896
2678.9202 1020.0562 4852.1221 4866875
2663.6587 1003.4741 4773.2456 2958879
2655.2776 989.8053 4708.2271 4143154
2747.4902 1013.5291 4821.0742 2695963
2744.0205 1001.8312 4765.4307 2629657
2777.9014 1003.8693 4775.1255 2892572
2820.6035 1009.0221 4799.6357 2629399
2849.8279 1009.2985 4800.9507 2892572
2853.033 1000.4456 4758.8398 3287586
2881.397 1000.5018 4759.1074 2300949
2866.6633 985.73743 4688.8774 3682345
2875.8286 979.39545 4658.7104 4275251
2993.3457 1009.7237 4802.9731 2828062
3011.8472 1006.3949 4787.1392 3221793
3021.5049 1000.2008 4757.6758 3879980
2992.6765 981.49896 4668.7163 3945772
3026.1785 983.3949 4677.7344 2169362
3058.2605 984.79913 4684.4141 2761499
3101.1721 989.63397 4707.4121 3024671
3088.1814 976.70233 4645.8999 2433049
3133.5945 982.30743 4672.562 2564379
3157.4963 981.13019 4666.9619 3551531
3261.231 1004.5645 4778.4321 3354152
3172.8542 968.9281 4608.9199 3090981
3186.4568 964.77679 4589.1733 3683117
3275.5984 983.37354 4677.6328 2762015
3319.019 988.04718 4699.8643 3222565
3305.2161 975.74988 4641.3696 2433305
3328.2383 974.43732 4635.126 3419430
3348.4153 972.31982 4625.0537 4077618
3341.4617 962.42261 4577.9751 3946032
3342.6672 955.01581 4542.7432 2235671
3396.9988 962.78455 4579.6968 4538171
3442.2927 967.88898 4603.9771 4472379
3467.2932 967.25189 4600.9468 4670014
3540.1926 979.88257 4661.0273 4143671
3541.6536 972.69751 4626.8501 4604221
3554.8267 968.81482 4608.3813 4735807
3582.6868 968.96344 4609.0884 3419947
3581.3589 961.27557 4572.519 3353641
3582.561 954.37708 4539.7051 3814705
3553.7334 939.64136 4469.6113 3880498
3580.2214 939.64136 4469.6113 3550507
3615.54 941.94196 4480.5547 2827040
3631.7634 939.27063 4467.8477 2300696
3634.4199 933.15448 4438.7549 2366490
3641.481 928.24896 4415.4209 2630431
3700.6069 936.59058 4455.0996 4077876
3692.3359 927.8775 4413.6538 3288618
3756.8711 937.45404 4459.207 3617326
3751 929.45123 4421.1396 2827809
3755.46 924.10156 4395.6929 1511691
3798.4731 928.24695 4415.4111 3353381
3791.1323 920.11462 4376.728 2432536
3818.0076 920.34076 4377.8037 3616810
3932.5337 941.54956 4478.688 3551016
3884.4617 923.80487 4394.2817 2893087
3985.1328 941.43518 4478.144 3156259
3942.0259 925.09125 4400.4004 3024417
4008.5154 934.51251 4445.2148 2563608
3971.3115 919.79431 4375.2046 2234644
4007.7949 922.22314 4386.7578 1904909
3999.0725 914.28552 4349.0005 2300436
3945.4265 896.24463 4263.1851 1971472
3890.4563 878.1344 4177.04 2432023
3844.333 862.23755 4101.4229 2760985
3877.5281 864.21863 4110.8467 2498071
3960.7891 877.26422 4172.9004 3090209
3970.4792 873.95374 4157.1538 4274739
0 0 0 0
0 0 0 0
0 0 0 0
0 0 0 0
0 0 0 0
0 0 0 0
-4277.2759 1027.5011 4753.5366 9742771
0 0 0 0
0 0 0 0
-5042.5068 1235.7437 5716.9302 6777709
-4964.6753 1224.8998 5666.7632 6184543
-4803.8735 1193.2981 5520.564 7303277
-4827.8198 1207.4696 5586.126 9540497
0 0 0 0
-4809.6484 1219.6511 5642.4819 5725274
-4551.335 1162.2272 5376.8208 131846
-4474.5283 1150.6698 5323.353 7
-4395.7373 1138.4342 5266.7476 65544
-3914.8447 1021.1405 4724.1104 1775392
-4507.6787 1184.2429 5478.6724 10724524
-4462.749 1180.9453 5463.4165 1053975
-4952.397 1320.0946 6107.1641 65542
-5276.9253 1416.955 6555.27 4407621
-5675.1328 1535.1831 7102.23 6578530
-6039.6953 1646.0087 7614.9429 6710370
-6178.6597 1696.5573 7848.7964 6710625
-6279.772 1737.4004 8037.7485 6974055
-6132.9346 1709.7441 7909.8027 6974055
-5967.4683 1676.4287 7755.6753 7040360
-5895.019 1668.9298 7720.9834 6645603
-5768.6157 1645.9194 7614.5298 6579554
-5666.3896 1629.4987 7538.5625 5921879
-5453.4097 1580.7142 7312.8706 6645604
-5531.7476 1616.2654 7477.3413 6711395
-5634.6538 1659.6271 7677.9458 7500911
-5436.6826 1614.353 7468.4946 6448223
-5218.1445 1562.1785 7227.1191 6382430
-5150.8242 1554.7859 7192.9185 5066826
-4711.3643 1434.0016 6634.1328 5527375
-4530.7417 1390.6299 6433.4819 5725271
-4303.7065 1332.1555 6162.9614 4541003
-4245.9614 1325.5304 6132.3115 6
-4232.3706 1332.6941 6165.4531 14
-4253.1523 1350.9001 6249.6797 14
-4227.8096 1354.6471 6267.0142 14
-4235.2002 1369.0415 6333.6079 131079
-4121.5552 1344.2185 6218.7686 4933707
