# .PCD v0.7 - Point Cloud Data file format
VERSION 0.7
FIELDS x y z rgb
SIZE 4 4 4 4
TYPE F F F U
COUNT 1 1 1 1
WIDTH 1299
HEIGHT 1
VIEWPOINT 0 0 0 1 0 0 0
POINTS 1299
DATA ascii
1056.3678 596.87665 3417.1362 65541
1085.4946 601.79761 3445.3088 65545
1099.6224 598.37482 3425.7134 65547
1112.8068 594.5722 3403.9431 11
1116.1635 585.7475 3353.4214 11
1127.1179 581.14899 3327.095 11
1141.548 578.46979 3311.7566 11
1154.9908 575.3894 3294.1211 11
1164.1691 570.3222 3265.1113 11
1179.8068 568.53339 3254.8704 11
1188.8341 563.66797 3227.0156 11
1203.2336 561.46344 3214.3948 11
1213.0331 557.21448 3190.0691 328974
1230.5802 556.60034 3186.553 262
1239.2095 552.03204 3160.3994 7237486
1262.5807 554.06915 3172.062 6184537
1289.1008 557.40802 3191.1772 6710109
1300.0988 554.03564 3171.8704 2828067
0 0 0 0
1564.4866 647.96729 3709.6316 4735807
1693.5009 691.68188 3959.8992 4998980
1775.1799 715.13263 4094.1553 4077878
1814.8561 721.25818 4129.2241 3156519
1833.282 718.88782 4115.6538 3419948
1835.5002 710.30768 4066.5322 2630432
1884.9371 719.98584 4121.9399 1840916
1899.2097 716.15662 4100.0176 1841173
1943.7509 723.69373 4143.1675 2367517
1964.7458 722.38531 4135.6772 3946805
2001.2848 726.75403 4160.688 3552047
2013.6537 722.34595 4135.4517 2893860
2003.6573 710.11737 4065.4429 2367773
1994.4387 698.45184 3998.657 1577743
2012.6262 696.5451 3987.741 788229
2028.9708 694.05219 3973.469 788484
2021.5962 683.59595 3913.6064 1314570
2045.6549 683.88538 3915.2637 3682605
2096.6125 693.06012 3967.7896 3222567
2126.1238 695.02057 3979.0132 5262149
2150.5286 695.28711 3980.5388 3419945
2138.2617 683.82013 3914.8901 4144179
2187.6914 692.11829 3962.3972 3946545
2226.7561 696.99579 3990.3213 1643018
2236.7151 692.75623 3966.0496 1971726
2266.5098 694.68439 3977.0884 1971982
2290.2175 694.72644 3977.3293 1840397
2299.5969 690.46558 3952.9355 1314053
2306.5303 685.56348 3924.8708 1643016
2331.1338 685.95892 3927.1348 2235153
2362.751 688.39001 3941.053 2958877
2320.0251 669.32562 3831.9084 1840395
2362.2732 674.90802 3863.8682 2498068
2365.9885 669.48004 3832.7927 2235151
2410.9163 675.70593 3868.436 2234894
2417.0173 671.0351 3841.6953 2826775
2439.2668 670.89276 3840.8806 2564374
2462.5791 671.04272 3841.7393 2696476
2508.425 677.27411 3877.4141 1775121
2567.9326 687.04749 3933.3667 5657163
2507.8345 664.93243 3806.7576 2235928
2548.9028 669.79614 3834.6023 3157030
2582.1682 672.5415 3850.3196 3485993
2614.0725 674.88739 3863.75 3288871
2627.8564 672.55499 3850.3967 4341559
2637.1523 669.1239 3830.7539 2367257
2656.0283 668.16144 3825.2439 2893600
2640.304 658.58478 3770.417 3156003
2651.0142 655.70721 3753.9429 3024673
2681.0637 657.62109 3764.8999 2432535
2703.2625 657.59369 3764.7429 2234903
2698.3999 651.0376 3727.2092 2958880
2727.3579 652.68164 3736.6213 4208947
2722.3406 646.23407 3699.7087 1906190
2715.4783 639.45496 3660.8984 3156256
2761.959 645.2453 3694.0483 4735032
2744.042 636.01837 3641.2239 3813931
2816.4285 647.70282 3708.1177 3748909
2896.0298 660.85266 3783.4009 4932669
2854.5913 646.39233 3700.615 3288102
2872.281 645.43927 3695.1589 3551274
2940.7434 655.82367 3754.6099 2695706
2882.9111 638.09827 3653.1313 2300948
2935.158 644.82025 3691.6147 5129790
2990.0703 652.02405 3732.8564 3090208
2957.4905 640.18317 3665.0674 2892829
3012.9709 647.43781 3706.6001 2563608
3010.0671 642.13232 3676.2263 2235157
3031.1997 641.9939 3675.4338 2432793
3042.5779 639.80627 3662.9094 5985872
3115.4556 650.49036 3724.0764 2235155
3081.6555 638.9071 3657.762 3287843
3095.3386 637.26147 3648.3403 3156512
3121.5044 638.19061 3653.6599 3156257
3143.6729 638.29541 3654.26 2300435
3171.5098 639.54181 3661.3958 2958365
3141.0186 629.08929 3601.5544 3814187
3190.042 634.59564 3633.0784 2958622
3235.3284 639.28967 3659.9521 4603961
3217.4785 631.52887 3615.5212 3749165
3304.0864 644.23816 3688.282 4800829
3228.7183 625.4054 3580.4644 3221797
3258.8091 627.11279 3590.2388 2958883
3157.3694 603.65088 3455.9189 2103574
3196.4827 607.19025 3476.1821 2762017
3205.7781 605.05658 3463.9666 2498846
3252.397 609.94965 3491.9792 3748911
3259.3999 607.39819 3477.3723 4406841
3356.7876 621.61646 3558.7722 4143155
3351.2532 616.71686 3530.7219 3616810
3318.0759 606.82263 3474.0774 3024416
0 0 0 0
0 0 0 0
0 0 0 0
0 0 0 0
0 0 0 0
0 0 0 0
0 0 0 0
0 0 0 0
-5795.7485 1178.7732 6527.062 5657936
-5813.2852 1190.2837 6590.7983 5592656
-5787.4497 1193.0095 6605.8911 5987414
-5727.2549 1188.6414 6581.7041 6316123
-5717.1914 1194.6891 6615.1914 6381659
-5565.894 1171.1036 6484.5947 6776928
-5521.2144 1169.7793 6477.2617 6316377
-5477.9189 1168.7318 6471.4614 6645085
-5412.4414 1162.9034 6439.189 6118741
-5414.3994 1171.5844 6487.2568 5855566
-5400.7539 1176.9888 6517.1821 4802879
-5335.4185 1171.1254 6484.7153 6447703
-5249.6362 1160.6561 6426.7451 6052690
-5121.4111 1140.5814 6315.5884 6185045
-5210.8521 1169.0441 6473.1909 5921616
-5111.2163 1155.1953 6396.5078 6118995
-4946.2173 1126.2565 6236.2686 6053202
-4823.0762 1106.4846 6126.7886 6645595
-4866.8491 1124.996 6229.2886 6316116
-4772.8862 1111.7084 6155.7139 6053200
-4749.4985 1114.7815 6172.7295 5461319
-4661.5991 1102.6427 6105.5151 5262914
-4657.6431 1110.3251 6148.0537 4013103
-4590.3574 1102.9126 6107.0098 4275761
-4562.5845 1104.9513 6118.2988 2565145
-4567.7637 1115.067 6174.3105 3354918
-4468.1479 1099.5573 6088.4302 3618088
-4385.272 1087.9479 6024.1475 4209966
-4362.4951 1091.1805 6042.0469 4933946
-4312.0107 1087.4786 6021.5493 2959901
-4264.167 1084.3866 6004.4287 4604981
-4346.5513 1114.6385 6171.9385 3355686
-4340.4404 1122.5175 6215.5649 789510
-4145.2207 1081.2056 5986.8145 526339
-4096.8394 1077.8113 5968.0195 197377
-4094.5308 1086.5842 6016.5972 3420971
-4095.6003 1096.4159 6071.0366 3618093
-4024.7278 1086.9917 6018.853 4604984
-4005.4634 1091.4618 6043.605 5328450
-3967.8284 1090.9615 6040.835 5065534
-3982.5823 1104.9879 6118.501 4078638
-3863.8311 1081.8898 5990.603 5657669
-3864.1482 1092.0122 6046.6523 5196862
-3724.3301 1062.3511 5882.4141 5854793
-3720.5317 1071.295 5931.9385 5526341
-3683.0845 1070.6285 5928.2476 5920843
-3635.5132 1066.9778 5908.0327 5855050
-3542.5222 1049.7961 5812.8955 4736825
-3584.8645 1072.776 5940.1382 4605239
-3624.6128 1095.4275 6065.564 4999741
-3550.5369 1083.7885 6001.1162 4933692
-3509.6616 1082.1508 5992.0483 5723721
-3423.3467 1066.3258 5904.4229 5724234
-3378.8672 1063.3396 5887.8877 6184528
-3322.929 1056.6476 5850.8325 5066560
-3371.145 1083.2832 5998.3184 4276533
-3345.0659 1086.3583 6015.3452 3618860
-3318.7869 1089.4336 6032.3745 4408376
-3276.5989 1087.297 6020.5435 5000256
-3212.9966 1077.9291 5968.6714 4342326
-3203.1653 1086.593 6016.6455 4342326
-3126.1594 1072.4081 5938.1011 5000512
-3085.9939 1070.6821 5928.5439 5066049
-3032.0283 1064.0731 5891.9492 4671548
-3021.8074 1072.8411 5940.4985 5263171
-3027.699 1087.6035 6022.2412 3486761
-3017.4092 1096.8362 6073.3638 4210485
-2984.8857 1098.1124 6080.4302 4934207
-2938.8728 1094.3962 6059.8535 5131586
-2859.6968 1078.0861 5969.541 4539451
-2872.7229 1096.5621 6071.8462 5000002
-2805.2273 1084.3809 6004.396 5723723
-2782.3875 1089.3701 6032.0229 4671293
-2720.4634 1078.9878 5974.5342 5395015
-2608.8188 1048.3516 5804.8965 5066306
-2610.7485 1063.1461 5886.8159 4605241
-2543.3989 1049.7476 5812.626 5000002
-2538.2244 1061.9951 5880.4429 5000258
-2552.5847 1082.8708 5996.0352 4736572
-2515.8262 1082.344 5993.1177 4868414
-2465.6431 1075.9437 5957.6787 4079154
-2412.5791 1068.0823 5914.1484 5789772
-2374.4495 1066.6982 5906.4844 4803134
-2294.3284 1046.1261 5792.5732 6184788
-2236.7178 1035.3489 5732.8984 5987410
-2184.8455 1026.9363 5686.3164 5856081
-2211.7302 1055.858 5846.4609 5658189
-2131.4075 1033.7061 5723.8018 5329224
-2079.7778 1024.9785 5675.4756 4671807
-2068.0874 1035.9708 5736.3418 4868931
-2081.2522 1059.9894 5869.3364 5461323
-1990.6326 1031.0682 5709.1953 5658443
-1956.3512 1030.8323 5707.8892 4869184
-1916.8981 1027.8152 5691.1831 4210740
-1884.4623 1028.52 5695.0859 4144947
-1809.0299 1005.3556 5566.8203 3026466
-1783.5841 1009.6261 5590.4668 3092260
-1732.5223 999.28363 5533.1987 3092260
-1716.4232 1009.0969 5587.5366 2960674
-1688.9817 1012.4967 5606.3618 2829089
-1633.5031 998.88831 5531.0103 4408121
-1547.1421 965.45135 5345.8638 4604987
-1524.1649 970.99603 5376.5659 3157796
-1481.3743 963.8855 5337.1938 3749933
-1480.5283 984.35236 5450.522 3749933
-1431.3322 972.86871 5386.9355 5131585
-1411.3541 981.17371 5432.9214 4473656
-1373.5731 977.20081 5410.9229 4012847
-1338.2589 974.83496 5397.8228 4210483
-1280.8143 955.83783 5292.6323 5395014
-1262.182 965.57867 5346.5688 6184532
-1214.4269 952.96826 5276.7432 6184532
-1147.7983 924.48975 5119.0527 2500124
-1135.3828 939.31598 5201.1484 4934465
-1104.5627 939.3186 5201.1626 5197381
-1055.5858 923.43756 5113.2266 3749934
-1020.7664 919.3689 5090.6982 4144692
-1003.5808 931.41827 5157.4175 4736573
-969.23914 927.80212 5137.394 4539708
-949.16321 938.05017 5194.1392 5855568
-877.18787 895.97418 4961.1572 5526859
-858.10687 906.88055 5021.5479 5131590
-825.24994 903.48871 5002.7666 4934209
-832.15662 944.99969 5232.6201 4012851
-781.69678 922.05701 5105.5825 4736830
-744.60211 913.6665 5059.123 2499869
-703.24072 899.11694 4978.5591 4801852
-669.36902 893.28815 4946.2842 5394245
-640.98236 894.58057 4953.4409 5657417
-616.23865 901.32538 4990.7876 5789005
-589.20709 905.23529 5012.4375 4605501
-555.99774 899.56506 4981.041 2105371
-531.35889 907.90308 5027.21 5000005
-505.44037 914.91516 5066.0371 5986902
-467.53613 899.74707 4982.0483 4144953
-436.65256 896.95563 4966.5918 5526863
-403.78717 889.39551 4924.7305 6447965
-376.29388 893.41211 4946.9707 5197642
-347.71921 895.32294 4957.5513 4802627
-320.0903 900.2464 4984.8135 3552560
-285.23734 883.78784 4893.6797 2236700
-253.31598 873.71533 4837.9062 3618097
-223.88408 870.75378 4821.5078 2236187
-193.52225 862.77991 4777.355 3881268
-163.79643 855.39459 4736.4614 4012854
-138.85977 875.13733 4845.7803 4013110
-110.49203 877.91339 4861.1519 5000005
-82.366859 885.25458 4901.8013 4539199
-51.852345 860.92407 4767.0791 3552559
-23.221519 847.05914 4690.3066 6184533
4.7329373 876.4472 4853.0332 4407868
32.844158 859.46704 4759.0112 1250062
60.252949 848.28674 4697.1045 4144696
88.149002 848.86469 4700.3042 4605248
115.72728 846.83966 4689.0913 5526350
145.23825 857.00311 4745.3682 5131590
174.93224 864.77386 4788.396 4605505
207.22794 881.44171 4880.689 5066312
236.33588 882.1283 4884.4907 4211003
257.09348 854.89813 4733.7124 6316380
283.27374 849.28351 4702.6235 4605762
310.5484 847.66187 4693.644 4671554
337.66821 845.91888 4683.9932 4408639
365.38324 845.81879 4683.4385 4408382
406.47812 874.51868 4842.355 1776663
427.88556 859.87012 4761.2432 1052172
445.38461 839.66559 4649.3677 2302237
468.80533 832.3288 4608.7422 2696995
491.66656 824.86121 4567.3931 3289131
526.4566 837.1413 4635.3901 5855569
552.62335 835.17133 4624.4819 5460809
578.59167 833.10168 4613.022 3354920
604.12067 830.61481 4599.252 3486505
630.8526 829.92517 4595.4331 4408121
660.55859 833.04327 4612.6987 4144696
675.19238 817.66101 4527.5244 3487279
706.9198 823.36389 4559.1021 2565922
731.48102 820.60754 4543.8398 4737091
754.96985 816.88654 4523.2363 4276540
769.52319 804.08398 4452.3462 4802627
812.7959 821.14453 4546.8135 4144182
836.48816 817.96344 4529.1992 3617838
851.69482 806.94049 4468.1631 4341560
874.81427 803.85321 4451.0684 3354665
877.45929 782.68365 4333.8491 4275511
914.50323 792.52905 4388.3647 4407351
941.53906 793.39655 4393.168 3814957
967.55969 793.38483 4393.1035 2630683
985.42572 786.86243 4356.9873 3420199
1013.1697 788.35907 4365.2749 3354149
1033.1924 783.92291 4340.7109 3419941
1069.6277 791.85254 4384.6187 4275507
1089.1311 787.16852 4358.6826 2762526
1109.9224 783.61096 4338.9834 4407096
1130.1511 779.82611 4318.0264 4078645
1144.9574 772.55017 4277.7383 5263432
1165.3492 769.27667 4259.6123 5723215
1181.0828 763.13202 4225.5884 4407612
1206.5391 763.39435 4227.041 2170651
0 0 0 0
0 0 0 0
0 0 0 0
1076.7341 629.02527 3483.0171 7
1079.6801 618.8822 3426.8533 65545
1095.0269 616.09082 3411.3967 11
1106.2427 611.11847 3383.8643 11
1111.8359 603.27246 3340.4197 11
1123.651 599.01776 3316.8608 11
1138.2002 596.34198 3302.0442 11
1151.3546 593.03815 3283.7505 11
1162.796 588.97644 3261.2603 11
1176.6986 586.27386 3246.2957 11
1190.8958 583.80261 3232.6118 11
1202.3861 580.1037 3212.1304 9
1200.472 570.15375 3157.0356 6
1224.5404 572.65997 3170.9131 2368549
1233.4673 568.11646 3145.7551 6447453
1265.8364 574.34467 3180.2415 6447195
1282.3162 573.28638 3174.3818 7499371
1296.6631 571.31903 3163.488 2104601
1453.7511 631.40417 3496.1895 2367259
1571.4451 672.93109 3726.1309 2630430
1658.3008 700.28448 3877.5911 2564637
1680.7546 700.06561 3876.3792 3485739
1737.4836 713.93634 3953.1836 3354667
1837.0283 744.79706 4124.0645 3880756
1825.9467 730.58429 4045.3662 3157288
1835.2971 724.80914 4013.3884 3551791
1843.4207 718.70343 3979.5801 2301981
1885.2241 725.7171 4018.416 3091240
1921.6641 730.51685 4044.9929 2959910
1962.629 736.89728 4080.3223 1906709
1957.1427 725.89392 4019.3948 65536
1948.0354 713.82825 3952.5852 196864
1952.0469 706.79938 3913.6653 327680
1978.2172 707.86469 3919.564 196608
1998.901 706.96484 3914.5813 196608
2025.0093 707.98212 3920.2141 722692
2028.4567 701.14337 3882.3472 2695964
2087.8398 713.57574 3951.187 7763307
2090.1904 706.45605 3911.7642 2631715
2107.2849 704.4212 3900.4968 4144181
2124.1719 702.36176 3889.0935 3880496
2159.9153 706.51465 3912.0886 3815213
2191.1719 709.12726 3926.5549 1577740
2210.3259 707.80927 3919.2571 2564120
2226.0723 705.4389 3906.1318 2893085
2249.6345 705.56866 3906.8506 1905934
2262.3843 702.33911 3888.968 1971725
2276.1672 699.49219 3873.2041 1708297
2292.0225 697.33258 3861.2461 1379845
2283.2271 687.7901 3808.4077 1248259
2298.1853 685.51978 3795.8364 1774858
2326.0688 687.11157 3804.6504 2037516
2351.9575 688.08917 3810.0635 2037516
2357.4001 683.12323 3782.5664 2234894
2383.0203 684.04297 3787.6592 2498066
2384.5781 678.10284 3754.7676 2498321
2424.123 682.9751 3781.7463 3024154
2441.1191 681.46332 3773.3752 2168845
2515.7249 695.91528 3853.3984 1708555
2509.8862 688.05457 3809.8721 2958109
2499.4399 679.08197 3760.1895 3287074
2540.7419 684.20349 3788.5481 1313797
2555.5781 682.17065 3777.292 1643275
2547.6787 674.15692 3732.9185 1314310
2540.9575 666.59027 3691.0208 2893085
2548.3279 662.81793 3670.1326 1577737
2579.064 665.13538 3682.9648 2565148
2626.4429 671.6701 3719.1487 3880238
2607.3066 661.22748 3661.3259 3485480
2633.9233 662.46472 3668.1768 4011568
2674.3569 667.12823 3693.9995 1971983
2670.3171 660.7121 3658.4724 2827034
2673.7 656.22113 3633.605 3089948
2690.1853 654.99207 3626.7996 2628884
2718.2676 656.58362 3635.6121 2299919
2732.7034 654.87982 3626.178 3221022
2769.2627 658.46301 3646.0188 2694934
2752.8206 649.48584 3596.3108 3418916
2798.4978 655.19025 3627.897 3024415
2792.1931 648.73022 3592.1267 1577482
2811.781 648.33826 3589.9563 2827035
2830.3711 647.72388 3586.5544 2498327
2815.0938 639.4259 3540.6072 3353379
2851.8418 642.98047 3560.2893 2629913
2818.8687 630.87885 3493.2805 2103312
2900.1067 644.32837 3567.7529 1708299
2921.8879 644.46906 3568.532 1708556
2960.1384 648.21423 3589.2698 2234899
2952.0381 641.82837 3553.9102 1510921
2946.5049 636.08722 3522.1204 2629656
2943.9783 631.07135 3494.3464 2103056
2976.1233 633.50574 3507.8264 1708299
3038.9861 642.39978 3557.074 2497814
3081.1611 646.82831 3581.5955 2168848
3118.8594 650.26276 3600.6125 2366228
3121.9773 646.48981 3579.7212 3024414
3116.5815 641.01666 3549.4155 3287330
3110.2327 635.42224 3518.4382 3353379
3141.1204 637.45917 3529.7168 3287843
3121.5718 629.30115 3484.5447 2629656
3111.8108 623.21063 3450.8206 2827035
3106.4648 618.07812 3422.4009 2958877
3070.135 606.88739 3360.436 3551017
3106.7898 610.17511 3378.6409 4143411
3126.4819 610.11072 3378.2839 4604219
3143.8447 609.59534 3375.4304 4077877
3159.4443 608.74683 3370.7319 4735806
3237.2156 619.81262 3432.0054 3880754
3183.1851 605.66254 3353.6536 2827807
3182.0647 601.69257 3331.6714 2695451
0 0 0 0
0 0 0 0
0 0 0 0
0 0 0 0
0 0 0 0
0 0 0 0
0 0 0 0
0 0 0 0
-5726.2065 1202.8459 6448.7451 6513753
-5746.7559 1215.2732 6515.3706 5395272
-5581.2759 1188.2627 6370.561 4737085
-5586.2744 1197.4265 6419.6909 5789772
-5545.5151 1196.8407 6416.5498 6184273
-5414.8599 1176.7112 6308.6309 4342070
-5482.3154 1199.653 6431.627 5263171
-5367.4478 1182.7404 6340.9541 5592392
-5310.4653 1178.4342 6317.8682 4342071
-5316.1641 1188.0753 6369.5562 4275508
-5336.9468 1201.2494 6440.1855 4078128
-5275.2852 1195.9227 6411.6284 4736058
-5062.6411 1156.0425 6197.8203 4736058
-4928.5625 1133.6505 6077.772 6315091
-4978.6641 1153.6052 6184.7544 3025698
-4943.645 1153.9865 6186.7983 3617579
-4838.6294 1137.9122 6100.6201 4078384
-4864.7676 1152.6718 6179.75 2236441
-4833.9526 1154.0582 6187.1831 2038807
-4686.0703 1127.3036 6043.7451 723461
-4563.0825 1106.1718 5930.4521 2367768
-4530.8159 1106.8751 5934.2227 3157284
-4464.9453 1099.3156 5893.6943 3289124
-4395.4492 1090.7373 5847.7041 3683882
-4507.5742 1127.4504 6044.5322 4868155
-4455.396 1123.3264 6022.4219 4670776
-4454.6851 1132.2168 6070.0854 4342066
-4310.6475 1104.5271 5921.6343 5526082
-4239.6494 1095.2515 5871.9053 5065787
-4199.7085 1093.9119 5864.7236 5526082
-4092.5911 1074.9062 5762.8301 4605493
-4217.7349 1117.0968 5989.0239 4934202
-4165.5747 1112.6447 5965.1548 5921354
-4107.7925 1106.6019 5932.7583 6250065
-4078.667 1108.2412 5941.5469 6841946
-3973.9946 1089.2031 5839.4785 5065792
-4000.2603 1106.0334 5929.7104 4605754
-3954.2883 1103.0123 5913.5132 5790027
-3918.4758 1102.7961 5912.3545 4868410
-3802.1021 1079.699 5788.5244 4671031
-3745.7798 1073.3893 5754.6973 4736568
-3784.7065 1094.5092 5867.9258 4802104
-3762.804 1098.2661 5888.0679 5065277
-3713.2515 1093.9476 5864.9155 5920587
-3598.1384 1070.0505 5736.7974 6381651
-3579.812 1074.7554 5762.021 5591879
-3602.3809 1091.947 5854.1895 6184015
-3482.1074 1065.7537 5713.7612 6249552
-3531.1926 1091.39 5851.2036 4802362
-3491.7957 1089.9164 5843.3027 5131070
-3456.9673 1089.8533 5842.9648 4341811
-3423.5918 1090.2517 5845.1011 4868155
-3393.8301 1091.8209 5853.5137 4999741
-3337.1028 1084.6578 5815.1108 4999742
-3290.9456 1080.8168 5794.5176 5394500
-3315.1011 1100.2305 5898.5991 4276533
-3270.8931 1097.1272 5881.9619 4473912
-3218.0493 1091.0294 5849.27 4803134
-3175.5596 1088.3473 5834.8906 5131842
-3180.7493 1102.1271 5908.7676 5921358
-3014.9805 1056.3171 5663.1694 4144690
-3053.9355 1082.0096 5800.9131 3354917
-2938.6702 1053.0249 5645.5186 4933949
-3038.4236 1101.3081 5904.377 3421224
-2977.4795 1091.7915 5853.3555 3552554
-2964.5557 1099.8662 5896.646 986887
-2935.0383 1101.9037 5907.5698 1052167
-2913.0645 1106.8569 5934.125 1183753
-2884.2085 1109.2841 5947.1377 1117703
-2831.387 1102.4399 5910.4448 986374
-2818.6138 1111.2131 5957.48 131328
-2792.8774 1115.0334 5977.9619 1841165
-2709.6123 1095.6891 5874.2515 2170387
-2640.7222 1081.7295 5799.4111 6447186
-2569.3298 1066.3634 5717.0293 5460290
-2572.8074 1082.0753 5801.2651 5525827
-2503.803 1067.3156 5722.1343 5394497
-2520.5576 1089.2095 5839.5132 6118222
-2489.1833 1090.6256 5847.1055 4604983
-2448.0342 1087.7384 5831.626 5131325
-2379.9214 1072.616 5750.5513 4868154
-2345.5078 1072.463 5749.7314 5328449
-2268.6177 1052.5973 5643.2261 5262913
-2222.2151 1046.4943 5610.5063 6118737
-2206.0466 1054.66 5654.2852 5855821
-2117.1052 1027.7501 5510.0146 4869183
-2115.8677 1043.24 5593.0596 6119252
-2071.6169 1037.6774 5563.2368 6711389
-2031.9983 1034.2926 5545.0908 4934978
-2025.5787 1047.9729 5618.4336 5395529
-2009.7507 1057.1614 5667.6953 4934465
-1952.8171 1044.6724 5600.7388 4144947
-1935.9344 1053.5476 5648.3208 4670777
-1848.5033 1023.6667 5488.1226 3223330
-1804.7004 1017.3087 5454.0356 4999741
-1764.0237 1012.5131 5428.3252 4341812
-1686.0027 985.7063 5284.6079 3486503
-1665.5404 992.17291 5319.2769 3750189
-1622.2118 985.00476 5280.8467 3223846
-1586.7119 982.40149 5266.8901 4276019
-1549.4535 978.58325 5246.4194 4210226
-1510.2632 973.36346 5218.4351 3354917
-1466.2925 964.78021 5172.418 4933949
-1440.9839 968.37164 5191.6724 5066048
-1412.2852 969.79181 5199.2866 4671291
-1385.1387 972.36511 5213.0825 4671291
-1351.3665 970.2984 5202.0024 4473914
-1325.4281 973.8913 5221.2646 3223847
-1312.2273 987.23895 5292.8247 3618862
-1264.1289 974.34259 5223.6841 4342329
-1213.3208 958.65765 5139.5938 4408122
-1173.0675 950.71942 5097.0347 2960676
-1136.1481 945.1347 5067.0938 3749678
-1119.4492 956.52454 5128.1572 4078640
-1084.3123 952.35577 5105.8076 1249289
-1030.4329 931.01355 4991.3867 3222821
-1001.884 931.97278 4996.5293 2894113
-967.8299 927.71332 4973.6934 3551787
-966.65161 955.68927 5123.6792 3617836
-918.09589 937.12054 5024.1279 3288871
-876.40479 924.54901 4956.7285 2236181
-828.18268 903.9765 4846.4346 2894108
-809.99786 915.89014 4910.3066 4078381
-788.69965 925.04004 4959.3613 3157537
-753.76068 918.28015 4923.1201 2170388
-720.00055 912.46997 4891.9702 3223591
-686.28955 906.23706 4858.5542 2434589
-655.14972 903.00214 4841.2109 4408123
-632.18347 911.25269 4885.4438 5394761
-598.86688 904.65967 4850.0972 4670525
-575.36694 912.97882 4894.6982 3881778
-548.12103 915.92169 4910.4756 5000515
-515.24658 909.26178 4874.77 6118743
-485.8963 908.39923 4870.146 4078904
-452.57758 899.54028 4822.6509 4013112
-424.53021 900.67035 4828.7095 3684404
-381.78174 868.52008 4656.3442 5131592
-361.92606 887.49683 4758.083 4144697
-338.59424 900.43604 4827.4536 3947573
-313.42432 910.42444 4881.0034 5657936
-285.68777 914.23035 4901.4077 4737091
-253.08109 901.54901 4833.4199 6908003
-215.48503 865.58875 4640.6284 4934468
-186.86125 860.42035 4612.9194 4342331
-160.49582 865.6615 4641.0186 4868675
-134.07582 872.71509 4678.835 4671553
-106.73581 875.89728 4695.895 4934213
-78.750885 874.16498 4686.6079 6316123
-51.084122 876.00116 4696.4521 5855572
-23.171114 872.95581 4680.1255 5855572
4.5509157 870.39441 4666.3931 6250074
32.337955 873.98901 4685.6646 5723730
59.360096 863.14001 4627.5005 5460557
87.152489 866.80853 4647.168 4539455
114.40654 864.64655 4635.5771 5197386
141.51392 862.42804 4623.6831 3355181
169.76254 866.75598 4646.8867 5526351
198.18016 870.61835 4667.5933 7106153
221.81409 855.09332 4584.3604 5395278
251.25383 862.89563 4626.1904 3224109
279.22186 864.60571 4635.3584 3882039
304.64795 858.84332 4604.4648 5000263
327.02261 846.13306 4536.3223 5395021
360.46152 861.8067 4620.3521 5328970
394.68756 877.0163 4701.8945 5000006
421.18222 874.1734 4686.6528 4276283
441.32162 859.30756 4606.9541 3289388
467.57474 857.3847 4596.645 1315343
485.2001 840.72382 4507.3218 2828581
520.13373 854.22754 4579.7183 5196870
546.07587 852.35718 4569.6909 6052691
571.66211 850.13434 4557.7739 5197125
596.89716 847.61334 4544.2583 3881522
620.47369 843.05652 4519.8281 2433563
635.95312 828.33044 4440.8779 3815217
665.34515 832.17572 4461.4937 2038806
696.97723 838.42175 4494.98 2236700
719.1662 833.26666 4467.3423 2302236
741.63342 828.78851 4443.334 2828837
755.53247 815.37073 4371.3979 4407869
796.7323 831.3288 4456.9531 3486250
815.18231 823.28687 4413.8379 3485992
858.77661 840.34961 4505.3159 2564890
854.29047 810.75336 4346.6431 2894111
849.09558 782.23669 4193.7583 5460295
884.6001 791.77032 4244.8706 4933695
931.04095 810.29486 4344.1846 4867904
963.61237 816.07642 4375.1812 2762013
964.35938 795.30933 4263.8438 1840654
986.65765 792.92242 4251.0469 2959648
1026.7655 804.6106 4313.71 4012079
1052.382 804.65057 4313.9248 2695705
1073.0447 800.99103 4294.3052 2827548
1077.4452 785.64307 4212.021 2828062
1097.0598 781.8327 4191.5928 4801851
1119.4056 780.09442 4182.2729 3354405
1157.559 789.20874 4231.1372 4604730
1164.5062 777.11176 4166.2822 4012594
1188.7968 776.85052 4164.8818 4670527
0 0 0 0
0 0 0 0
1052.2042 647.27417 3470.1919 65541
1061.0146 640.18176 3432.168 9
1074.6849 636.23328 3410.9993 9
1089.7822 633.25989 3395.0581 11
1097.9503 626.44073 3358.499 11
1109.782 621.91748 3334.2485 11
1123.7493 618.72839 3317.1511 11
1137.3884 615.47137 3299.6895 11
1150.1001 611.83099 3280.1726 11
1160.1653 606.92719 3253.8818 11
1177.0229 605.67902 3247.1902 11
1187.2947 601.13647 3222.8369 11
1194.0377 594.97955 3189.8279 8
1207.1659 592.14655 3174.6394 3
1228.0458 593.14453 3179.99 6579556
1239.2766 589.5224 3160.5708 6578522
1269.6 594.95514 3189.697 6841693
1286.7759 594.15771 3185.4219 723464
1340.9764 610.23206 3271.6001 591621
1392.1534 624.49182 3348.0503 196608
1595.3425 705.58221 3782.7954 2696224
1684.2687 734.58984 3938.312 3946288
1702.1284 732.2326 3925.6743 4077618
1729.2329 733.86224 3934.4114 2893601
1786.4755 748.0686 4010.575 3222569
1792.5594 740.76105 3971.3975 4209977
1789.0679 729.73706 3912.2954 3749425
1830.5088 737.08807 3951.7058 4933700
1853.7758 737.02783 3951.3828 4143928
1880.2789 738.23956 3957.8794 4605250
1933.7008 749.86017 4020.1802 3092010
1929.1917 739.00659 3961.9915 986636
1926.3054 729.0282 3908.4949 986636
1918.1711 717.32434 3845.7478 526086
1926.6821 712.047 3817.4543 3486770
1973.764 720.98132 3865.3538 197378
1984.0538 716.42535 3840.9282 394757
2018.0365 720.43115 3862.4038 1314829
2069.3933 730.47986 3916.2776 2827810
2091.5193 730.10181 3914.251 2695968
2093.2139 722.67834 3874.4519 1117193
2089.1191 713.43878 3824.9163 920070
2126.8845 718.53949 3852.2625 3354406
2126.2075 710.68256 3810.1394 2959647
2154.5969 712.60406 3820.4409 3025439
2165.762 708.84796 3800.304 3683369
2220.6809 719.34253 3856.5679 2169362
2188.7832 701.78729 3762.4497 4077357
2229.3813 707.59601 3793.5918 1905933
2273.0791 714.26263 3829.3333 919298
2257.947 702.49438 3766.2407 1643274
2274.6497 700.76392 3756.9634 1906189
2304.6562 703.12592 3769.6267 2433044
2334.2957 705.33167 3781.4521 3617317
2320.3967 694.4649 3723.1929 2695446
2340.7979 693.97186 3720.5493 2563859
2362.7385 693.94006 3720.3792 2497810
2380.2119 692.60901 3713.2427 2037515
2415.6765 696.48956 3734.0474 2169101
2454.6443 701.30048 3759.8398 3616549
2454.5085 694.95337 3725.8115 2761498
2488.3127 698.24335 3743.45 853761
2514.9199 699.47339 3750.0444 2300691
2499.6362 689.13287 3694.6067 2103570
2479.6074 677.67517 3633.179 1971727
2508.5654 679.68744 3643.9673 2629913
2525.1292 678.33594 3636.7214 1577226
2528.9187 673.60468 3611.3562 1971983
2552.8271 674.26678 3614.9058 3024671
2576.2563 674.79242 3617.7236 2760986
2612.0833 678.52972 3637.7605 2168849
2601.7258 670.30701 3593.6765 2497812
2635.6292 673.52856 3610.948 2694933
2629.4155 666.52905 3573.4219 2563347
2674.8403 672.62653 3606.1118 2496528
2685.8525 670.04236 3592.2576 2562321
2679.4094 663.17859 3555.4592 3154458
2714.0146 666.50238 3573.2791 2234384
2725.1694 664.06049 3560.1873 2102797
2715.6465 656.65607 3520.4905 1839885
2754.9084 661.07111 3544.1604 1905676
2738.4409 652.14752 3496.3191 2300690
2757.2139 651.68732 3493.8521 2235153
2771.6128 650.20789 3485.9202 2564374
2802.2239 652.52545 3498.3455 4274737
2787.1562 644.25043 3453.981 3090464
2819.5037 646.97614 3468.594 3024671
2837.4392 646.37927 3465.394 3090464
2866.5916 648.32782 3475.8408 4340274
2895.4517 650.18298 3485.7866 2564122
2882.0903 642.59802 3445.1221 1840400
2879.7844 637.56744 3418.1519 1511690
2845.4995 625.5766 3353.866 1971983
2959.5161 646.12964 3464.0559 2300948
2990.1865 648.32861 3475.845 4077359
3023.0527 650.97028 3490.0076 2893341
3055.5815 653.50378 3503.5906 2695706
3062.7527 650.61652 3488.1111 2168851
3058.5642 645.37103 3459.9885 1774606
3049.6096 639.19635 3426.8848 1971986
2980.4148 620.56067 3326.9744 853762
3020.4756 624.76874 3349.5349 1314056
3024.3242 621.48053 3331.9062 919298
3042.4688 621.15369 3330.1538 3814189
3109.856 630.8197 3381.9756 4143154
3148.4033 634.54932 3401.9709 3945774
3157.7124 632.3761 3390.3196 3090212
3161.2915 629.09009 3372.7026 3090212
3116.5889 616.29779 3304.1201 3090213
3148.3967 618.70062 3317.0022 2497818
3180.519 621.13489 3330.053 2103317
0 0 0 0
0 0 0 0
0 0 0 0
0 0 0 0
0 0 0 0
0 0 0 0
0 0 0 0
0 0 0 0
0 0 0 0
0 0 0 0
-5378.1274 1181.3912 6138.6841 5065534
-5306.2251 1173.5348 6097.8608 6381136
-5279.188 1175.5613 6108.3906 4341553
-5147.4644 1154.1433 5997.0996 5657156
-5170.709 1167.4154 6066.0635 5789257
-5176.7803 1176.9689 6115.7046 5722951
-5171.5225 1184.0631 6152.5679 1973009
-5113.376 1179.0629 6126.5859 1249544
-5040.2041 1170.5017 6082.1006 2959648
-5005.3462 1170.7791 6083.542 3880750
-4925.4912 1160.4591 6029.918 4078129
-4823.0029 1144.6168 5947.5991 2762528
-4842.833 1157.7841 6016.0181 3091746
-4804.1553 1157.0554 6012.2319 4933949
-4693.7554 1138.9128 5917.9604 5131328
-4547.8848 1111.8257 5777.2109 6644823
-4584.2954 1129.2279 5867.6357 6250064
-4550.5347 1129.4792 5868.9414 6841943
-4431.7314 1108.4635 5759.7407 6315598
-4396.3794 1108.1564 5758.1445 6315340
-4284.1836 1088.3235 5655.0903 6644304
-4246.2344 1087.1877 5649.189 5328956
-4140.3413 1068.4996 5552.0825 6052678
-4098.8364 1066.2618 5540.4551 5855555
-3976.4536 1042.7787 5418.4331 5723458
-4015.3469 1061.5503 5515.9731 6118219
-4069.1743 1084.6106 5635.7979 5921355
-4020.3904 1080.476 5614.3135 6512978
-4010.6018 1086.8397 5647.3804 6250064
-4002.6262 1093.8059 5683.5776 5460548
-3987.1675 1098.8281 5709.6738 6447956
-3948.4304 1097.4659 5702.5962 6118735
-3902.7861 1094.144 5685.335 6053199
-3937.2749 1113.425 5785.522 6250578
-3870.7532 1104.2291 5737.7383 5197376
-3871.3298 1114.1813 5789.4512 4868155
-3852.8535 1118.7788 5813.3408 4802361
-3783.3489 1108.5083 5759.9736 5328704
-3723.842 1101.0067 5720.9941 5920840
-3660.9102 1092.3452 5675.9878 6973272
-3587.0188 1080.2228 5612.998 5591876
-3581.165 1088.5546 5656.291 5591619
-3568.2979 1094.8917 5689.2197 6644306
-3576.2644 1107.8035 5756.311 6315085
-3447.8835 1078.3213 5603.1172 6249806
-3442.1743 1087.0043 5648.2354 6249808
-3500.699 1116.3413 5800.6753 5131327
-3442.3369 1108.6166 5760.5361 3092000
-3342.9109 1087.3799 5650.187 4012077
-3322.2937 1091.6075 5672.1548 4538421
-3306.1392 1097.403 5702.2686 4867899
-3279.0659 1099.6565 5713.9785 4868156
-3238.9526 1097.5382 5702.9712 5197120
-3189.9509 1092.3318 5675.918 4933948
-3227.8027 1117.0723 5804.4736 5197119
-3127.3047 1093.9503 5684.3281 5657671
-3132.7175 1107.7764 5756.1704 4144432
-3052.0947 1091.1487 5669.77 5460035
-3034.3716 1096.8879 5699.5928 6447187
-3066.0312 1120.8088 5823.8887 5921614
-2945.3799 1088.962 5658.4082 5461063
-2974.8264 1112.5149 5780.7925 5461320
-2865.6514 1084.1714 5633.5151 6250582
-2858.6924 1094.2872 5686.0786 5066563
-2866.1855 1110.2426 5768.9849 5461065
-2818.1467 1104.8126 5740.7705 4210484
-2794.0647 1108.7566 5761.2642 4210741
-2804.8384 1126.801 5855.0254 5723723
-2745.1626 1116.641 5802.2324 5592392
-2706.4165 1114.8447 5792.8984 5855050
-2599.9231 1084.7367 5636.4526 4999741
-2601.968 1099.7186 5714.3013 3947054
-2600.4355 1113.5638 5786.2427 4144432
-2480.3838 1076.3481 5592.8647 4473141
-2456.3965 1080.3757 5613.7925 4407347
-2433.8386 1085.1511 5638.6064 4604983
-2384.7732 1078.0764 5601.8452 4802362
-2379.4246 1090.8438 5668.1865 5328706
-2310.5032 1074.4146 5582.8179 5591878
-2281.8281 1076.4951 5593.6279 4868156
-2246.9631 1075.6736 5589.3599 6578774
-2154.3408 1046.764 5439.1416 6250322
-2114.1418 1042.835 5418.7256 5132100
-2071.8811 1037.752 5392.3135 5263686
-2025.6746 1030.5024 5354.6436 5460807
-1985.1272 1025.9469 5330.9727 5987151
-1943.3594 1020.6031 5303.2051 5987150
-1888.6373 1008.1685 5238.5933 4934975
-1942.1201 1054.0442 5476.9702 6053200
-1898.9788 1048.1473 5446.3291 6250580
-1896.6255 1064.9489 5533.6323 5066048
-1788.005 1021.6232 5308.5059 4210482
-1744.985 1014.8993 5273.5674 4078639
-1675.146 992.04773 5154.8271 4078640
-1640.1803 989.38324 5140.9819 5657672
-1617.0052 993.86487 5164.269 4144433
-1570.896 984.15125 5113.7959 1841423
-1545.9613 987.58215 5131.6235 2630939
-1524.9171 993.68597 5163.3398 5986380
-1490.3263 991.03168 5149.5474 4538934
-1462.7548 993.03137 5159.9385 3749675
-1421.0044 985.28546 5119.6895 4012846
-1399.6309 991.63837 5152.7002 5196864
-1355.2762 981.62952 5100.6929 4540217
-1319.1396 977.2522 5077.9473 5526855
-1296.3602 982.79669 5106.7578 3552810
-1273.605 988.62512 5137.043 2894880
-1217.8544 968.49939 5032.4663 5000256
-1164.3927 949.22925 4932.3359 4276535
-1135.1429 949.21277 4932.2505 4605500
-1087.9958 933.83405 4852.3403 5066050
-1060.579 935.01471 4858.4751 4342327
-1047.38 949.14545 4931.9009 4407863
-1001.4684 933.59222 4851.0835 4407863
-971.4707 932.39337 4844.854 3354663
-939.5686 929.23792 4828.458 2433561
-925.64673 944.2254 4906.3354 2170388
-885.35736 932.41602 4844.9722 4012848
-852.474 927.8761 4821.3818 4144433
-820.43237 923.96924 4801.0811 4407605
-787.95587 919.27429 4776.6855 3683881
-757.41388 916.57037 4762.6357 4012846
-721.44958 906.84155 4712.0835 4144432
-682.06329 891.85474 4634.2095 2631194
-663.55853 904.0603 4697.6313 4670523
-632.33063 899.24103 4672.5898 2368027
-605.24445 900.1402 4677.2622 3223076
-576.85236 899.09033 4671.8066 2565148
-548.67627 898.28809 4667.6382 2894884
-520.61304 897.59534 4664.0386 4144697
-501.1369 912.46008 4741.2778 4144697
-460.90854 889.06116 4619.6938 3815732
-439.07758 900.43524 4678.7949 4473662
-410.3042 898.14594 4666.8994 1052429
-386.37311 906.89136 4712.3423 4671041
-356.49475 901.9527 4686.6802 2630944
-326.62448 896.20166 4656.7969 3486510
-295.94772 886.97198 4608.8379 4144183
-265.83252 877.71948 4560.7607 4933956
-238.1543 875.32983 4548.3438 4934213
-211.72881 877.52216 4559.7354 5131849
-184.58698 876.9527 4556.7764 4013111
-153.32039 853.23358 4433.5283 3946806
-131.32603 881.97552 4582.876 4078648
-103.08745 872.83557 4535.3833 3092010
-75.318291 862.62518 4482.3281 4934214
-49.439342 874.73224 4545.2383 5000007
-22.105021 859.25079 4464.7949 5526351
4.3568997 859.76251 4467.4536 5131592
30.988739 864.13373 4490.167 5592142
57.739235 866.24628 4501.144 4276283
85.931053 881.81433 4582.0381 5263178
110.90754 864.8335 4493.8032 3815988
137.40849 864.01428 4489.5464 5065799
167.44473 882.08441 4583.4414 3618352
195.03281 884.01367 4593.4663 4934470
221.36168 880.46185 4575.0103 5723730
245.8477 871.15503 4526.6509 4013370
275.55447 880.35895 4574.4761 3684660
302.74939 880.60797 4575.7695 4736835
320.07077 854.4577 4439.8892 5328971
348.69418 860.16022 4469.52 4342076
385.76288 884.41956 4595.5752 4276283
406.8927 871.34698 4527.6479 4144183
437.09351 878.11517 4562.8169 4275769
456.13058 862.97369 4484.1392 657670
471.19061 842.38916 4377.1792 3354668
499.38916 846.21613 4397.0645 3420204
519.07086 835.94739 4343.7065 4275768
554.14996 850.27448 4418.1523 5065541
585.22198 857.43768 4455.3735 3749168
600.30963 841.57416 4372.9438 2697250
623.21326 837.5271 4351.915 4934213
647.81323 835.99091 4343.9326 2697251
684.64673 849.75592 4415.458 5460558
695.54205 831.49908 4320.5928 5066054
720.34064 830.56964 4315.7632 5262918
730.3858 813.276 4225.9028 4670523
780.19818 839.94153 4364.4609 2367258
797.16705 830.67188 4316.2939 2564634
806.66144 814.43188 4231.9092 3222822
826.87231 809.66492 4207.1392 2104598
845.84692 804.00183 4177.7129 4538681
865.27368 799.07849 4152.1304 5525832
906.55664 814.05334 4229.9419 5065281
932.89404 815.16296 4235.7075 3946801
943.34973 802.70056 4170.9512 3485993
967.21381 801.99255 4167.2725 3222820
986.06 797.2627 4142.6953 4209971
1014.9397 800.67798 4160.4414 2235669
1037.7719 799.2735 4153.1436 2893598
1058.0481 796.01129 4136.1929 2959648
1078.111 792.73981 4119.1938 3814958
1097.0023 788.77094 4098.5708 3617837
1106.1683 778.13263 4043.2927 2367770
1156.3988 796.21979 4137.2764 5197129
1159.5596 781.81964 4062.4509 3749427
0 0 0 0
1024.7491 663.37891 3447.0154 65538
1064.1166 675.40009 3509.479 5
1049.3333 653.24939 3394.3809 65545
1070.1052 653.65021 3396.4634 9
1087.9586 652.28632 3389.3765 11
1094.9275 644.56445 3349.2524 11
1107.8566 640.56366 3328.4639 11
1121.3934 637.04822 3310.197 11
1133.4644 632.83508 3288.3049 11
1146.6104 629.35455 3270.2195 11
1156.7596 624.37213 3244.3301 11
1173.0939 622.83643 3236.3506 11
1176.5941 614.64594 3193.7913 11
1189.5704 611.58643 3177.8938 6
1196.985 605.8075 3147.8655 986639
1201.391 598.7066 3110.9685 6315866
1248.4034 612.73218 3183.8474 6381659
1268.7783 613.46069 3187.6328 7565934
1296.8951 617.85614 3210.4722 131079
1351.0016 634.32727 3296.0586 12
1395.8977 646.0661 3357.0552 11
1440.8337 657.49316 3416.4321 920849
1667.8243 750.52905 3899.8604 3749684
1698.6857 753.96887 3917.7341 3486252
1677.028 734.31946 3815.6328 3683120
1705.1656 736.70667 3828.0371 2630689
1735.9335 740.15265 3845.9429 3485998
1751.9325 737.29388 3831.0884 4275514
1745.287 725.1004 3767.7292 3288619
1764.1887 723.69464 3760.4248 4472893
1835.2784 743.46527 3863.1558 3157547
1879.7449 752.09656 3908.0054 3420719
1896.7437 749.66156 3895.3528 4407869
1900.2727 742.02539 3855.6741 4407869
1897.0696 731.97314 3803.4412 4144440
1900.0021 724.49658 3764.5918 4013110
1938.0482 730.42743 3795.4092 4472891
1961.5529 730.80457 3797.3689 5130822
2012.5381 741.29523 3851.8801 2038809
2025.7323 737.78687 3833.6501 2367516
2026.2897 729.80499 3792.175 2630946
2054.4067 731.81537 3802.6213 3420460
2055.1802 724.14758 3762.7783 1973014
2069.5374 721.37933 3748.394 1841171
2090.2285 720.85419 3745.6655 1973013
2108.5896 719.54504 3738.8628 1841426
2118.2651 715.32996 3716.9607 2236183
2114.8088 706.81281 3672.7041 1972497
2111.1895 698.4151 3629.0686 3946285
2167.562 709.83301 3688.3975 3880235
2225.125 721.40894 3748.5479 2893084
2234.8633 717.40387 3727.7371 4077356
2214.0598 703.76917 3656.8889 3616805
2216.5437 697.72931 3625.5049 4537393
2246.4648 700.35913 3639.1699 2234638
2256.5156 696.80316 3620.6926 2168843
2271.3665 694.78241 3610.1924 2431759
2306.5933 698.974 3631.9724 2629138
2343.176 703.49506 3655.4648 2892310
2387.156 710.13403 3689.9617 3090204
2402.7654 708.28918 3680.3757 2234896
2403.9675 702.2688 3649.093 2432791
2403.4534 695.85895 3615.7861 2695706
2414.5466 692.89325 3600.376 2695706
2454.8894 698.29962 3628.4683 2629913
2428.2524 684.72491 3557.9321 3287843
2440.3005 682.19861 3544.8052 2564120
2461.0232 682.11975 3544.3953 2827292
2496.3469 686.05487 3564.843 2761499
2436.3406 663.94489 3449.9561 2761497
2489.2705 672.72394 3495.5732 2563605
2515.9683 674.32727 3503.9045 2234640
2531.8613 673.03223 3497.1753 2695191
2538.2668 669.25665 3477.5569 2497554
2569.4539 672.02325 3491.9326 2234382
2609.8916 677.14594 3518.5508 3681828
2621.1777 674.68372 3505.7568 1905674
2659.7268 679.22253 3529.3413 3945257
2684.2024 680.12457 3534.0281 3287069
2712.4272 681.95526 3543.5408 3813158
2677.6699 668.04449 3471.2585 3616549
2692.1543 666.53754 3463.428 2958106
2684.3767 659.58325 3427.2925 2958363
2690.6943 656.17078 3409.5605 3550500
2710.0352 655.96143 3408.4729 3155742
2739.5703 658.20441 3420.1277 2827290
2784.7742 664.15137 3451.0291 2761497
2767.5774 655.23792 3404.7134 3156255
2784.9758 654.58478 3401.3198 3879978
2728.6707 636.74219 3308.6069 3682600
2767.2532 641.13849 3331.4507 3682600
2792.6646 642.44244 3338.2263 3222050
2837.7622 648.2251 3368.2737 1117190
2889.4846 655.42957 3405.7092 1971985
2911.6689 655.88037 3408.0518 4077361
2928.7964 655.19373 3404.4839 3682603
2973.76 660.70105 3433.1008 3222052
3014.2007 665.1355 3456.1426 1840399
3031.6045 664.46082 3452.637 1971986
2927.8848 637.4256 3312.158 1840401
2944.0034 636.66656 3308.2139 1643020
2960.3701 635.97076 3304.5986 854279
2983.7329 636.77728 3308.7893 2564122
3004.842 637.09552 3310.4429 2169364
3002.9263 632.55939 3286.8723 1774606
3058.1611 640.04279 3325.7573 1774606
3110.2537 646.77692 3360.7488 4407097
3090.1086 638.49908 3317.7361 4012081
3155.4141 647.87073 3366.4324 3683118
3129.0957 638.43054 3317.3799 2828066
3132.6108 635.1571 3300.3706 3485227
3197.2205 644.23486 3347.5398 2629661
0 0 0 0
0 0 0 0
0 0 0 0
0 0 0 0
0 0 0 0
0 0 0 0
0 0 0 0
-5146.2837 1142.0975 5757.2231 5460036
0 0 0 0
0 0 0 0
0 0 0 0
-4966.7241 1132.2753 5707.71 6381651
-4892.4927 1123.0006 5660.957 6447186
-4887.7056 1129.6477 5694.4648 6381393
-4865.6919 1132.3783 5708.2295 6381393
-4841.7607 1134.6978 5719.9219 5723463
-4788.4287 1130.1111 5696.8008 5789256
-5006.5928 1189.9896 5998.6436 5790026
-4809.959 1151.4285 5804.2598 5986636
-4647.5386 1120.561 5648.6597 5920842
-4609.0532 1119.3442 5642.5259 6381650
-4551.0063 1113.3245 5612.1802 6184270
-4539.127 1118.593 5638.7388 6710358
-4522.7905 1122.8334 5660.1138 6447185
-4473.7568 1118.9589 5640.583 6841686
-4440.1069 1118.9027 5640.3003 5394240
-4380.0244 1112.1342 5606.1807 5526082
-4308.019 1102.2119 5556.1631 5657670
-4295.4429 1107.4587 5582.6123 5788998
-4167.3042 1082.7614 5458.1143 5921350
-4110.6929 1076.4072 5426.084 5788995
-4082.3 1077.4005 5431.0908 5394237
-3987.6567 1060.7856 5347.3369 4999734
-3946.168 1058.158 5334.0908 4999989
-3953.1975 1068.6031 5386.7437 4999734
-3947.8469 1075.8444 5423.2466 6316107
-3837.4026 1054.3301 5314.7944 5986888
-3878.6011 1074.4684 5416.3101 6052680
-3826.168 1068.7882 5387.6768 5723716
-3863.5276 1088.3057 5486.063 5987404
-3844.1316 1092.0315 5504.8447 6118733
-3846.981 1102.1946 5556.0762 5855305
-3858.8093 1115.1279 5621.272 5592387
-3867.4241 1127.35 5682.8818 4802614
-3789.3655 1114.2993 5617.0947 5065530
-3791.6558 1124.8541 5670.3008 3552290
-3759.7974 1125.3765 5672.9341 4341551
-3690.5886 1114.6278 5618.7505 2960410
-3576.2805 1089.9384 5494.293 3947050
-3597.1619 1106.3754 5577.1509 5460031
-3587.062 1113.5001 5613.0659 6446926
-3529.8003 1105.9811 5575.1631 5460031
-3479.7039 1100.5862 5547.9678 6315340
-3433.8992 1096.4587 5527.1616 6249291
-3392.22 1093.5818 5512.6592 6117962
-3406.7974 1108.9613 5590.186 5986634
-3383.5125 1112.197 5606.4971 5920840
-3381.6658 1122.6136 5659.0068 6973531
-3287.6919 1102.3494 5556.856 4736569
-3257.2156 1103.1807 5561.0469 4539191
-3272.3291 1119.6277 5643.9546 4341555
-3219.4639 1112.9153 5610.1177 4341555
-3181.7151 1111.3427 5602.1904 4670263
-3145.6543 1110.3329 5597.1001 4736568
-3138.6885 1119.6807 5644.2217 4802362
-3104.155 1119.2897 5642.2505 4670776
-3049.2605 1111.4684 5602.8237 5526085
-3024.2727 1114.496 5618.0859 3025951
-3017.4197 1124.3483 5667.751 5196863
-3001.7905 1131.1156 5701.8643 4078639
-2919.1746 1112.5081 5608.0649 5131583
-2883.928 1111.7324 5604.1553 4934204
-2821.8789 1100.4862 5547.4639 5723976
-2779.981 1096.926 5529.5176 4868667
-2754.835 1099.9698 5544.8613 5262912
-2696.6184 1089.7231 5493.2085 4933946
-2642.5227 1080.9116 5448.79 4867896
-2653.5623 1098.855 5539.2407 5328447
-2578.8062 1081.2742 5450.6177 4867895
-2579.5005 1095.2847 5521.2432 6118217
-2536.2935 1090.7745 5498.5083 5065275
-2482.2271 1081.416 5451.3325 5393729
-2533.3694 1118.2507 5637.0137 4012334
-2477.2454 1108.0889 5585.7881 4538678
-2418.95 1096.6672 5528.2129 4275250
-2326.1611 1069.0792 5389.144 3947054
-2308.1289 1075.559 5421.8071 5591879
-2256.4614 1066.3265 5375.2676 5131584
-2261.0876 1083.8132 5463.4165 4868412
-2239.7065 1089.1605 5490.3721 5328964
-2177.8728 1074.7037 5417.4966 3223845
-2107.6321 1055.6036 5321.2144 2960158
-2050.8472 1042.7651 5256.4961 4736569
-2037.2562 1051.8313 5302.1982 3881260
-1998.1356 1047.7942 5281.8477 3683881
-1938.3197 1032.6036 5205.2729 5591878
-1886.0222 1020.9918 5146.7388 5855563
-1842.3705 1013.7554 5110.2607 6052943
-1819.0884 1017.6729 5130.0083 5329221
-1822.2822 1036.787 5226.3608 6184530
-1785.0043 1033.1375 5207.9644 4539705
-1751.7355 1031.7208 5200.8232 4473655
-1693.0562 1015.0194 5116.6323 4012846
-1640.4637 1001.4245 5048.1016 3815469
-1616.7247 1005.2653 5067.4629 3617835
-1597.6193 1012.1873 5102.356 3288870
-1537.9183 993.1604 5006.4429 3815214
-1497.5209 986.09607 4970.832 5328707
-1462.9607 982.66901 4953.5566 4407862
-1452.314 995.49329 5018.2026 4999485
-1409.9873 986.68457 4973.7988 5592648
-1396.8198 998.34052 5032.5557 4605754
-1316.6803 961.59424 4847.3203 4868412
-1288.2634 961.82513 4848.4844 4802876
-1275.1505 973.75342 4908.6138 3354917
-1272.6848 994.55884 5013.4927 2236436
-1212.8662 970.46851 4892.0552 3552296
-1183.0649 969.80463 4888.7085 2828573
-1127.6592 947.59149 4776.7339 3683628
-1110.1885 956.93268 4823.8218 4538937
-1082.1119 957.38428 4826.0986 3485992
-1046.0555 950.6087 4791.9434 3289124
-1001.4708 935.48853 4715.7236 3749675
-982.47723 944.09149 4759.0908 3420453
-937.03052 927.03229 4673.0962 2631450
-913.60345 931.38202 4695.0229 3289125
-886.17224 931.79462 4697.103 3618090
-855.30389 928.50281 4680.5093 3025440
-818.49866 918.32935 4629.2256 2433814
-785.99396 912.44257 4599.5508 3617577
-770.76184 926.90466 4672.4531 2828060
-732.82147 914.11829 4607.998 2762267
-704.54706 912.86609 4601.686 2301715
-668.02936 900.40247 4538.8574 3354404
-644.11633 904.59479 4559.9907 4407607
-621.50256 911.05896 4592.5762 4078386
-589.20569 903.27075 4553.3164 4012594
-552.71429 887.99591 4476.3174 3749423
-533.62177 900.54346 4539.5684 3815730
-511.70123 909.39734 4584.2002 3289644
-485.27567 910.78876 4591.2144 5328971
-448.14102 891.05237 4491.7246 4671042
-426.60083 901.78827 4545.8433 2960424
-404.0144 911.61078 4595.3579 2960681
-378.74908 916.37164 4619.3569 2170908
-351.62662 917.03101 4622.6807 2236701
-313.27087 886.03052 4466.4097 722950
-286.22714 884.25464 4457.4575 3157288
-260.92557 888.04706 4476.5747 3551788
-232.72652 881.72028 4444.6821 4210230
-205.27791 876.98474 4420.8105 4275767
-180.27213 882.82642 4450.2583 5262661
-154.40785 885.74573 4464.9741 4736318
-128.17094 887.29285 4472.7729 5328970
-101.64672 887.1391 4471.998 4802627
-73.678413 869.82849 4384.7363 4539200
-48.732269 888.77271 4480.2329 4539455
-21.758001 871.80566 4394.7036 3684402
4.2603679 866.60211 4368.4727 4473661
30.258417 869.75098 4384.3457 4933957
56.257084 869.99994 4385.6011 5131336
81.953629 866.89581 4369.9531 5263178
107.48688 863.96973 4355.2031 4210490
132.10931 856.27338 4316.4062 4144697
159.38074 865.45837 4362.707 4013111
184.8889 863.84094 4354.5537 4802628
205.70299 843.37421 4251.3828 3749940
234.7475 857.4364 4322.269 5065799
265.24789 873.52631 4403.377 3552560
288.65723 865.4729 4362.7803 3026216
312.67691 860.4231 4337.3247 3684146
341.69858 868.85931 4379.8511 4473661
369.6633 873.60663 4403.7817 4605246
391.23526 863.61639 4353.4219 4012596
424.00522 878.05157 4426.1885 4012595
445.69028 869.18695 4381.5024 4736576
464.36288 855.74695 4313.7524 2696994
491.56638 858.61017 4328.186 5328201
507.34769 842.22797 4245.6045 4406844
535.04175 846.23535 4265.8057 4406844
581.11926 877.64496 4424.1387 5920594
592.97168 856.88513 4319.4902 1907221
613.85309 850.35114 4286.5527 3354667
637.53912 848.06714 4275.0396 1644050
667.87946 854.47113 4307.3213 2038808
674.11163 830.69556 4187.4707 3025700
694.46259 825.38892 4160.7202 2828322
729.85406 837.70941 4222.8267 3815216
748.53076 830.664 4187.3115 2695967
771.4668 828.64594 4177.1387 2499358
807.70685 840.59906 4237.3936 1907221
821.87347 829.5517 4181.7046 5065285
836.04657 819.15747 4129.3081 4407355
852.44537 811.47314 4090.572 4012596
886.19183 820.271 4134.9209 2236185
904.54736 814.73254 4107.0024 3552042
925.48193 811.74646 4091.95 3485992
951.4115 813.18231 4099.1875 3091490
953.71338 794.85443 4006.7986 4933436
999.67419 812.91998 4097.8652 3814954
1011.7329 803.21368 4048.9365 3617576
1042.0284 808.09985 4073.5674 4736316
1058.807 802.51965 4045.438 5197125
1098.2699 813.99939 4103.3066 4736317
1104.5551 800.92419 4037.3958 3881006
1125.578 798.86353 4027.0078 3618347
1133.0409 787.46417 3969.5447 6644829
0 0 0 0
1024.649 683.73993 3446.6787 65540
1065.3011 696.97296 3513.3855 7
1048.2114 672.64539 3390.7522 9
1066.4938 671.50452 3385.001 8
1085.2035 670.6698 3380.7935 11
1092.4368 662.90137 3341.6335 11
1107.8994 660.31439 3328.5925 11
1119.0099 655.26941 3303.1611 11
1131.4255 651.14899 3282.3904 11
1143.787 647.13715 3262.1672 11
1154.2222 642.18695 3237.2136 11
1159.5723 634.6156 3199.0471 11
1168.9131 629.43683 3172.9412 9
1181.6171 626.20441 3156.6467 5
1210.8273 631.68384 3184.2683 5000012
1198.5458 615.68134 3103.6008 6380889
1248.5934 631.69641 3184.3315 6775648
1267.4316 631.68005 3184.2493 4934221
1288.0844 632.5553 3188.6611 9
1346.9347 651.89209 3286.1365 16
1392.4321 664.30737 3348.7207 16
