# .PCD v0.7 - Point Cloud Data file format
VERSION 0.7
FIELDS x y z rgb
SIZE 4 4 4 4
TYPE F F F U
COUNT 1 1 1 1
WIDTH 1305
HEIGHT 1
VIEWPOINT 0 0 0 1 0 0 0
POINTS 1305
DATA ascii
849.47607 626.88654 4322.1475 2104602
890.37299 637.83472 4397.6309 723465
917.81165 638.79333 4404.2402 3223852
935.17554 632.88092 4363.4761 1776149
935.8399 616.28925 4249.083 3355434
941.16394 603.5553 4161.2871 3355432
986.02167 616.1767 4248.3066 4999742
996.26227 607.0755 4185.5576 3420708
1011.9855 601.67627 4148.332 4144432
1020.7169 592.47467 4084.8901 5196865
1052.0433 596.51086 4112.7183 4012336
1091.2355 604.72321 4169.3394 3947058
1106.0923 599.38464 4132.5322 3749680
1133.9934 601.19293 4144.9995 2630945
1151.8984 597.73743 4121.1753 2893859
1180.1707 599.69336 4134.6606 3486253
1192.8718 593.81842 4094.155 3486509
1191.6653 581.3924 4008.4822 2959909
1248.1267 597.03735 4116.3481 5986644
1242.2305 582.82568 4018.364 3157289
1269.9624 584.62946 4030.8005 3223081
1311.0547 592.40356 4084.3999 3354667
1319.4979 585.41064 4036.1865 2301980
1349.606 588.10748 4054.7803 4538941
1368.3834 585.85889 4039.2771 5065284
1380.4534 580.86517 4004.8474 3947059
1404.5753 581.02588 4005.9551 3486251
1419.2072 577.32068 3980.4092 4406840
1427.8582 571.34351 3939.1987 3222819
1465.8309 577.10272 3978.9062 3353636
1479.538 573.27728 3952.5315 3089948
1505.6991 574.32147 3959.7307 2826777
1523.1522 572.06311 3944.1602 2498068
1546.1261 571.9151 3943.1396 2958362
1561.9717 569.17401 3924.241 3682343
1583.8057 568.66351 3920.7212 3024156
1571.1929 555.97845 3833.2627 3879978
1627.6532 567.74866 3914.4141 3024669
1603.249 551.37781 3801.543 5459525
1626.1703 551.51093 3802.4607 4275249
1678.151 561.36115 3870.3743 5525059
1722.4795 568.42047 3919.0457 3814956
1732.0968 563.98962 3888.4966 4670266
1745.1208 560.76984 3866.2974 3617837
1744.3229 553.24957 3814.448 3551788
1760.178 551.13605 3799.8757 2499358
1783.7336 551.45654 3802.0859 5196871
1798.6122 549.11993 3785.9756 3091494
1815.8021 547.5379 3775.0681 3815216
1836.7877 547.12494 3772.2212 2564892
1849.1702 544.19012 3751.9866 3880496
1898.8395 552.16785 3806.9897 3090723
1876.606 539.29492 3718.2356 4143668
1895.7722 538.47998 3712.6174 2696222
0 0 0 0
0 0 0 0
0 0 0 0
0 0 0 0
1469.6616 394.55121 2720.2825 131078
1480.1859 393.06503 2710.0356 9
1493.5377 392.35352 2705.1301 65547
1494.7762 388.50873 2678.6218 65547
1502.1804 386.33044 2663.6033 65547
1509.4746 384.16949 2648.7043 65547
1520.2587 382.93201 2640.1724 65547
1529.3215 381.29065 2628.856 65547
1527.0808 376.89261 2598.533 65547
1532.6986 374.5025 2582.0542 65546
1537.4336 371.94614 2564.429 65544
1532.6812 367.16699 2531.4785 9
0 0 0 0
0 0 0 0
0 0 0 0
0 0 0 0
0 0 0 0
0 0 0 0
0 0 0 0
0 0 0 0
0 0 0 0
0 0 0 0
2379.5913 514.64056 3548.2534 131585
2424.9812 519.86328 3584.2622 1578002
2459.2756 522.63739 3603.3884 1051657
2498.9219 526.49115 3629.959 393728
2524.6199 527.3656 3635.9878 196608
2525.7805 523.14307 3606.875 196864
2533.9402 520.42883 3588.1614 985604
2603.9888 530.36487 3656.6667 1051142
2592.9597 523.75995 3611.1279 3616811
2594.0491 519.6908 3583.073 4669497
2637.2153 524.04907 3613.1213 3485224
2661.5149 524.61823 3617.0454 2761501
2665.0359 521.11523 3592.8938 854021
2671.7935 518.29565 3573.4541 2432023
2704.8081 520.57397 3589.1621 1840396
2727.6755 520.87903 3591.2651 3287586
2723.3254 516.02203 3557.7783 3550757
2762.887 519.49628 3581.7317 3879722
2743.9875 512.00916 3530.1106 3090206
2736.2852 506.70877 3493.5667 3024926
2761.5879 507.55405 3499.3945 2827292
2726.2136 497.31799 3428.8208 2366741
2761.9375 500.10721 3448.0515 788739
2755.8047 495.33206 3415.1287 3683371
2781.1465 496.24258 3421.4062 3419688
2790.4565 494.30011 3408.0137 3617324
2815.0994 495.082 3413.4045 2696478
2841.9995 496.24698 3421.4365 1774863
2813.1206 487.7247 3362.6787 3024930
2809.9819 483.75369 3335.3 3287842
2870.9817 490.80276 3383.9009 3090463
2898.8098 492.12262 3393.0005 4143150
2900.6045 489.03506 3371.7131 3024669
2934.99 491.44693 3388.342 3353122
2954.3679 491.33017 3387.5369 3024159
2953.8284 487.92496 3364.0593 2103056
2977.1526 488.4808 3367.8918 1905935
2926.124 476.91104 3288.1226 1576971
2966.1748 480.2406 3311.0786 2037778
2991.8574 481.21536 3317.7991 3353638
2994.2673 478.45862 3298.7925 2432536
3038.4807 482.37411 3325.7886 2498330
3065.1292 483.46866 3333.335 1971983
3049.6833 477.95212 3295.3003 1708299
2983.3003 464.57349 3203.0598 3090207
3027.1086 468.41513 3229.5464 1576455
3029.179 465.7905 3211.4507 1510918
3026.147 462.41904 3188.2056 3024158
3148.1897 478.08313 3296.2036 3089951
0 0 0 0
0 0 0 0
0 0 0 0
0 0 0 0
0 0 0 0
-5042.0039 840.39435 5566.7515 65539
-5116.939 858.50171 5686.6938 65542
-4818.8394 813.8476 5390.9062 65542
-4750.8823 807.72546 5350.3535 6
-4647.7617 795.50244 5269.3887 4
-4545.5151 783.26483 5188.3267 197384
-4460.1978 773.79736 5125.6147 8
-4180.874 730.3114 4837.5645 9
-4140.2573 728.20984 4823.644 11
-4123.3047 730.27014 4837.2915 11
-4206.0303 750.13672 4968.8872 8
-4185.042 751.65601 4978.9507 9
-4168.7236 754.04138 4994.7515 65542
-4148.1094 755.67847 5005.5952 196613
-4156.4902 762.65918 5051.8354 131073
-4216.1538 779.21918 5161.5283 6445916
-4447.8975 828.05701 5485.0288 5722948
-4420.3589 828.9884 5491.1987 6644306
-4435.6597 838.0274 5551.0728 5196858
-4517.0703 859.78473 5695.1929 6776147
-4492.458 861.53729 5706.8018 6579025
-4435.7363 857.11212 5677.4893 6249805
-4463.4888 869.06665 5756.6763 6446927
-4410.2842 865.32129 5731.8667 6183755
-4344.6001 859.05005 5690.3267 5920584
-4361.9131 869.22021 5757.6929 5723204
-4328.2773 869.31763 5758.3384 5328445
-4244.1104 859.18713 5691.2344 6644305
-4188.7666 854.77588 5662.0146 7039063
-4136.7588 850.97986 5636.8696 5986376
-4088.6042 847.92108 5616.6084 5657409
-4067.189 850.40302 5633.0483 5723202
-4060.7732 856.08807 5670.7061 5920582
-4036.5605 858.08484 5683.9326 6315340
-4026.8503 863.22406 5717.9751 5986375
-3901.092 843.36255 5586.4126 6315853
-3879.627 845.90076 5603.2256 6776404
-3870.249 851.14099 5637.937 6184010
-3810.2725 845.24799 5598.9019 6315340
-3771.7161 844.04492 5590.9326 4933687
-3689.8259 833.03723 5518.0181 5723203
-3701.1924 843.07501 5584.5083 5262651
-3610.4529 829.82605 5496.7476 5920580
-3598.9104 834.70416 5529.0596 6184008
-3575.8401 836.97363 5544.0928 6512203
-3526.9395 833.18329 5518.9854 3880483
-3479.292 829.62067 5495.3872 4801585
-3368.1104 810.69818 5370.0449 5590846
-3354.6948 815.17139 5399.6753 5919813
-3357.8621 823.79913 5456.8247 5394494
-3296.7566 816.67285 5409.6206 5263165
-3313.9185 828.98547 5491.1792 5526337
-3260.0061 823.58661 5455.4175 5921095
-3261.9856 832.34106 5513.4067 5986632
-3231.0703 832.79437 5516.4092 5591874
-3243.897 844.6463 5594.9165 5788997
-3234.4946 850.89545 5636.3101 3288864
-3203.4517 851.5224 5640.4634 4538931
-3142.3879 844.09863 5591.2881 3880490
-3109.2107 844.08722 5591.2129 2827801
-3000.6548 823.3913 5454.1235 3156767
-2948.7715 817.96521 5418.1816 5196604
-2978.1582 835.21161 5532.4209 6972758
-2884.0425 817.82056 5417.2231 5262653
-2899.9092 831.57642 5508.3418 6183756
-2858.04 828.90082 5490.6187 6183756
-2836.552 832.14264 5512.0923 6117962
-2818.2383 836.4021 5540.3071 6249549
-2731.1614 820.11377 5432.4131 6183755
-2721.5088 826.96313 5477.7832 5591619
-2696.4939 829.25342 5492.9546 4604724
-2642.3315 822.52655 5448.3955 4275506
-2624.0847 826.9516 5477.707 4209711
-2600.7769 829.87262 5497.0557 4670260
-2565.0081 828.84113 5490.2231 4670517
-2548.4333 834.06506 5524.8267 4538674
-2487.2979 824.65106 5462.4688 5460033
-2385.1394 801.20868 5307.1865 5460033
-2417.209 822.83154 5450.416 4802617
-2413.3147 832.63214 5515.3345 5460290
-2352.791 822.89545 5450.8389 5920585
-2337.5903 828.96027 5491.0122 5789255
-2304.1729 828.64496 5488.9238 5986634
-2277.6511 830.83618 5503.4385 5986377
-2237.6968 828.11987 5485.4458 5986634
-2219.7651 833.59375 5521.7046 5920840
-2184.7488 832.7196 5515.9141 5789254
-2144.5232 829.80316 5496.5957 5197117
-2045.3827 803.64862 5323.3481 5263426
-1984.4193 791.90967 5245.5903 5395011
-1970.5902 798.90607 5291.9341 5658184
-1948.0171 802.52649 5315.9155 5526084
-1874.2043 784.80969 5198.5601 4868153
-1912.4604 814.21307 5393.3271 3814694
-1868.5544 809.04156 5359.0713 4209194
-1800.5671 793.08429 5253.3706 5327675
-1770.2362 793.44366 5255.751 4537903
-1718.0828 783.8595 5192.2656 5261882
-1699.1085 789.33948 5228.5654 5590590
-1652.21 781.80963 5178.688 6248776
-1634.9631 788.2912 5221.6216 5722948
-1578.7531 775.87451 5139.3735 4210225
-1534.0571 768.7392 5092.1094 6117967
-1531.2045 782.70654 5184.6289 5197121
-1488.7335 776.57953 5144.0435 5525576
-1459.4955 777.24341 5148.4414 6512470
-1419.0074 771.81665 5112.4946 5986126
-1365.7008 759.02875 5027.7876 6052176
-1318.6495 749.22461 4962.8452 5394760
-1304.0847 757.85223 5019.9941 6052173
-1262.964 751.08972 4975.1997 5262914
-1264.2809 769.84503 5099.4346 4868155
-1208.7903 754.08069 4995.0117 3486758
-1167.2491 746.44537 4944.4355 3749931
-1134.2965 744.05054 4928.5723 4933948
-1095.5597 737.63477 4886.0742 2960158
-1070.4282 740.2796 4903.5938 3223331
-1039.3816 738.86719 4894.2378 4737084
-1016.072 743.03156 4921.8228 4210483
-981.63678 739.06573 4895.5532 3815467
-951.24982 737.99908 4888.4878 4341811
-908.95544 727.33728 4817.8643 3485989
-871.34644 719.85461 4768.2993 5393985
-833.6297 711.77844 4714.8027 5131327
-808.90198 714.61713 4733.6064 4999742
-790.29156 723.25818 4790.8442 5065792
-761.32166 722.70923 4787.208 4671033
-726.90814 716.75018 4747.7354 2960159
-703.01202 721.09924 4776.5435 4736314
-664.0318 709.69183 4700.9814 4736316
-646.27026 720.9563 4775.5967 4472889
-614.69403 717.13544 4750.2876 1578512
-571.48328 698.7229 4628.3232 2696734
-542.65833 696.92944 4616.4434 3552814
-520.3974 703.82312 4662.1069 1446669
-486.84476 695.36182 4606.0596 3157028
-458.0311 693.06616 4590.853 4012337
-430.77423 692.98486 4590.3145 2828319
-405.20297 695.78717 4608.877 4604473
-373.95889 688.54938 4560.9341 5921105
-349.37137 693.39514 4593.0322 4934210
-322.49127 694.12518 4597.8682 5131588
-294.27966 691.85962 4582.8608 4144436
-268.32721 694.98462 4603.561 4670525
-241.71584 696.91724 4616.3628 2893857
-209.92897 682.51685 4520.9746 3815214
-180.66156 673.29236 4459.8721 2894112
-152.27756 664.76294 4403.373 4341301
-127.13777 669.79694 4436.7183 4473399
-101.22632 672.33069 4453.502 5197634
-74.889145 672.8269 4456.7891 6052945
-48.284409 670.15021 4439.0586 4604730
-22.312731 680.36914 4506.7485 4276280
4.3371625 671.38171 4447.2158 1512721
30.808048 673.91339 4463.9854 4342332
58.076611 683.49359 4527.4448 5329227
83.40583 671.40765 4447.3877 3684403
110.64397 676.80261 4483.124 3947319
135.94368 670.54694 4441.6865 5921365
162.7337 672.47943 4454.4873 4671298
189.0135 672.05835 4451.6978 6644573
214.79912 670.19849 4439.3779 3947060
240.77538 669.27435 4433.2568 3157032
264.5502 663.01489 4391.7944 3288874
291.3569 664.79462 4403.583 4144182
316.7655 663.35388 4394.0396 1709842
338.19229 654.427 4334.9082 3617325
368.10504 662.02216 4385.2183 3946033
392.6138 659.53766 4368.7612 4999748
410.7413 647.30408 4287.7261 6775903
445.78729 661.60522 4382.4565 5855314
477.09296 669.08612 4432.0098 5131335
499.6582 664.16815 4399.4336 3948088
515.10388 650.74371 4310.5103 5066569
540.84521 650.97992 4312.0752 4803397
560.63269 644.35205 4268.1719 2894886
579.26019 637.02069 4219.6094 2828837
601.40112 633.99994 4199.6001 3749939
630.96967 638.73846 4230.9878 4539710
659.25323 641.86359 4251.6885 5065798
692.42365 649.34143 4301.2217 2566434
716.29156 647.87439 4291.5039 6513759
737.54401 644.22333 4267.3193 1118736
783.02509 661.27576 4380.2744 2499873
793.58832 648.69147 4296.9165 4342078
801.88574 635.09515 4206.8545 5328974
827.15259 635.35333 4208.5649 3881528
852.15613 635.40009 4208.8745 6447455
896.17999 649.22321 4300.4385 3947319
920.05664 648.08997 4292.9321 4078390
924.95569 634.00964 4199.6646 854790
946.5946 631.84088 4185.2983 2499355
961.58575 625.45886 4143.0239 2959904
968.06598 613.99652 4067.0979 4605242
991.89124 613.82501 4065.9614 6118737
997.51532 602.66498 3992.0381 4144691
1033.6306 610.01715 4040.7385 4473144
1068.5419 616.3418 4082.6328 5591625
1082.7394 610.70306 4045.2822 4144436
1099.0502 606.47485 4017.2747 2696731
1139.5994 615.51746 4077.1726 2236691
1163.2351 615.23901 4075.3279 2302486
1168.1869 605.29089 4009.4319 4604731
1192.8535 605.75092 4012.479 4209975
1221.5142 608.18158 4028.5796 3420717
1245.5723 608.27136 4029.1743 2762787
1266.6704 606.93945 4020.3518 4078390
1280.5242 602.24963 3989.2869 3025701
1303.1047 601.75977 3986.0417 2302235
1322.7159 599.94055 3973.9915 2894114
1340.7351 597.47546 3957.6628 4078388
1353.4556 592.77454 3926.5237 3617324
1375.0441 592.05078 3921.7297 1906705
1377.855 583.40045 3864.4302 1182983
1408.844 586.7688 3886.7419 1840913
1429.8696 585.94592 3881.2915 3353636
1444.5513 582.59058 3859.0659 3090462
1450.4468 575.85156 3814.4268 2892825
1495.4338 584.60126 3872.3843 2235152
1508.8975 580.94934 3848.1941 2169103
1544.7397 585.89417 3880.9482 2892825
1535.6011 573.88354 3801.3901 2958362
1552.8419 571.93622 3788.4915 2695704
1573.7954 571.3924 3784.8892 4998460
1599.999 572.74323 3793.8369 3025441
1599.9126 564.77606 3741.0625 4472887
1640.416 571.15924 3783.3447 3683628
1665.2009 571.97125 3788.7234 5591625
1709.4457 579.35681 3837.6455 3288614
1708.0067 571.26892 3784.0713 3618091
1735.2953 572.87451 3794.7065 4144693
1731.3337 564.25427 3737.6067 3947827
1755.0081 564.74481 3740.856 4539708
1785.1921 567.29181 3757.7271 2763297
1802.5698 565.75659 3747.5579 4736573
1811.7156 561.70654 3720.7302 3946801
1807.1898 553.5661 3666.8081 3223078
1812.2175 548.51068 3633.321 3486507
1862.6101 557.14349 3690.5046 4538938
1830.3159 541.1297 3584.4299 4012337
0 0 0 0
0 0 0 0
0 0 0 0
1448.0695 409.1264 2710.0432 131078
1468.9661 410.47787 2718.9951 65545
1468.6102 405.92575 2688.842 65546
1495.0239 408.79102 2707.8218 65547
1509.7681 408.4386 2705.4871 65547
1504.1963 402.65518 2667.178 65547
1505.895 398.918 2642.4231 65547
1508.9293 395.60797 2620.4973 65547
1515.4919 393.28098 2605.0833 65547
1520.2992 390.54996 2586.9932 65547
1527.6653 388.52426 2573.575 65547
1530.3116 385.3501 2552.5496 65547
1523.0793 379.7749 2515.6196 65545
1535.6697 379.20255 2511.8284 8
1527.3514 373.52786 2474.2393 8
1543.0431 373.77704 2475.8899 10
1559.7899 374.27478 2479.1868 12
1575.3706 374.48599 2480.5859 197392
1575.3588 371.02097 2457.6338 328463
0 0 0 0
0 0 0 0
0 0 0 0
0 0 0 0
0 0 0 0
0 0 0 0
2449.0984 541.7406 3588.4763 2959654
2487.3611 545.4679 3613.1658 3288363
2510.3948 545.82037 3615.501 2630431
2518.0073 542.84241 3595.7744 1577743
2521.9851 539.13733 3571.2324 2367259
2537.6233 537.96588 3563.4729 1906449
2566.7119 539.64172 3574.5735 2300950
2582.0317 538.41895 3566.4739 2432536
2586.3054 534.93134 3543.3721 2695706
2598.5957 533.14471 3531.5371 2169362
2583.166 525.74475 3482.5203 1445639
2616.8762 528.38416 3500.0039 3682601
2596.1919 520.08545 3445.0332 3024669
2657.7402 528.26105 3499.1882 2103566
2689.2058 530.37701 3513.2041 2761240
2720.0842 532.34552 3526.2437 2827290
2688.6023 522.17261 3458.8584 3616806
2650.0845 510.79745 3383.5098 3616806
2619.6038 501.13058 3319.4768 3551015
2708.9182 514.35394 3407.0679 3221793
2672.7698 503.73566 3336.7327 2828063
2726.8938 510.16199 3379.3005 2433050
2737.8684 508.4809 3368.1648 2762015
2732.4607 503.80359 3337.1826 2893603
2744.7798 502.43845 3328.1396 3485740
2775.8149 504.49432 3341.7581 1709330
2812.5864 507.55627 3362.0403 1643536
2816.7361 504.72964 3343.3167 2234648
2782.1594 495.05164 3279.2097 3485223
2824.5095 499.1011 3306.0334 1708812
2823.219 495.43643 3281.7588 2103569
2843.8223 495.63779 3283.0923 1906190
2816.3167 487.50854 3229.2446 3090721
2812.7612 483.6069 3203.4004 2498327
2867.6565 489.7399 3244.0251 2498327
2901.093 492.15082 3259.9949 2037776
2926.9558 493.25351 3267.2991 2498327
2908.4121 486.90744 3225.2629 3814187
2948.2866 490.36044 3248.1355 2761500
2981.271 492.6301 3263.1694 2762531
2942.8594 483.1489 3200.3662 3222309
2938.9885 479.42361 3175.6902 2893089
2943.4541 477.09692 3160.2783 2432281
2988.4209 481.32297 3188.2715 1774352
3001.8501 480.4483 3182.4775 1839886
3017.0186 479.86115 3178.5884 1839885
3051.2117 482.28839 3194.6663 919043
0 0 0 0
0 0 0 0
0 0 0 0
0 0 0 0
0 0 0 0
-5078.0879 879.6347 5606.5913 986888
-5058.79 882.06311 5622.0698 2039066
-4861.2866 853.24561 5438.3931 3223597
-4768.5913 842.56189 5370.2974 1908251
-4675.123 831.59698 5300.4097 4079419
-4395.8369 787.2074 5017.481 4671560
-4341.9761 782.8576 4989.7559 263430
-4332.7695 786.55432 5013.3184 6
-4122.9146 753.62567 4803.4385 9
-4238.9697 780.22632 4972.9854 12
-4221.3516 782.42328 4986.9878 9
-4211.4707 786.0954 5010.3931 9
-4185.2246 786.74323 5014.522 65544
-4296.3955 813.41705 5184.5347 196613
-4293.0571 818.63922 5217.8198 131074
-4211.7988 808.97089 5156.1963 4604223
-4390.1045 849.38092 5413.7603 6380883
-4385.1641 854.67096 5447.478 6446672
-4385.6504 861.1051 5488.4878 6315341
-4373.248 865.08582 5513.8599 6446929
-4414.4443 879.80878 5607.7007 6710098
-4271.0532 857.68732 5466.7036 5065273
-4304.7729 871.06592 5551.9761 4670515
-4305.9771 878.02051 5596.3027 5196859
-4293.9365 882.36127 5623.9702 5591616
-4254.3364 881.06262 5615.6924 4933427
-4181.0952 872.7215 5562.5278 5261878
-4136.5005 870.2746 5546.9321 4669742
-4055.2976 860.02496 5481.603 4208934
-3960.6016 846.72504 5396.8325 3946019
-3904.1841 841.45868 5363.2661 6183237
-3852.4912 837.13251 5335.6924 5788736
-3919.5286 858.74792 5473.4639 5262650
-3934.6492 869.25446 5540.4302 6973524
-3898.1665 868.44153 5535.2485 6775122
-3879.071 871.5213 5554.8784 3288350
-3690.5049 836.25238 5330.0825 5656893
-3710.9058 848.13434 5405.8154 5459514
-3640.979 839.39905 5350.1382 6117701
-3670.4817 853.63416 5440.8696 6446666
-3581.74 840.37817 5356.3789 5459771
-3503.4795 829.36621 5286.1914 5525564
-3537.3892 844.94885 5385.5117 5656894
-3464.709 835.12311 5322.8843 7697246
-3499.0364 851.14655 5425.0142 5985859
-3497.8447 858.74689 5473.4575 5130550
-3328.8225 824.90039 5257.7271 3946533
-3278.9033 820.20746 5227.8154 5196601
-3245.3367 819.55457 5223.6538 5985860
-3259.1499 830.96924 5296.4087 4341037
-3228.5388 831.16907 5297.6826 3617057
-3166.4575 823.19159 5246.8359 4801331
-3157.9028 829.10925 5284.5537 5591104
-3227.1353 855.77307 5454.5029 5393979
-3247.8503 869.98053 5545.0576 6315338
-3215.6643 870.16321 5546.2222 5854789
-3168.3289 866.20782 5521.0117 4209964
-3108.4226 858.69727 5473.1411 3354656
-2996.9255 836.62628 5332.4653 3485731
-2979.8826 840.7337 5358.6455 4012330
-2909.2373 829.64368 5287.9595 5328191
-2897.3723 835.25714 5323.7388 6052170
-2922.6208 851.81128 5429.251 5460289
-2855.5479 841.52679 5363.7002 4736311
-2813.187 838.37549 5343.6143 6052426
-2782.1777 838.57379 5344.8784 5986374
-2775.4829 846.1897 5393.4209 5262908
-2711.7693 836.39667 5331.002 5855047
-2661.8093 830.66492 5294.4688 5855047
-2652.7837 837.72302 5339.4556 7039577
-2640.8037 844.0072 5379.5098 5592133
-2564.7693 829.72302 5288.4653 4538676
-2615.5632 856.6228 5459.9189 5920584
-2526.6921 837.8819 5340.4688 5525825
-2506.2842 841.6568 5364.5288 4604722
-2450.5603 833.51654 5312.6445 5328446
-2407.0688 829.37921 5286.2739 4209966
-2360.4048 824.02521 5252.1489 4276015
-2334.624 825.91595 5264.2002 2762265
-2288.1985 820.45563 5229.397 3749673
-2280.9131 829.07196 5284.3159 5131327
-2287.448 843.02161 5373.2275 4867897
-2226.4802 832.13635 5303.8477 5788999
-2201.1609 834.45343 5318.6162 4999482
-2173.7512 836.03406 5328.6909 4999480
-2127.4712 830.29663 5292.1216 5460031
-2063.9031 817.53943 5210.8101 5394238
-2044.1226 822.00311 5239.2603 4802101
-2007.1025 819.56482 5223.7197 5591616
-1962.9583 814.09564 5188.8604 5262651
-1934.891 815.22607 5196.0654 5657410
-1923.6058 823.57825 5249.3003 5394238
-1890.1212 822.54425 5242.7095 5262652
-1873.6477 829.00214 5283.8711 4604467
-1802.8932 811.25458 5170.7524 3748901
-1751.6729 801.83533 5110.7158 5130041
-1710.319 796.68036 5077.8594 4143660
-1681.0386 797.06543 5080.3135 4867896
-1634.6895 789.22369 5030.3325 5525826
-1581.5563 777.75464 4957.231 5591619
-1546.7946 775.05682 4940.0356 6315342
-1555.3821 794.39502 5063.293 3881004
-1538.0865 801.01465 5105.4849 4538677
-1487.3583 790.13904 5036.1665 4999485
-1443.5781 782.5849 4988.0176 4341811
-1400.3671 775.02972 4939.8628 3486248
-1364.2219 771.14606 4915.1094 6051920
-1332.9668 769.91742 4907.2783 6644827
-1298.1776 766.5473 4885.7979 5789774
-1265.2563 764.15137 4870.5269 6184532
-1249.0509 771.97485 4920.3921 6513496
-1202.0314 760.67242 4848.353 6644569
-1173.6018 760.86877 4849.6045 5658187
-1146.0988 761.69073 4854.8433 2236180
-1085.3761 739.909 4716.0112 4341814
-1057.3043 739.82239 4715.4595 4868156
-1024.0729 736.02283 4691.2417 4802364
-995.28809 735.29614 4686.6104 2631194
-974.85632 740.87604 4722.1753 1776142
-929.20483 727.05267 4634.0684 4209712
-906.4422 730.84204 4658.2207 5525572
-887.58386 738.11633 4704.5854 5328191
-846.30762 726.61505 4631.2788 3223072
-816.17432 724.23041 4616.0796 4736055
-797.27826 731.99756 4665.5859 5328705
-768.96149 731.36267 4661.5391 4868154
-742.6167 732.62592 4669.5908 6381394
-717.33197 735.07324 4685.1895 4539446
-682.9657 728.0368 4640.3408 4671289
-657.02789 729.77161 4651.3979 5460549
-619.71106 718.46588 4579.3379 3947825
-588.79565 713.88617 4550.1479 5197123
-549.7677 698.55853 4452.4531 3815215
-521.61664 696.203 4437.4395 4868157
-503.39655 707.55591 4509.8003 2104595
-474.44586 704.25372 4488.7529 1841169
-440.91632 693.35883 4419.3115 4802112
-412.61737 689.83258 4396.8359 2696475
-388.77371 693.78162 4422.0063 3288613
-364.22974 696.96155 4442.2739 591876
-338.64993 698.50037 4452.082 2695705
-310.22702 693.93945 4423.0122 2629912
-279.42856 682.73267 4351.5825 3090717
-256.28519 689.85236 4396.9619 4011564
-235.62732 706.03125 4500.0825 3814443
-203.16571 686.45734 4375.3228 3222820
-174.92621 677.50885 4318.2871 3091493
-151.11588 685.58783 4369.7808 2499355
-124.83099 683.46002 4356.2188 3354663
-99.769119 688.66473 4389.3921 5854796
-73.178261 683.26434 4354.9712 5526087
-46.958603 677.33356 4317.1699 3947056
-21.326393 675.82062 4307.5269 3552557
4.2309999 680.65802 4338.3594 4079158
30.252569 687.74005 4383.4985 5789522
55.855415 683.15717 4354.2881 4078646
82.3246 688.71832 4389.7339 4078391
108.2956 688.44177 4387.9712 1644309
133.49672 684.32587 4361.7373 4473407
157.51482 676.4646 4311.6313 3421231
184.86256 683.10156 4353.9336 5592146
210.58543 682.84387 4352.2915 4013112
235.65623 680.75867 4339.001 4539712
262.29108 683.15753 4354.2905 1052428
280.94324 666.19739 4246.1904 4868163
305.05038 663.89771 4231.5327 4867905
328.44119 660.50671 4209.9194 5065025
353.43967 660.59943 4210.5103 4604475
376.65448 657.56598 4191.1758 4013108
406.74985 666.17682 4246.0596 4604991
435.38367 671.53003 4280.1797 2894373
465.2218 678.04919 4321.7314 3092010
486.82449 672.51129 4286.4341 2828581
505.49869 663.6778 4230.1313 5526351
525.94116 657.89099 4193.2476 4472893
557.13861 665.4726 4241.5708 2104860
572.08301 653.82428 4167.3271 2565152
589.29199 645.62109 4115.042 5328457
615.99603 648.05914 4130.5815 4276026
639.06586 646.63354 4121.4951 7433833
675.41138 658.2514 4195.5444 4013111
698.53101 656.612 4185.0952 6250073
727.78809 660.65631 4210.873 5723986
754.77271 662.43811 4222.2295 3026475
774.57947 658.00781 4193.9922 3618354
790.26556 650.46143 4145.8931 6381659
810.53302 647.02722 4124.0044 5000007
832.27014 644.93304 4110.6562 5262921
854.11224 643.0368 4098.5703 4868163
892.6391 653.45972 4165.0034 4605247
917.68219 653.71643 4166.6396 3684146
930.5929 645.54364 4114.5479 1184014
952.94598 644.17102 4105.7993 394754
964.61694 635.82562 4052.6074 1710356
974.41907 626.68378 3994.3396 3157799
986.66663 619.51093 3948.6216 5657419
1005.8339 616.91467 3932.0737 2696732
1033.8202 619.72247 3949.9697 6250068
1060.9442 621.90045 3963.8521 3618089
1085.4528 622.48425 3967.5728 3749676
1124.3605 631.12573 4022.6516 2960162
1137.4674 625.22668 3985.0527 3223080
1155.897 622.43365 3967.2505 3683889
1194.4569 630.37592 4017.8726 5197385
1204.1477 623.06976 3971.3047 5394764
1224.4478 621.42798 3960.8406 4013111
1239.5645 617.26697 3934.3191 3157289
1259.8839 615.80255 3924.9851 4670272
1284.5164 616.461 3929.1821 3288875
1305.0956 615.18549 3921.0522 2104345
1321.4039 611.97668 3900.6001 3946803
1326.0919 603.58899 3847.1387 1314826
1335.131 597.43188 3807.8948 2959651
1365.1981 600.73242 3828.9316 2169621
1372.4321 594.04205 3786.2886 328706
1393.6473 593.52112 3782.9683 3090465
1418.1415 594.39099 3788.5129 3485220
1415.671 584.10815 3722.9724 2761498
1442.9205 586.21521 3736.4023 2827290
1485.741 594.48901 3789.1375 2103311
1505.5425 593.44299 3782.4705 3485220
1495.1393 580.69641 3701.2268 3024924
1529.7098 585.53326 3732.0557 1314567
1520.7096 573.79218 3657.2207 4406321
1537.0774 571.81836 3644.6401 4407351
1545.5037 566.98584 3613.8386 4077874
1609.5117 582.39752 3712.0693 3749421
1630.1327 581.90582 3708.9351 2893855
1647.6296 580.32678 3698.8708 2367510
1654.1417 574.97095 3664.7341 2564632
1704.3986 584.76233 3727.1421 3354148
1723.641 583.79865 3720.9995 2959906
1712.4688 572.68793 3650.1824 2828323
1753.0455 578.94452 3690.0603 2104598
1757.2812 573.19318 3653.4026 3749423
1794.5703 578.23199 3685.519 4275511
1768.3757 562.94037 3588.0537 2235930
1785.459 561.62543 3579.6726 4209460
1790.5774 556.62195 3547.7815 3091491
1796.9666 552.12506 3519.1194 5591367
0 0 0 0
0 0 0 0
1407.9952 418.05661 2664.5977 196617
1436.4888 421.78632 2688.3701 65547
1469.2295 426.66766 2719.4827 65549
1474.6946 423.60812 2699.9817 12
1487.3739 422.66428 2693.9661 12
1499.7717 421.66141 2687.5737 65547
1479.0769 411.47333 2622.6372 65547
1489.8121 410.14993 2614.2021 65547
1503.4341 409.64029 2610.9539 65547
1511.6057 407.67111 2598.4028 65547
1517.6464 405.17279 2582.479 65547
1523.6479 402.71396 2566.8071 65547
1521.7391 398.23367 2538.2507 11
1507.7482 390.71014 2490.2976 11
1515.1107 388.81232 2478.2012 11
1526.3074 387.92535 2472.5479 11
1527.1774 384.45563 2450.4326 16
1548.4188 386.13132 2461.113 21
1589.64 392.71164 2503.0544 394790
1607.4357 393.43661 2507.6753 263461
1616.7185 392.08383 2499.053 460834
1613.0709 387.64819 2470.7812 10
1630.095 388.21536 2474.3962 4079170
1607.0905 379.32443 2417.7275 5395024
0 0 0 0
0 0 0 0
0 0 0 0
2379.9307 542.39636 3457.1111 3091496
2412.0728 545.02985 3473.8962 3223338
2437.7988 546.18127 3481.2351 3420460
2462.5032 547.08636 3487.0037 4341047
2474.8528 545.25433 3475.3269 2959393
2484.3887 542.83777 3459.9246 2234901
2523.9751 546.97314 3486.2822 2959138
2544.5342 546.95129 3486.1431 1314055
2545.8418 542.82507 3459.8435 985090
2562.5396 542.02008 3454.7124 1906192
2555.0603 536.15454 3417.3267 1445642
2579.2803 536.98059 3422.592 1708815
2601.9587 537.47546 3425.7461 1511948
2591.9192 531.25647 3386.1079 3287843
2577.4697 524.23621 3341.3621 1708812
2567.8982 518.30743 3303.5737 3485222
2565.6636 513.93811 3275.7246 3024670
2581.5701 513.24115 3271.282 3616805
2606.3174 514.29901 3278.0247 4011566
2640.9167 517.27087 3296.9668 2827805
2676.1887 520.32996 3316.4646 4012079
2717.2454 524.46088 3342.7944 3749423
2714.3108 520.10266 3315.0161 3552300
2727.4517 518.86523 3307.1289 4209974
2755.9509 520.54633 3317.844 4538426
2766.4851 518.83447 3306.9326 1775377
2763.8926 514.70215 3280.5945 2300439
2779.26 513.94873 3275.7925 2037778
2736.4692 502.5256 3202.9839 1643020
2769.5366 505.09454 3219.3577 1643020
2796.0059 506.4332 3227.8899 1182726
2826.3621 508.45288 3240.7629 3024672
2801.6055 500.59766 3190.6953 2563863
2858.2666 507.29813 3233.4026 2169362
2853.1277 503.01382 3206.0957 2695705
2844.7693 498.22235 3175.5559 2564377
2845.0327 494.99399 3154.979 2695449
2876.6311 497.22397 3169.1924 3814187
2853.5977 490.04315 3123.4236 4340533
2829.4182 482.75943 3076.9985 4011312
2819.7593 478.03064 3046.8584 2827551
2851.0247 480.25568 3061.0405 3748651
2923.9058 489.41846 3119.4419 3353637
2897.135 481.89069 3071.4614 2893087
2925.6199 483.59039 3082.2949 3419429
2939.675 482.89859 3077.8857 2827548
0 0 0 0
0 0 0 0
0 0 0 0
0 0 0 0
0 0 0 0
-4606.6436 828.11151 5086.0811 6644560
-4862.5259 879.867 5403.9521 4473648
-4821.2471 878.18146 5393.6001 4868150
-4825.9009 884.89575 5434.8379 4803386
-4660.1465 860.24365 5283.4297 3552810
-4440.9751 825.33087 5069.0029 4671553
-4318.7451 808.08112 4963.0586 65793
-4302.5781 810.57654 4978.3848 4
-4134.4927 784.28821 4816.9277 9
-4240.7695 810.04102 4975.0962 9
-4209.3159 809.66211 4972.769 11
-4203.667 814.27631 5001.1084 12
-4188.5728 817.11353 5018.5337 65546
-4288.7036 842.63031 5175.2524 196616
-4289.0571 848.76947 5212.958 196866
-4243.4937 845.84534 5194.9985 4867390
-4348.2217 873.05457 5362.1113 5920330
-4302.6782 870.27008 5345.0098 5986374
-4258.4473 867.71179 5329.2974 6709840
-4249.1709 872.29089 5357.4214 6446409
-4201.0664 868.90814 5336.645 6249031
-4124.8857 859.62299 5279.6177 5327928
-4052.6729 851.02911 5226.8359 5130549
-3980.9653 842.40985 5173.8979 5064756
-4101.7217 874.70007 5372.2178 5853759
-4083.135 877.54773 5389.7075 5853502
-4023.8689 871.62854 5353.3535 4077348
-3959.2017 864.43616 5309.1792 5656380
-3968.8901 873.4931 5364.8047 6577482
-3722.7915 825.94678 5072.7856 4209192
-3804.0288 850.84094 5225.6807 6578765
-3792.0757 855.12897 5252.0166 6184008
-3791.8223 862.14825 5295.1274 6776145
-3799.9326 871.20215 5350.7344 7302234
-3775.3875 872.85852 5360.9072 5788738
-3712.6555 865.63947 5316.5693 4538412
-3599.7322 846.49402 5198.9824 4801584
-3606.8667 855.4939 5254.2578 6051651
-3590.406 859.00543 5275.8247 5525307
-3547.3486 856.15948 5258.3457 5064757
-3501.3345 852.54309 5236.1348 4933170
-3470.3467 852.55365 5236.1992 4406826
-3387.2302 839.6424 5156.9009 3946276
-3396.8826 849.70135 5218.6812 5985859
-3396.1157 857.31506 5265.4429 5854273
-3374.6504 859.7962 5280.6816 6051909
-3331.9446 856.86163 5262.6582 6315081
-3226.1531 837.49487 5143.7114 6249288
-3207.6826 840.64301 5163.0464 5854530
-3235.9294 856.21283 5258.6733 5065271
-3150.8779 841.81573 5170.2495 5460029
-3140.7805 847.35791 5204.2886 6117702
-3090.7651 842.13379 5172.2031 5986116
-3129.3936 861.19952 5289.3003 6117959
-3079.0535 855.91937 5256.8706 6578510
-3034.2561 852.08777 5233.3379 5196858
-3014.751 855.35303 5253.3926 4670517
-2954.6433 847.04645 5202.375 4144173
-2961.8569 858.06799 5270.0674 3881001
-2853.0432 835.35242 5130.5532 5657410
-2817.2446 833.75616 5120.749 5459775
-2836.6577 848.64282 5212.1797 5723204
-2787.7009 843.17773 5178.6147 5591617
-2795.4319 854.92792 5250.7817 5394238
-2772.2056 857.36841 5265.7705 7105115
-2738.8569 856.69818 5261.6543 6710357
-2673.3047 845.82349 5194.8643 6776405
-2686.8779 860.02203 5282.0688 5262911
-2642.3782 855.74805 5255.8188 5328704
-2639.7473 865.09344 5313.2158 5591620
-2624.0664 870.336 5345.4146 3946794
-2529.1479 849.10443 5215.0151 2104076
-2494.4944 847.83057 5207.1909 3880486
-2497.4397 859.46368 5278.6396 2367767
-2455.1814 855.63873 5255.147 4209451
-2429.9595 857.7287 5267.9834 3157019
-2349.8511 840.24719 5160.6157 920580
-2269.1692 822.0968 5049.1401 3880999
-2274.0969 834.8913 5127.7212 4933688
-2275.0942 846.56982 5199.4482 5065273
-2274.1833 857.84937 5268.7246 5131066
-2221.2869 849.56024 5217.8145 5855045
-2201.6838 853.9505 5244.7783 4670515
-2167.5115 852.7345 5237.3101 4867893
-2114.0488 843.78387 5182.3374 3748899
-2064.499 836.15417 5135.4771 4866865
-1992.6125 819.11395 5030.8203 6314824
-1998.286 833.92346 5121.7769 5722944
-1981.271 839.5755 5156.4902 4209964
-1918.0798 825.53046 5070.229 5327674
-1903.0425 832.09351 5110.5376 4801331
-1877.4838 834.19403 5123.4385 2762261
-1853.0011 836.84949 5139.7476 4472883
-1805.524 829.03546 5091.7559 3551781
-1791.4709 836.56378 5137.9932 4604726
-1730.2343 821.93817 5048.166 3354916
-1699.7988 821.68744 5046.6255 5526086
-1644.6862 809.28491 4970.4521 5394499
-1598.6545 800.97986 4919.4443 4933949
-1575.8243 804.20697 4939.2646 3354916
-1546.057 803.94897 4937.6802 6315602
-1514.9854 802.98969 4931.7881 3486503
-1477.4771 798.51392 4904.2988 2828573
-1456.5696 803.01062 4931.9165 3289125
-1419.9731 798.86493 4906.4551 2762780
-1353.282 777.26093 4773.7681 3881007
-1340.7555 786.5083 4830.563 5526342
-1287.0638 771.48413 4738.2881 5394243
-1255.078 769.09076 4723.5884 6907482
-1245.019 780.33118 4792.6245 4802363
-1180.4875 757.15802 4650.3003 4802105
-1186.7086 779.34204 4786.5493 4934204
-1131.6334 761.37195 4676.1812 5000511
-1126.1835 776.72607 4770.4829 3881261
-1071.4202 757.98383 4655.3721 3617832
-1043.6887 757.88019 4654.7354 3091745
-1013.3253 755.8078 4642.0073 4341813
-979.58228 751.02875 4612.6553 3157538
-953.10834 751.70819 4616.8286 3618090
-921.06122 747.90253 4593.4551 5526085
-893.20282 747.36987 4590.1836 5789257
-851.76788 735.08698 4514.7446 4670517
-840.97363 749.30835 4602.0894 4933432
-811.2597 747.06055 4588.2837 4801850
-766.97455 730.77338 4488.2515 4341298
-736.43286 726.88123 4464.3467 4341555
-718.0899 735.18811 4515.3657 2959645
-690.13196 733.91309 4507.5347 2499607
-657.7345 727.62415 4468.9097 3157281
-646.77051 745.51337 4578.7812 3552296
-619.76715 745.67151 4579.7524 4539191
-571.09479 718.57916 4413.3574 4473142
-543.04926 716.08557 4398.042 5920589
-514.52826 712.68201 4377.1382 4670523
-488.69659 712.83984 4378.1074 4407352
-449.85004 692.96667 4256.0508 4670523
-429.92593 701.61298 4309.1543 3617835
-404.82889 702.37622 4313.8423 2367253
-381.52271 706.55896 4339.5317 854790
-352.8497 700.6889 4303.479 3485989
-328.19638 702.50836 4314.6538 3946542
-303.97345 705.63446 4333.8535 4341299
-276.85922 702.00616 4311.5693 4538678
-250.64824 700.16339 4300.2515 3880235
-230.15871 715.69464 4395.6411 4669752
-200.59262 703.36407 4319.9092 4670265
-171.46893 689.2038 4232.9399 2301975
-148.32303 698.33478 4289.0205 4473145
-120.71884 685.91113 4212.7173 2762526
-95.253891 682.33319 4190.7422 4736317
-70.619804 684.28217 4202.7124 2565149
-45.781708 685.30121 4208.9712 1578770
-20.90151 687.37518 4221.709 3486509
4.1095185 686.08667 4213.7954 5460811
29.398703 693.57318 4259.7759 5592143
53.659489 681.08911 4183.1016 3552560
78.292915 679.73022 4174.7554 4407869
103.42928 682.34192 4190.7959 4934214
131.16684 697.77997 4285.6128 4802627
154.48819 688.5271 4228.7842 4210490
178.0011 682.5918 4192.3306 2960422
201.92685 679.49963 4173.3394 4605249
226.15135 677.97791 4163.9932 3947319
253.74605 685.86511 4212.4346 5263179
273.45621 672.93677 4133.0312 5394250
297.47058 671.85522 4126.3887 5328714
322.55136 673.16357 4134.4243 4012851
343.60776 666.48126 4093.3833 4868163
370.53162 671.31067 4123.0444 4999750
399.17038 678.45734 4166.9375 5329228
423.22177 677.42847 4160.6187 5658706
446.31549 675.06433 4146.0986 6119001
470.88617 675.06445 4146.0991 6250843
495.216 674.73621 4144.0835 6250841
515.7066 669.45526 4111.6489 5263690
540.21399 669.62994 4112.7217 5132106
559.27515 663.32996 4074.0288 4539712
582.41986 662.19427 4067.0535 3815990
605.32324 660.88544 4059.0146 5526350
636.7973 668.67633 4106.8647 5591886
658.98285 666.49921 4093.4934 3421231
690.97882 674.04663 4139.8481 4671041
713.88184 672.5105 4130.4136 5394765
736.69611 670.99542 4121.1084 5395279
754.29169 664.97681 4084.1433 6184282
776.70898 663.45111 4074.7725 3092009
798.00452 661.08801 4060.259 2368287
815.62415 655.90729 4028.4399 3683889
835.73309 652.96606 4010.3757 4933954
850.05591 645.79181 3966.313 3157284
876.99316 648.32892 3981.8955 3749677
910.99591 655.81958 4027.9014 3946803
929.04059 651.73291 4002.802 3223338
952.09302 651.27521 3999.991 1841685
955.08759 637.45264 3915.0959 1446670
986.47131 642.78406 3947.8401 3156773
979.87323 623.69287 3830.5862 2827807
1008.1127 627.13843 3851.7478 5196867
1047.906 637.45972 3915.1392 5525577
1056.8936 629.00018 3863.1824 3881009
1084.061 631.4895 3878.4714 4012594
1099.2773 627.05829 3851.2556 3025700
1145.1211 639.92267 3930.2659 4473146
1175.8624 644.00275 3955.325 3223339
1150.7305 617.92053 3795.1335 3223339
1179.3851 621.16693 3815.0723 2894372
1203.5178 621.95441 3819.9089 2762786
1229.262 623.53021 3829.5869 5131080
1244.8511 619.99115 3807.8508 3946805
1261.5165 617.10461 3790.1223 4210233
1278.5674 614.50439 3774.1523 4275769
1299.3944 613.77722 3769.6863 3354664
1326.7159 616.09052 3783.8943 2827808
1331.505 608.03741 3734.4336 5130817
1349.1886 606.03961 3722.1638 2367512
1360.2106 601.16199 3692.2063 3090978
1373.6663 597.49738 3669.6992 3946543
1396.3365 597.89246 3672.1257 3946543
1439.2589 606.81415 3726.9207 3749164
1450.4463 602.28839 3699.1243 2564633
1483.2593 606.74347 3726.4866 2893597
1471.4525 593.0835 3642.5901 3748906
1488.2496 591.18091 3630.9048 4406578
1500.5767 587.58215 3608.802 4340272
1519.3755 586.58313 3602.6663 4538167
1537.9387 585.52209 3596.1497 3748394
1578.1626 592.62402 3639.7678 2037777
1604.9688 594.56366 3651.6809 3879978
1597.0193 583.7478 3585.2522 3419686
1598.7487 576.70734 3542.0112 4143663
1638.4138 583.35638 3582.8481 3157028
1665.8961 585.55304 3596.3398 2762528
1667.0243 578.54797 3553.3162 3354667
1706.592 584.89185 3592.2786 2696736
1747.203 591.4325 3632.45 2630943
1745.6215 583.70551 3584.9924 1906964
1748.9954 577.80145 3548.731 2959651
1739.9672 567.98914 3488.4658 3420457
0 0 0 0
0 0 0 0
0 0 0 0
0 0 0 0
1425.1403 439.13046 2697.0439 196615
1453.0853 442.77539 2719.4304 65547
1464.8691 441.46982 2711.4119 11
1464.1301 436.45953 2680.6396 11
1474.4344 434.81345 2670.5298 11
1487.3788 433.97266 2665.3657 11
1483.4609 428.28128 2630.4106 11
1490.9751 425.97449 2616.2429 65547
1498.223 423.63983 2601.9041 65547
1505.6322 421.39792 2588.1345 65547
1514.9404 419.72739 2577.8745 65547
1520.4458 417.04706 2561.4126 65547
1514.4952 411.30859 2526.168 11
1507.7975 405.48141 2490.3789 11
1517.819 404.21991 2482.6309 11
1531.7574 404.01575 2481.377 12
1543.2548 403.1777 2476.2297 18
1534.6969 397.16528 2439.303 24
1584.8359 406.31363 2495.49 198440
1574.9214 400.03879 2456.9514 264487
1593.4509 401.03778 2463.0869 21
1599.1233 398.81207 2449.417 1908526
1611.1012 398.18484 2445.5649 7039333
1670.9321 409.29022 2513.7717 5591887
1666.501 404.59772 2484.9512 5459784
0 0 0 0
0 0 0 0
2301.877 544.42328 3343.7297 3222569
2368.7664 555.46185 3411.5259 3419947
2362.6211 549.33221 3373.8792 2104088
2368.7847 546.14349 3354.2944 1709331
2409.6606 550.94434 3383.7805 2301466
2431.4275 551.33301 3386.1675 5656908
2439.3713 548.60651 3369.4219 4472634
2420.4622 539.93414 3316.1582 3090981
2542.7563 562.64612 3455.6501 1775379
2545.5376 558.76141 3431.7913 1249293
2559.6799 557.41229 3423.5054 2367002
2560.2583 553.15387 3397.3508 2038292
2533.0918 543.01422 3335.0757 2762268
2549.3008 542.258 3330.4309 2827548
2541.0332 536.34698 3294.1267 6117199
2520.2209 527.89844 3242.2373 4077874
2527.686 525.45605 3227.2368 2761758
2524.9187 520.93915 3199.4951 3485735
2558.8469 524.00421 3218.3201 4472630
2574.1384 523.23566 3213.5996 4472117
2605.2996 525.68042 3228.6152 4208945
2651.6599 531.13416 3262.1104 1445641
2674.0518 531.74255 3265.8472 1577225
2679.9985 529.09558 3249.5903 3682344
2720.4221 533.24445 3275.0715 3616808
2675.051 520.63654 3197.6365 3090207
2724.5703 526.54425 3233.9207 2498329
2702.3438 518.60095 3185.1345 5590857
2727.7803 519.85132 3192.814 2432796
2727.626 516.24097 3170.6399 1379594
2759.8979 518.77515 3186.2043 2300694
2784.3582 519.81653 3192.6003 2761501
2790.6235 517.47003 3178.1885 3287075
2773.0371 510.76166 3136.9873 1708555
2813.5522 514.77307 3161.6243 1314053
2775.1692 504.39145 3097.8628 2037263
2826.8906 510.41534 3134.8604 1510918
2821.0596 506.03693 3107.969 1576713
2801.5657 499.28036 3066.4717 3945260
2802.7961 496.28049 3048.0471 2234642
2793.3765 491.4454 3018.3508 2432021
2859.7417 499.91989 3070.3994 2760729
2875.3191 499.46509 3067.6062 2564120
2857.5957 493.26767 3029.543 2629657
2869.6917 492.26285 3023.3716 3222050
2888.4697 492.40961 3024.2729 3024671
0 0 0 0
0 0 0 0
0 0 0 0
0 0 0 0
0 0 0 0
-4538.8447 845.62128 5011.2261 5328186
-4660.1631 873.94202 5179.0571 4604720
-4766.4585 899.80225 5332.3071 2302481
-4760.5747 904.68933 5361.2686 4605495
-4677.7358 894.91949 5303.3716 4079410
-4473.6538 861.66504 5106.3027 3223850
-4360.2886 845.54944 5010.8003 1
-4270.0127 833.72107 4940.7041 5
-4253.0791 836.14819 4955.0879 8
-4227.8833 836.97345 4959.9785 10
-4199.2534 837.12585 4960.8813 10
-4181.8511 839.53424 4975.1538 11
-4182.1367 845.55322 5010.8228 4
-4275.4565 870.60242 5159.2666 12106947
-4247.0142 871.03979 5161.8584 14081243
-4190.2104 865.62463 5129.7676 329221
-4299.0713 894.60376 5301.5005 4275764
-4116.1558 862.84619 5113.3022 3486243
-4163.0205 879.14215 5209.874 5065017
-4123.5864 877.32123 5199.083 5788480
-4106.1118 880.17987 5216.0234 6314823
-4065.2705 878.03528 5203.314 6577996
-3998.6501 870.24719 5157.1616 5788480
-3930.6685 862.04077 5108.5293 6117958
-3845.3582 849.87701 5036.4463 5920066
-3843.8252 856.18384 5073.8208 6051396
-3842.8159 862.70758 5112.481 5591101
-3859.5745 873.35559 5175.582 4604206
-3837.1658 875.2403 5186.751 6314823
-3775.0967 868.03607 5144.0581 7104339
-3682.1904 853.56622 5058.3081 7434074
-3708.4509 866.70953 5136.1968 6841937
-3730.4609 879.06873 5209.4385 7039316
-3643.7593 865.80292 5130.8242 5986628
-3631.1108 870.05792 5156.04 5526078
-3563.6582 861.14203 5103.2036 5460284
-3522.8367 858.56384 5087.9248 5591615
-3531.1294 868.0141 5143.9282 7499868
-3518.0642 872.33337 5169.5244 6446924
-3408.0327 852.47357 5051.833 4538927
-3409.4827 860.39447 5098.7734 7368026
-3362.4871 856.12231 5073.4565 4013095
-3325.4531 854.33234 5062.8486 4933686
-3319.7524 860.63275 5100.1855 5131321
-3302.0549 863.91022 5119.6079 5920065
-3289.5627 868.62292 5147.5361 4472620
-3249.8613 866.172 5133.0112 4998964
-3160.9219 850.42743 5039.708 5327929
-3196.2617 868.13818 5144.6631 6380617
-3115.9695 854.48077 5063.728 5262134
-3083.7295 853.86285 5060.0664 4801327
-3046.1177 851.7309 5047.4321 5196342
-3006.7288 849.05475 5031.5732 6117443
-2980.6401 850.11853 5037.877 6710607
-2979.8152 858.48218 5087.4409 6775888
-2984.196 868.53192 5146.9966 7301976
-2957.741 869.72205 5154.0493 5920323
-2874.5798 854.08856 5061.4038 5788994
-2827.9036 849.07996 5031.7227 5328188
-2802.5723 850.44171 5039.7925 5723203
-2766.3181 848.48273 5028.1831 3552033
-2796.6455 867.12512 5138.6597 3749155
-2736.8311 857.92102 5084.1157 5525054
-2686.7607 851.60065 5046.6602 4078121
-2704.8672 866.99054 5137.8623 3354142
-2604.3333 844.2702 5003.2192 6183752
-2617.3503 858.26123 5086.1318 6775889
-2620.6428 869.35242 5151.8589 6513231
-2612.603 876.90149 5196.5952 5657666
-2556.9126 868.44617 5146.4883 4670772
-2555.4678 878.43353 5205.6743 4670517
-2512.1335 874.0896 5179.9316 3485989
-2446.3303 861.72351 5106.6494 920322
-2459.6626 877.27246 5198.7935 2302234
-2423.8242 875.45593 5188.0288 1314823
-2371.4526 867.54437 5141.1445 1446665
-2292.4524 849.55878 5034.5601 1051905
-2262.9065 849.6676 5035.2051 2565141
-2270.5598 863.93353 5119.7461 3223071
-2197.2224 847.35193 5021.4819 3946537
-2196.3455 858.64282 5088.3931 3881001
-2180.2107 864.20026 5121.3267 3552037
-2111.8403 848.91681 5030.7559 4341554
-2088.6189 851.60455 5046.6836 4539188
-2066.1851 854.69617 5065.0049 5131068
-2007.942 842.8479 4994.7905 4144171
-1966.0446 837.60876 4963.7432 5525823
-1972.1704 852.98108 5054.8408 5460286
-1980.3123 869.71289 5153.9951 5789508
-1919.0223 855.99823 5072.7207 3946793
-1897.1943 859.72955 5094.833 3683881
-1838.8716 846.77612 5018.0698 3420198
-1811.1617 847.72546 5023.6958 3946799
-1732.1359 824.28638 4884.7935 3354404
-1703.8353 824.59998 4886.6519 3880747
-1664.7407 819.60992 4857.0806 4538420
-1641.7124 822.49359 4874.1694 4736056
-1597.5242 814.68958 4827.9224 3880747
-1565.182 812.75226 4816.4414 4736056
-1528.3002 808.34186 4790.3052 4012334
-1511.4635 814.56738 4827.1978 4407605
-1497.8282 822.79175 4875.936 1907471
-1449.316 811.80408 4810.8223 4670522
-1407.6233 804.27185 4766.1855 3617835
-1378.3821 803.69116 4762.7446 2828573
-1341.0596 798.27582 4730.6528 4670779
-1318.7745 801.77155 4751.3687 5197636
-1278.4152 794.19147 4706.4482 8224113
-1240.5017 787.82654 4668.7295 6579289
-1215.9677 789.86218 4680.793 4605754
-1191.3191 791.91681 4692.9688 3618861
-1143.7924 778.49811 4613.4482 1381129
-1108.9946 773.29803 4582.6323 4276279
-1094.2037 782.13776 4635.0171 3617834
-1060.8766 777.84186 4609.5596 2960161
-1023.9988 770.64673 4566.9204 3157794
-988.9093 764.44336 4530.1587 2762782
-960.30792 763.04907 4521.896 4605240
-926.86737 757.6192 4489.7183 5328706
-887.00928 746.46783 4423.6338 3420710
-862.67328 748.09753 4433.292 3749675
-843.30078 754.26923 4469.8657 4671033
-809.50043 747.51801 4429.8574 4736570
-796.57178 760.23383 4505.2124 4933948
-767.83014 758.21661 4493.2583 4999741
-727.586 744.28796 4410.7158 3881260
-699.16827 741.86987 4396.3862 3157536
-683.65167 753.48346 4465.2095 3289124
-648.76495 743.82416 4407.9673 2762780
-618.02563 738.30884 4375.2832 2894366
-591.23071 737.22888 4368.8833 2170646
-544.35638 709.8656 4206.7261 3289123
-520.82605 711.77832 4218.061 3486502
-504.50131 724.22784 4291.8379 3617832
-475.89468 719.43219 4263.4185 4012334
-451.96884 721.57166 4276.0972 2959902
-417.62766 706.34937 4185.8887 3157025
-392.96216 706.60284 4187.3906 3485990
-377.28113 724.13495 4291.2871 3222818
-345.14575 710.33691 4209.519 3749165
-317.38776 704.09985 4172.5576 2367511
-292.18887 702.96564 4165.8364 2827805
-266.65656 700.74597 4152.6821 3025441
-242.84676 703.06171 4166.4053 2104082
-219.62396 707.79327 4194.4453 2564118
-193.37636 702.74048 4164.502 3419681
-169.45227 705.88824 4183.1558 4077866
-143.62538 700.83002 4153.1802 4144171
-118.22454 696.18842 4125.6738 5591364
-94.044815 698.1922 4137.5483 1841165
-69.264275 695.57568 4122.0425 3420199
-45.097355 699.62762 4146.0547 2499097
-20.622356 702.87939 4165.3252 2828064
4.0329666 697.81299 4135.3013 4144696
28.185373 689.15088 4083.9685 3355181
52.385174 689.11578 4083.7607 3420975
77.149422 694.1817 4113.7817 5460558
102.71422 702.28833 4161.8223 657414
125.59344 692.44891 4103.5132 4868420
152.08755 702.49915 4163.0718 3815220
175.10287 695.91791 4124.0708 2039321
198.62483 692.71582 4105.0947 3815218
219.32373 681.44116 4038.28 3091495
242.72475 679.95447 4029.4702 5131077
266.28275 679.13452 4024.6108 5130821
289.06268 676.62817 4009.7581 4670784
317.00226 685.6626 4063.2969 3881011
340.54742 684.58746 4056.9255 4736063
369.04135 692.94641 4106.4614 4078903
395.93439 697.45111 4133.1567 3814960
411.66666 682.91632 4047.0222 3288872
430.70154 675.15894 4001.0513 4999236
452.28299 671.99481 3982.3003 5328971
487.27982 688.08832 4077.6719 5986901
505.39459 679.94824 4029.4331 4868420
520.25464 668.36139 3960.7683 7565933
542.08728 666.34589 3948.8242 5131335
572.51141 674.62085 3997.8625 4407353
596.21466 674.63342 3997.9368 3748910
610.54443 664.44391 3937.5532 2038038
647.1358 678.33984 4019.9014 3485738
662.77307 670.06421 3970.8594 4209719
687.52747 671.25757 3977.9312 5328714
711.64105 671.76678 3980.949 5328972
733.77545 670.43512 3973.0574 6842211
750.35577 664.26923 3936.5181 3881269
778.22644 668.16895 3959.6282 4736578
792.3952 660.42047 3913.71 3684659
822.71979 666.19495 3947.9297 5921620
837.09235 659.09003 3905.8257 3881522
855.07416 655.13275 3882.3745 5525834
860.60748 642.09521 3805.1125 4736063
891.28534 648.00464 3840.1323 5525833
927.25562 657.3717 3895.6428 3617838
953.98169 659.8894 3910.5625 2762786
956.15674 645.70789 3826.5217 2762015
964.81769 636.46204 3771.73 2433307
979.71252 631.65405 3743.2375 3617836
1008.8867 636.06158 3769.3569 4867647
1031.4344 636.19098 3770.1238 4407351
1048.0732 632.7475 3749.7173 4209715
1091.4387 645.2475 3823.7935 3946286
1106.5499 640.87512 3797.8826 1709068
1107.4115 628.58881 3725.0725 3880238
1144.254 636.80688 3773.7737 2169878
1173.1704 640.38348 3794.969 2235672
1176.7382 630.24908 3734.9114 2170136
1192.494 626.89612 3715.0415 1578000
1223.8894 631.73737 3743.7314 2565150
1239.8492 628.58081 3725.0251 7499626
1263.8947 629.56213 3730.8406 3552303
