# .PCD v0.7 - Point Cloud Data file format
VERSION 0.7
FIELDS x y z rgb
SIZE 4 4 4 4
TYPE F F F U
COUNT 1 1 1 1
WIDTH 1273
HEIGHT 1
VIEWPOINT 0 0 0 1 0 0 0
POINTS 1273
DATA ascii
-717.63806 624.27777 4687.1885 2631197
-668.44598 604.8988 4541.688 3289126
-643.64288 606.89014 4556.6392 3486504
-626.32867 616.42639 4628.2388 4275508
-593.99969 611.38184 4590.3638 5328451
-572.83331 617.89392 4639.2573 2960416
-541.28149 613.29529 4604.73 1973265
-523.46899 624.60223 4689.6245 3947054
-488.35474 615.37512 4620.3457 4934464
-461.37579 615.91199 4624.377 6644568
-430.81079 611.42725 4590.7046 4802105
-404.66235 613.02856 4602.7275 7039324
-373.35428 606.48004 4553.5601 4670775
-352.5878 617.36914 4635.3174 4736569
-324.12656 615.48663 4621.1831 5921104
-298.24103 618.59906 4644.5518 5723724
-268.07596 612.56549 4599.2505 4538936
-237.84727 605.00433 4542.48 5196611
-214.97501 616.61359 4629.6445 5855312
-184.93448 608.0509 4565.3545 5790032
-158.05629 608.73291 4570.4751 5066052
-129.77136 603.15869 4528.6226 5131335
-103.81476 608.32092 4567.3818 5591629
-76.583374 607.0202 4557.6157 3486253
-49.973946 611.91772 4594.3872 2499358
-22.580103 607.43799 4560.7524 3815732
4.4826021 612.17859 4596.3457 2434080
31.655664 610.90747 4586.8022 4408380
57.919239 601.36774 4515.1763 6118739
85.961647 610.49023 4583.6694 2104853
113.9817 615.11108 4618.3633 4013108
141.12584 614.13086 4611.0034 4473146
165.82468 604.55359 4539.0962 3091493
193.75589 607.78949 4563.3916 2236440
216.94859 597.18915 4483.8022 4867645
242.74001 595.27502 4469.4307 3551785
269.66443 596.24255 4476.6953 3617320
293.58575 590.99164 4437.27 2695704
320.41965 591.98499 4444.7285 3287584
350.67621 598.67059 4494.9253 2169362
372.73013 591.3974 4440.3169 1511434
401.34857 594.81232 4465.9565 5459012
423.93375 589.4162 4425.4419 4077617
463.05185 606.29639 4552.1812 657154
484.00134 598.8385 4496.186 2696476
505.5896 592.90802 4451.6587 3683370
542.65503 604.81586 4541.0649 3881009
570.16956 605.45636 4545.874 3486250
599.52039 607.901 4564.229 2959907
626.13751 607.48242 4561.0859 3289641
651.56409 605.99121 4549.8896 4145208
665.0249 593.93188 4459.3462 4210744
696.58435 598.34039 4492.4463 4209969
728.93671 603.08044 4528.0352 3748649
756.7782 603.88422 4534.0703 3353634
755.07751 581.86761 4368.7656 3617063
788.461 587.4505 4410.6831 3287840
812.32593 585.81085 4398.3721 5130302
842.07721 588.38611 4417.7075 3749165
854.61542 579.14136 4348.2964 4933179
879.61542 578.63556 4344.4985 4011819
879.30811 561.98407 4219.4761 5919560
901.90649 560.48816 4208.2446 3682854
918.95435 555.71619 4172.416 2366738
984.87848 579.97662 4354.5679 1314054
989.07056 567.57349 4261.4429 1708554
1034.7179 578.98468 4347.1201 2827034
1079.819 589.54309 4426.3945 2235153
1084.6638 578.14355 4340.8047 3551012
1118.3032 582.26459 4371.7461 3616805
1135.2216 577.69 4337.3994 3156510
1166.4916 580.45953 4358.1934 2169358
1231.1024 599.34045 4499.9546 3287581
1225.9039 584.15588 4385.9463 2300686
1253.5942 584.9483 4391.896 2892565
1283.6096 586.77142 4405.584 2958613
1293.254 579.39526 4350.2026 2892564
1288.0894 565.80255 4248.146 3287321
1316.9868 567.40613 4260.186 4471596
1348.1871 569.92279 4279.082 3419165
1376.3337 571.07965 4287.7676 4340268
1379.8792 562.17181 4220.8857 3748386
1410.8965 564.57404 4238.9224 4406059
1432.9991 563.38751 4230.0137 4011301
1473.4785 569.34235 4274.7236 4076583
1508.7177 573.10535 4302.9771 3352862
1535.0211 573.40533 4305.2295 3747362
1582.3416 581.41803 4365.3901 3221276
1606.0378 580.63214 4359.4893 3089689
1623.9974 577.8299 4338.4497 2761238
1630.3557 571.05145 4287.5562 3024409
1655.7498 571.04633 4287.5176 2366479
1684.7379 572.26221 4296.6465 2760724
1726.5576 577.73547 4337.7407 3090202
1694.772 558.77991 4195.4189 2498065
1730.2378 562.22516 4221.2866 3090458
1744.2234 558.69202 4194.7588 2037516
1824.2513 576.11481 4325.5728 1642761
1811.0524 564.02087 4234.769 2366481
1842.0999 565.84894 4248.4946 2498067
1858.8279 563.28851 4229.2705 3287583
1909.818 571.04065 4287.4746 3090204
1936.1429 571.31104 4289.5049 3353375
1946.916 567.04492 4257.4741 3155740
1946.1975 559.58386 4201.4551 3682086
1968.9446 558.97296 4196.8687 3814185
1994.7145 559.22485 4198.7598 3682598
2025.9841 560.99341 4212.0381 4537650
2039.4041 557.83649 4188.3354 6248268
2054.7654 555.28009 4169.1416 4142635
2090.8899 558.3288 4192.0322 3945769
2140.0205 564.73816 4240.1548 2234895
2169.4517 565.8606 4248.582 3682084
2232.6265 575.65759 4322.1396 4932151
2223.886 566.90021 4256.3877 4734774
2234.9412 563.3288 4229.5728 4405553
2308.3091 575.36871 4319.9707 4274223
2325.7856 573.36578 4304.9326 985605
2344.8901 571.80334 4293.2012 2037519
2386.3674 575.67151 4322.2441 1774602
2394.9019 571.59497 4291.6367 4472112
2445.3396 577.50012 4335.9736 4274221
2469.8513 577.22339 4333.896 4800819
2494.7217 577.03522 4332.4834 3879719
2559.5066 585.98926 4399.7119 3287069
2557.0007 579.51215 4351.0801 5327421
2580.7737 579.06055 4347.6895 2827031
2594.2349 576.32709 4327.1665 3945256
2654.8916 584.02936 4384.9961 2169104
2693.217 586.71741 4405.1787 2169102
2673.3916 576.80731 4330.772 4471857
2732.0977 583.86835 4383.7876 3682598
2768.5242 586.08002 4400.3931 3420198
2801.5071 587.52814 4411.2661 4078130
2798.7246 581.51819 4366.1421 3880750
2798.9863 576.24512 4326.5508 4603701
2810.8586 573.43634 4305.4624 3879978
2852.5652 576.70984 4330.04 4076587
2881.0947 577.28467 4334.356 3089689
2900.9431 576.12524 4325.6509 3682081
2937.8877 578.35175 4342.3677 4208169
2984.1455 582.35699 4372.4399 4734254
3013.9443 583.10895 4378.0859 5063219
3063.7097 587.6781 4412.3916 4865841
3069.3284 583.77338 4383.0742 4273703
3082.7856 581.41254 4365.3486 3023636
3078.6467 575.79993 4323.2085 4865584
3063.8152 568.29669 4266.8726 3089173
3081.9709 566.98486 4257.0229 3154709
3120.1257 569.34369 4274.7334 4010275
3172.1365 574.17242 4310.9888 4536618
3193.0703 573.34393 4304.7686 3812641
3208.311 571.51453 4291.0327 3089175
3253.9304 575.0827 4317.8232 3681312
3245.2122 569.06683 4272.6553 2365452
3277.3533 570.2536 4281.5654 2431245
3270.603 564.70709 4239.9214 2299658
3301.7749 565.74292 4247.6982 2562831
3312.3369 563.25836 4229.0439 4076070
3305.8096 557.92688 4189.0146 2036745
3363.8804 563.49609 4230.8286 3287069
3439.1101 571.83588 4293.4453 3155226
3477.7729 574.01776 4309.8271 3747362
3446.6677 564.73621 4240.1401 4273449
3489.0547 567.5437 4261.2188 2299659
3520.8059 568.59314 4269.0981 2497038
3555.2949 570.06659 4280.1611 2628366
3574.7795 569.13031 4273.1318 3089174
3600.9458 569.26355 4274.1318 3023381
3666.0898 575.51385 4321.0601 2036487
3655.5916 569.88513 4278.7988 2233610
3662.239 566.98846 4257.0503 2562574
3764.9348 578.89996 4346.4839 2826002
3739.8384 571.13361 4288.1729 2759954
3713.29 563.25195 4228.9956 3220507
3748.0037 564.70612 4239.9141 2233612
3819.8911 571.70459 4292.46 2496527
3742.6843 556.44391 4177.8799 2628370
3749.6672 553.81836 4158.167 3023128
3707.6631 544.03912 4084.7424 2825749
3766.3481 549.06537 4122.4805 3483679
3819.248 553.18896 4153.4409 2957848
3915.7129 563.52924 4231.0781 2893082
3877.9373 554.54181 4163.5986 3353633
3900.0742 554.18127 4160.8916 3682341
3858.4268 544.81873 4090.5959 5721411
3889.6497 545.79834 4097.9512 4208172
3914.9294 545.93701 4098.9922 2825749
0 0 0 0
0 0 0 0
0 0 0 0
0 0 0 0
0 0 0 0
0 0 0 0
-4349.9429 672.51965 4834.2949 5065532
-4365.9834 679.47467 4884.29 5986378
-4341.9585 680.24554 4889.8315 4868154
-4315.0737 680.57574 4892.2046 5526084
-4287.7051 680.83356 4894.0581 3091743
-4286.2129 685.23169 4925.6733 3025951
-4223.4185 679.82257 4886.791 4144689
-4150.3511 672.67389 4835.4038 5525573
-4117.415 671.97534 4830.3823 4341553
-4061.4001 667.474 4798.0254 3749671
-3985.0237 659.53937 4740.9883 4078122
-3904.3425 650.77454 4677.9839 3354144
-3938.2124 661.1142 4752.3086 3617059
-3896.7742 658.86957 4736.1738 4472880
-3965.4771 675.3504 4854.6431 3551779
-3933.7725 674.84686 4851.0239 3683622
-3966.8772 685.53595 4927.8604 3946796
-3800.748 661.69769 4756.5029 2631192
-3741.7854 656.29993 4717.7021 1841936
-3753.3745 663.28857 4767.939 1447437
-3704.4363 659.6059 4741.4668 1907474
-3690.542 662.15448 4759.7866 1380616
-3736.0708 675.48608 4855.6187 3223331
-3771.8103 687.24103 4940.1172 4867899
-3745.7485 687.8313 4944.3604 5657930
-3680.4409 681.16736 4896.4575 4013363
-3640.1084 679.05652 4881.2842 3552813
-3634.2051 683.38605 4912.4062 2829350
-3568.54 676.45703 4862.5981 1842457
-3551.5002 678.70764 4878.7764 1184016
-3456.2627 665.92865 4786.9165 0
-3390.0073 658.56842 4734.0088 197378
-3333.6099 653.01642 4694.0991 0
-3299.6174 651.79681 4685.332 0
-3274.6938 652.3631 4689.4028 526087
-3271.1133 657.22729 4724.3682 131329
-3309.2153 670.6225 4820.6577 328963
-3250.604 664.4812 4776.5117 2171164
-3207.4585 661.4212 4754.5156 3420973
-3154.6797 656.30292 4717.7236 6513497
-3125.5034 656.04724 4715.8857 5263940
-3131.2109 663.17523 4767.124 6053453
-3148.2542 672.85565 4836.71 6382419
-3114.7002 671.80078 4829.1274 5197888
-3041.9851 662.20148 4760.1245 4408632
-3029.8567 665.73492 4785.5239 3882289
-3026.1379 671.20038 4824.8115 2895395
-2995.6445 670.77484 4821.7524 2763812
-2999.8264 678.18018 4874.9849 3290156
-2969.8162 677.92456 4873.147 2895400
-2936.333 676.86334 4865.5186 2500898
-2918.4036 679.40186 4883.7666 3224109
-2836.5161 666.95282 4794.2788 3421741
-2785.3994 661.56018 4755.5146 3750704
-2821.1626 676.90308 4865.8047 3948082
-2803.1506 679.52698 4884.666 4803393
-2776.2007 680.01624 4888.1831 4079926
-2713.0022 671.5434 4827.2773 2434843
-2666.717 667.12103 4795.4878 3355688
-2666.4214 674.2323 4846.606 5790028
-2654.4048 678.50244 4877.3013 2368793
-2650.0745 684.85291 4922.9507 3618860
-2578.9148 673.88208 4844.0884 4276276
-2522.7253 666.61993 4791.8857 5395013
-2550.1001 681.52539 4899.0312 5000254
-2547.9648 688.79663 4951.2993 5855563
-2519.1257 688.93427 4952.2886 5395268
-2479.2739 686.02795 4931.397 5461318
-2451.0383 686.30481 4933.3872 5066305
-2419.6592 685.69757 4929.022 3553067
-2427.2739 696.26086 5004.9546 4211002
-2363.3901 686.32251 4933.5142 5329485
-2353.229 691.93146 4973.8335 4211004
-2316.0908 689.6499 4957.4331 4737348
-2272.2419 685.28583 4926.0625 2829351
-2250.0208 687.41583 4941.3735 3355951
-2221.7993 687.74463 4943.7373 5000517
-2183.7542 685.00073 4924.0132 5921619
-2145.6145 682.1524 4903.5381 4868931
-2093.7292 674.79584 4850.6567 4474171
-2066.1536 675.17822 4853.4058 4408377
-2048.7336 678.93701 4880.4253 3355176
-2037.4906 684.87976 4923.1436 2960158
-1987.04 677.62457 4870.9907 5327937
-1952.6046 675.69751 4857.1382 4867641
-1927.6154 677.0304 4866.7197 4538933
-1887.3337 672.95117 4837.397 5789256
-1871.4478 677.57886 4870.6621 4407605
-1838.5825 676.10767 4860.0869 3288870
-1813.5748 677.52509 4870.2759 3552042
-1766.3282 670.54596 4820.1074 4209973
-1737.4418 670.42194 4819.2158 3749423
-1697.7288 666.04639 4787.7627 4209972
-1638.423 653.70471 4699.0469 4078386
-1639.77 665.55432 4784.2261 5855050
-1608.8109 664.4776 4776.4863 4604984
-1600.7974 673.00928 4837.8145 4539448
-1540.297 659.383 4739.8643 5197379
-1490.47 649.90454 4671.73 4341302
-1447.6359 643.17419 4623.3501 4276020
-1442.7075 653.35034 4696.4995 5393987
-1412.0631 652.05182 4687.1655 6117710
-1387.514 653.57239 4698.0957 4801850
-1355.3007 651.47113 4682.9912 4209712
-1313.4697 644.56232 4633.3281 4736056
-1306.9938 655.0788 4708.9243 4538934
-1281.6311 656.38135 4718.2876 4275507
-1246.0509 652.39252 4689.6143 6183761
-1207.8811 646.8349 4649.6646 3749934
-1185.8818 649.87946 4671.5498 4209970
-1106.8583 621.07245 4464.4756 5262402
-1120.9923 644.40668 4632.2095 4012847
-1085.8202 639.85699 4599.5049 4933692
-1066.2076 644.47815 4632.7231 3617832
-1043.0399 647.13782 4651.8418 5000256
-1011.7488 644.76495 4634.7852 4802876
-998.02179 653.76538 4699.4829 5263428
-971.28003 654.51227 4704.8521 2895141
-927.51764 643.49475 4625.6543 4868933
-902.70605 645.35425 4639.021 4211003
-881.09723 649.6922 4670.2036 6382172
-846.69043 644.5686 4633.3735 5132105
-813.29877 639.90033 4599.8164 6250587
-770.29669 627.08459 4507.6924 5526863
-751.80115 634.01501 4557.5107 5329481
-732.37036 640.64392 4605.1616 5263429
-678.64252 616.62317 4432.4927 5658187
-661.7439 625.479 4496.1514 4671034
-625.78943 616.31073 4430.2466 4538936
-612.36023 629.495 4525.0195 3946544
-586.03485 630.02264 4528.8125 4999487
-561.01801 632.07526 4543.5674 3815213
-533.513 631.39026 4538.6431 3486249
-509.81119 635.37231 4567.2676 3552042
-482.39117 634.90717 4563.9238 2828319
-444.97226 620.44482 4459.9639 2894110
-420.54956 623.42145 4481.3608 2367509
-396.28763 627.05389 4507.4717 3814952
-364.72012 618.81598 4448.2549 4670519
-341.00159 623.64923 4482.998 5855050
-321.78995 638.23828 4587.8691 5920844
-288.12375 624.20508 4486.9937 3617835
-257.53354 614.65985 4418.3794 4209972
-231.96259 616.28925 4430.0923 4407353
-205.3232 615.13373 4421.7856 4933697
-176.97282 607.7641 4368.8105 4933697
-148.76718 598.45093 4301.8643 4604474
-126.17104 612.51788 4402.9824 5591626
-101.15115 619.08588 4450.1948 5789005
-74.304512 615.16296 4421.9961 6512474
-48.074471 614.85162 4419.7578 4012852
-22.568705 634.14569 4558.4502 4210745
4.4177833 630.17145 4529.8823 5197639
30.980906 624.48865 4489.0322 2368541
57.349194 621.94366 4470.7378 3092005
82.927322 615.14575 4421.8721 5196869
108.80783 613.31689 4408.7261 3618093
132.53792 602.42206 4330.4102 4078388
160.97424 612.98303 4406.3262 3223334
185.81569 608.81738 4376.3818 2565144
205.01874 589.46094 4237.2412 2959388
237.80336 609.11688 4378.5347 5459009
263.06226 607.52515 4367.0928 3814698
286.66299 602.73212 4332.6392 3090718
310.96164 600.07391 4313.5308 3419171
340.11865 606.48279 4359.6001 2958875
365.03146 604.95294 4348.603 3419168
393.41272 608.9939 4377.6509 3814695
420.73672 610.99963 4392.0684 3617062
450.50317 616.11188 4428.8174 4011822
482.60663 623.68146 4483.2295 1906959
502.79614 615.8678 4427.0625 3157284
526.17682 612.54413 4403.1709 3420456
552.05371 612.30322 4401.439 2565660
581.86359 616.24939 4429.8057 3814959
602.79114 610.85376 4391.02 4604474
632.15704 614.10205 4414.3696 4078130
654.16705 610.23035 4386.5386 3552041
687.16168 616.50977 4431.6772 5985869
706.89825 610.86987 4391.1357 3682854
740.42828 617.12695 4436.1138 3616805
753.78058 606.71393 4361.2617 3222048
771.09259 600.07288 4313.5234 3024669
794.03125 598.09625 4299.3149 4537908
821.92188 599.85651 4311.9683 3353890
831.57483 588.60175 4231.0654 4603701
846.06317 581.32825 4178.7808 3814184
867.39972 579.04004 4162.3325 4406320
883.99792 573.80267 4124.6846 3616803
916.38379 578.81915 4160.7446 5919812
942.78351 579.89075 4168.4478 2629907
967.69397 580.01508 4169.3413 3945768
992.28265 579.94513 4168.8384 2498067
1015.0536 578.84192 4160.9082 3814184
1073.0773 597.41748 4294.4355 2169615
1083.8328 589.42633 4236.9922 4604213
1117.5715 594.01294 4269.9629 2695959
1135.7969 590.33344 4243.5132 3156511
1157.0101 588.33264 4229.1309 1906189
1168.8903 581.77155 4181.9673 3616546
1205.9972 587.77783 4225.1426 2827028
1236.1571 590.2229 4242.7183 2432013
1243.097 581.70465 4181.4863 3352857
1255.79 576.15894 4141.6221 3155735
1283.4039 577.54034 4151.5522 3682078
1304.4972 575.99072 4140.4126 4734768
1324.8363 574.17133 4127.3345 3879204
1358.167 577.94635 4154.4707 3945252
1404.6055 587.06543 4220.0215 4077095
1402.5972 575.97101 4140.271 4537645
1429.9357 577.10199 4148.4009 5260857
1469.5403 583.06152 4191.2402 3944997
1488.6725 580.83527 4175.2368 3747616
1537.3857 590.03461 4241.3652 3616032
1551.8494 586.00488 4212.3979 3418654
1575.3591 585.4646 4208.5142 2826260
1593.2246 582.87616 4189.9077 2365966
1610.1989 580.0462 4169.5649 1971208
1638.7332 581.40308 4179.3188 3221275
1666.3419 582.39612 4186.457 2760468
1682.2684 579.33685 4164.4663 3023897
1697.9396 576.27942 4142.4883 2431759
1721.5009 575.94891 4140.1123 2300173
1751.4614 577.73853 4152.9766 3023642
1767.9978 575.11176 4134.0947 2761239
1793.2517 575.35388 4135.835 1840137
1828.3204 578.69592 4159.8589 3879720
1851.2307 578.15192 4155.9482 3287839
1881.651 579.93683 4168.7788 3090461
1918.1154 583.5141 4194.4937 4077099
1915.186 575.16919 4134.5073 3551011
1944.9211 576.72095 4145.6621 3354147
1973.0255 577.75641 4153.1055 4077613
1986.0626 574.40875 4129.041 5787719
2022.5629 577.84589 4153.7485 3879466
2041.1611 576.14734 4141.5386 3945002
2082.7439 580.89972 4175.7002 2366228
2084.7668 574.63635 4130.6772 2826519
2125.7622 579.13599 4163.022 2827031
2132.1555 574.21356 4127.6382 3945514
2172.9519 578.56293 4158.9028 3221534
2168.1501 570.81006 4103.1724 5853511
2236.2021 582.19672 4185.0234 3485222
2249.9866 579.35992 4164.6318 5130559
2298.3398 585.38928 4207.9731 3749163
2319.7773 584.50757 4201.6348 4274480
2384.4031 594.41083 4272.8228 4208942
2388.1199 589.08154 4234.5142 2038034
2412.7068 588.95758 4233.623 2103054
2443.8596 590.42249 4244.1533 3221277
2450.6321 586.02747 4212.5601 4340271
2476.4297 586.22461 4213.9775 3813927
2527.1514 592.25903 4257.355 4866872
2565.8037 595.37354 4279.7432 3287583
2567.0129 589.82385 4239.8501 3748134
2634.738 599.51691 4309.5269 3287583
2654.9797 598.32306 4300.9453 2629653
2670.3452 596.06348 4284.7026 1248260
2667.1003 589.73145 4239.186 2432274
2713.3513 594.35974 4272.4556 3616292
2754.8235 597.86523 4297.6543 3682341
2765.1428 594.60754 4274.2368 2695446
2768.4707 589.91925 4240.5356 3353632
2796.825 590.6001 4245.4297 3221021
2780.7039 581.96063 4183.3267 4076585
2809.7607 582.84552 4189.6875 3879204
2855.77 587.2005 4220.9927 3023896
2893.9573 589.88556 4240.2939 4800305
2889.8445 583.9765 4197.8174 3484701
2960.6345 593.17535 4263.9414 2826517
3014.8586 598.92749 4305.29 2958360
2960.0269 583.10004 4191.5171 3616033
2970.353 580.26477 4171.1362 3682083
2972.1238 575.81873 4139.1768 3549984
3033.4434 582.88812 4189.9937 2102280
3045.1956 580.39539 4172.0752 3023126
3075.0271 581.3609 4179.0156 3747363
3117.5037 584.68256 4202.8926 2892053
3108.3604 578.34705 4157.3511 4734770
3161.0654 583.52832 4194.5957 3616290
3197.6851 585.68256 4210.0811 3615776
3212.3894 583.82056 4196.6963 3549726
3209.3086 578.77966 4160.4609 2497038
3235.7913 579.10663 4162.811 2694162
3249.1509 577.09772 4148.3706 2825750
3274.8149 577.28815 4149.7393 2628370
3315.9038 580.1745 4170.4873 3089431
3345.8074 581.07562 4176.9648 3286554
3369.646 580.91785 4175.8306 3615519
3364.0117 575.71844 4138.4556 3089432
3404.9614 578.50891 4158.5146 3089432
3436.7732 579.71796 4167.2056 2300174
3438.3149 575.84015 4139.3306 2365967
3502.6038 582.45172 4186.8564 2497553
3521.6904 581.50623 4180.0601 3221276
3586.3169 588.04108 4227.0352 3155226
3555.6809 578.97369 4161.8555 2892311
3567.6069 576.91382 4147.0483 3352862
3601.6445 578.43335 4157.9712 3615522
3625.9854 578.38544 4157.627 2167819
3629.2886 575.00513 4133.3281 2102027
3690.8994 580.84607 4175.3149 1773060
3679.7002 575.22736 4134.9258 2365198
3621.4758 562.38037 4042.5771 3220507
3642.8691 561.98486 4039.7341 3023128
3638.7776 557.6886 4008.8511 2694163
3684.9124 561.09595 4033.3445 3220250
3757.864 568.51648 4086.6855 2694163
3733.0796 561.15045 4033.7361 2825749
3744.8501 559.33801 4020.708 2365198
3805.8264 564.85156 4060.3408 4010023
3742.4048 551.94897 3967.5928 4602417
3797.3572 556.55688 4000.7161 3615521
3778.592 550.3703 3956.2449 3286556
0 0 0 0
0 0 0 0
0 0 0 0
0 0 0 0
0 0 0 0
-4020.4978 643.82507 4438.9321 3881006
-4123.8081 664.71802 4582.981 4407605
-4195.8735 680.81812 4693.9854 4473653
-4183.1318 683.2807 4710.9639 4210225
-4143.2666 681.3161 4697.4185 5723721
-4099.2427 678.63641 4678.9434 2499355
-4179.2764 696.59814 4802.7827 855047
-4139.3042 694.66656 4789.4648 395010
-4116.3354 695.58154 4795.7734 855051
-4055.5508 690.07458 4757.8052 855307
-3968.0225 679.90814 4687.7114 131328
-3897.8552 672.59418 4637.2842 262400
-3862.5281 671.23071 4627.8838 789000
-3805.772 666.09723 4592.4902 657158
-3740.3533 659.36273 4546.0586 131328
-3721.3489 660.77203 4555.7749 262913
-3679.759 658.16223 4537.7812 131072
-3609.2642 650.30591 4483.6152 131072
-3643.5508 661.35236 4559.7759 985863
-3617.6025 661.54871 4561.1299 3025698
-3668.3015 675.87006 4659.8701 5394243
-3678.873 682.95929 4708.7476 3552293
-3641.0955 681.11243 4696.0142 3947052
-3643.9441 686.89539 4735.8857 2762777
-3632.8247 690.11462 4758.0811 4276017
-3659.4675 700.61389 4830.4697 5329219
-3644.8674 703.32043 4849.1304 3355431
-3600.7261 700.32434 4828.4736 3092515
-3567.5588 699.43182 4822.3198 5131845
-3470.1343 685.82526 4728.5073 5329224
-3448.4551 687.08899 4737.2207 4013364
-3416.5828 686.32599 4731.96 3750192
-3381.3547 684.87061 4721.9258 4078644
-3338.2937 681.7912 4700.6943 3946804
-3320.2417 683.81067 4714.6177 3947317
-3292.7634 683.90649 4715.2783 4144951
-3282.6794 687.64771 4741.0728 4144948
-3227.6006 681.94672 4701.7666 5328964
-3177.3484 677.17517 4668.8687 4474168
-3170.96 681.75043 4700.4131 5394243
-3130.5496 679.02722 4681.6377 3158051
-3070.3208 671.91827 4632.624 3354914
-3057.0029 675.03973 4654.1455 4868153
-3070.8911 684.28033 4717.856 5855302
-3112.1172 699.83832 4825.1226 5790021
-3073.9243 697.65997 4810.1035 4935228
-3009.1199 689.34442 4752.771 3816493
-2950.6489 682.33649 4704.4536 2566429
-2935.8374 685.38727 4725.4878 3092774
-2889.4314 681.04987 4695.583 2369050
-2849.3145 678.12494 4675.4165 3290153
-2813.2893 676.12592 4661.6343 3684654
-2831.0886 687.15131 4737.6504 3750704
-2780.8767 681.72485 4700.2368 4868670
-2778.4131 688.01239 4743.5869 3355686
-2744.0125 686.43909 4732.7397 3158306
-2765.9119 699.06274 4819.7749 4671800
-2705.2275 690.85956 4763.2173 3487016
-2673.4919 689.95435 4756.9761 2631452
-2609.7661 680.68604 4693.0747 3487016
-2586.406 681.85968 4701.1665 3223845
-2577.3496 686.87091 4735.7173 6118737
-2569.7563 692.38678 4773.7471 4605498
-2480.2905 675.72034 4658.8379 3749932
-2480.5322 683.39331 4711.7402 2499864
-2426.4807 676.11285 4661.5444 3683625
-2481.2046 699.32281 4821.5684 4341039
-2471.1594 704.6059 4857.9932 4867895
-2437.6792 703.25269 4848.6631 5263168
-2398.376 700.16724 4827.3901 4605753
-2398.0376 708.51978 4884.9775 3552814
-2340.2217 699.88672 4825.4561 3355438
-2325.2861 704.02277 4853.9727 4868677
-2305.2112 706.68701 4872.3418 4144954
-2265.6982 703.3844 4849.5713 4408126
-2239.9333 704.31976 4856.02 4737347
-2199.491 700.60419 4830.4028 4869188
-2110.0879 680.98956 4695.1675 6118999
-2066.9929 675.99548 4660.7349 5724493
-2045.9739 678.18365 4675.8218 5066821
-2056.6526 691.08325 4764.7593 4737598
-2009.6567 684.69202 4720.6943 4473914
-1973.2612 681.7829 4700.6372 4934206
-1925.0304 674.6427 4651.4082 4670777
-1906.8308 677.97272 4674.3672 4867642
-1891.2441 682.34357 4704.5024 4341299
-1858.0854 680.41046 4691.1748 4867642
-1835.4912 682.34607 4704.52 4933435
-1824.5543 688.74188 4748.6167 5394243
-1783.1975 683.67511 4713.6831 6776411
-1732.7529 674.90729 4653.2324 4407864
-1694.6731 670.74994 4624.5688 4408121
-1703.2831 685.23944 4724.4688 5065794
-1649.3977 674.65088 4651.4644 6381394
-1636.8337 680.89117 4694.4893 4670777
-1586.3641 671.3067 4628.4077 2564888
-1556.3182 670.17981 4620.6382 4011820
-1520.5713 666.51361 4595.3608 4275252
-1480.0128 660.56616 4554.3555 4933695
-1447.5988 658.10034 4537.3545 4407353
-1399.1558 648.11621 4468.5181 3881010
-1395.3472 658.82135 4542.3257 2565147
-1392.6586 670.48682 4622.7549 4472888
-1361.9121 668.84106 4611.4082 5525830
-1291.7139 647.35626 4463.2783 5065278
-1299.1584 664.69824 4582.8447 3749162
-1245.7072 650.9588 4488.1167 4867644
-1251.9225 668.47974 4608.9165 4868413
-1191.3873 650.34479 4483.8833 5131585
-1175.5045 656.31317 4525.0327 5460551
-1113.1226 635.99243 4384.9287 4407864
-1092.84 639.32898 4407.9331 6579546
-1068.8513 640.60785 4416.7505 5790030
-1046.2794 642.82123 4432.0112 6580059
-1029.7424 648.95203 4474.2803 6514010
-996.91498 644.86902 4446.1299 5593164
-960.65637 638.28467 4400.7329 5526603
-961.78101 656.86432 4528.8325 4145209
-925.224 650.03656 4481.7578 5000262
-913.68811 660.90387 4556.6841 4802626
-869.9054 648.39758 4470.458 5066312
-841.04669 646.5788 4457.918 5197895
-806.81689 640.37897 4415.1724 4737345
-780.83112 640.52612 4416.187 3881779
-749.88104 636.47009 4388.2222 6053462
-723.08881 635.77838 4383.4531 5921619
-693.89514 632.84497 4363.2285 6053204
-652.62543 618.24463 4262.5645 5592395
-637.22327 627.95996 4329.5483 3881263
-613.79358 630.24786 4345.3223 3617576
-592.88568 635.43896 4381.1128 3551783
-568.76111 637.5 4395.3232 3157537
-545.40405 640.66046 4417.1133 4670267
-518.14642 639.32678 4407.918 3486252
-492.09137 639.41412 4408.52 2433822
-468.94769 643.50635 4436.7344 2170393
-436.15555 634.05829 4371.5938 1052171
-410.76852 634.862 4377.1348 1775890
-385.61249 636.15503 4386.0498 2894112
-354.82715 627.67694 4327.5967 3486246
-334.26971 637.38025 4394.4976 3617576
-301.49545 623.46014 4298.5234 3748905
-277.72971 627.31854 4325.1255 3420197
-255.16585 634.95233 4377.7578 4078127
-225.4816 624.59039 4306.3164 3880494
-195.98494 612.16962 4220.6797 4933181
-172.70978 618.39075 4263.5718 5196609
-145.33601 609.55402 4202.646 5525318
-123.36359 624.40112 4305.0112 5262660
-97.788338 624.00018 4302.2466 4802109
-72.547623 626.20386 4317.4404 5131074
-47.732147 636.47937 4388.2861 4209974
-21.836214 639.70142 4410.501 2367770
4.2670336 634.59686 4375.3071 3617581
30.568438 642.42328 4429.2671 3223079
56.32938 636.90729 4391.2368 2828321
81.368629 629.29596 4338.7593 4012592
108.20824 635.92035 4384.4316 2893855
133.78261 633.98352 4371.0781 3485990
157.18059 624.0343 4302.4824 1906957
181.01851 618.36542 4263.3975 1906444
204.19435 612.10046 4220.2026 4077869
226.70699 605.43164 4174.2236 3156509
253.12361 609.47504 4202.1016 2761495
277.20334 607.67133 4189.6655 2498578
306.79684 617.25751 4255.7588 3222301
332.45859 618.07776 4261.4141 4209196
356.19916 615.46265 4243.3838 4406578
377.77298 609.69556 4203.6216 3617576
414.00775 626.83972 4321.8247 3814955
442.45496 630.88232 4349.6968 4210482
456.2236 614.70227 4238.1416 3618090
482.62057 616.33795 4249.4189 4078128
512.51599 622.05768 4288.854 4538937
523.67346 605.56854 4175.1675 3222821
562.98657 621.6571 4286.0923 2959139
588.2829 621.54724 4285.335 1643793
614.54126 622.4209 4291.3584 2696224
630.83856 613.53723 4230.1089 3420200
660.07446 617.43536 4256.9849 3749165
680.15906 612.80151 4225.0361 3288613
695.89746 604.71997 4169.3169 5459526
729.35205 612.05969 4219.9219 3288613
753.56091 611.41119 4215.4507 2499097
776.90637 610.12622 4206.5913 3354408
801.52783 609.89209 4204.9771 2235155
822.37256 606.88501 4184.2441 2498842
836.63129 599.33594 4132.1963 4208687
861.82855 599.82935 4135.5981 4077356
881.11145 596.29291 4111.2158 3879719
916.31256 603.42969 4160.4214 3814180
937.31415 601.08649 4144.2656 5261625
961.63831 600.93921 4143.25 3814179
976.81677 595.22638 4103.8623 4208936
1007.8566 599.22144 4131.4067 4735280
1029.0691 597.32275 4118.3159 4077097
1072.4498 608.08136 4192.4927 4142890
1082.7314 600.01056 4136.8477 4274475
1106.6788 599.70251 4134.7236 4866870
1132.5745 600.44067 4139.813 3879975
1147.5332 595.47223 4105.5576 2827291
1178.7019 598.94708 4129.5151 2169361
1195.1121 594.93359 4101.8438 2234636
1219.7079 595.07391 4102.811 1247744
1245.0085 595.54578 4106.0645 1905416
1260.6838 591.48358 4078.0571 1379585
1287.5454 592.72382 4086.6082 1971721
1292.1595 583.86572 4025.5347 4142376
1334.6926 592.15198 4082.6653 3813922
1371.6252 597.70264 4120.9351 3945508
1401.9856 600.2453 4138.4658 3617056
1403.0032 590.3537 4070.2671 3813665
1431.6825 592.2392 4083.2671 5590591
1422.5309 578.67273 3989.7312 4471854
1483.5667 593.6347 4092.8882 4274220
1479.443 582.46179 4015.8555 2695188
1511.764 585.76392 4038.6221 2431760
1547.7504 590.36115 4070.3184 2234382
1589.371 596.93341 4115.6313 2037002
1614.791 597.31439 4118.2583 1839623
1599.6722 582.9118 4018.9583 2103051
1606.0052 576.63428 3975.6765 2037003
1666.8201 589.81683 4066.5657 2300173
1685.4301 587.90204 4053.364 3550496
1714.0668 589.4895 4064.3086 3024411
1740.663 590.34082 4070.178 3024411
1773.3145 593.19446 4089.853 2168848
1790.2745 590.79297 4073.2954 2037262
1793.0815 583.84692 4025.4053 2497810
1824.4088 586.24792 4041.9592 2892825
1841.9326 584.20856 4027.8987 2695446
1879.9843 588.64899 4058.5139 3090204
1904.2188 588.70557 4058.9038 3090205
1919.6681 586.07849 4040.7913 3616548
1913.678 577.05133 3978.5525 2629396
1945.5737 579.52911 3995.6355 2826262
2005.84 590.29633 4069.8716 2168333
2003.3104 582.54718 4016.4438 1248005
2053.1917 590.04169 4068.1155 2168591
2093.927 594.76447 4100.6772 2365969
2121.4011 595.65515 4106.8188 2432020
2099.0024 582.68115 4017.3679 3484962
2128.6404 584.28149 4028.4014 3090204
2148.5967 583.21826 4021.0708 3879721
2195.9329 589.52893 4064.5803 4537395
2184.5793 580.11743 3999.6919 4340016
2266.0408 595.29065 4104.3057 4603703
2300.9834 598.05084 4123.3359 4603704
2363.46 607.83417 4190.7881 3879724
2400.0674 610.83014 4211.4443 4735031
2405.7996 605.98749 4178.0562 2760985
2382.7292 594.06244 4095.8372 3156257
2416.7944 596.47919 4112.5 1182984
2435.533 595.10291 4103.0107 2498327
2496.0015 603.84924 4163.3135 3287585
2477.8674 593.59454 4092.6113 2432275
2548.2742 604.54376 4168.1021 2958363
2554.1604 600.12299 4137.6226 3747879
2568.0134 597.64044 4120.5063 3221535
2616.0876 603.09375 4158.105 2892570
2646.8381 604.48883 4167.7236 3024156
2674.3494 605.12518 4172.1108 3484450
2700.6409 605.47644 4174.5327 3155742
2705.4612 601.05121 4144.0225 919811
2713.7837 597.47668 4119.3774 1708041
2736.7095 597.15234 4117.1411 3287071
2757.1152 596.2887 4111.1865 2497555
2762.2625 592.16907 4082.7834 4931639
2788.7966 592.66608 4086.2102 3221278
2848.646 600.17365 4137.9717 3155485
2876.697 600.91071 4143.0537 2694934
2915.5933 603.88159 4163.5366 1839625
2920.7922 599.88177 4135.9595 4142637
2940.3601 598.87506 4129.0186 1050630
2966.7539 599.26373 4131.6982 3681830
3004.2485 601.87006 4149.668 3287070
2970.8469 590.34601 4070.2139 2760724
3005.2437 592.37146 4084.1787 2958102
2980.7361 582.84656 4018.5081 3549983
3050.5303 591.76611 4080.0049 3286297
3087.0452 594.14026 4096.374 3418140
3102.0044 592.36115 4084.1077 3418140
3161.7793 599.10132 4130.5786 2957589
3130.573 588.6311 4058.3901 3483933
3106.4819 579.64807 3996.4558 3352347
3173.8845 587.74402 4052.2742 2694417
3203.8242 588.83295 4059.782 3154968
3242.7073 591.53711 4078.4263 2760209
3191.5896 577.90479 3984.4363 2891796
3196.0378 574.46021 3960.6873 2299402
3255.4126 580.86633 4004.8552 2628367
3298.4451 584.28491 4028.425 1707012
3337.3933 586.93616 4046.7041 2035976
3311.2134 578.17731 3986.3157 2233612
3329.3596 577.2276 3979.7676 1904903
3328.4194 573.00555 3950.658 3023385
3408.229 582.64679 4017.1306 4142122
3417.7075 580.21436 4000.3604 1839624
3515.9893 592.78748 4087.0471 3089691
3567.0403 597.28009 4118.022 1904647
3540.1184 588.7442 4059.1702 2101769
3539.8237 584.72198 4031.4385 2036234
3571.7104 586.03381 4040.4832 1575426
3584.4678 584.21045 4027.9116 2102027
3531.2793 571.73419 3941.8926 2825493
3584.2605 576.49847 3974.7402 3680801
3602.4331 575.63843 3968.8105 2628370
3661.6304 581.30231 4007.8611 2891542
3632.7253 572.99664 3950.5969 2825749
3672.8345 575.61346 3968.6387 2891542
3693.1714 575.11798 3965.2224 2759699
3704.4714 573.23035 3952.208 2628370
3720.5059 572.09442 3944.3765 2694163
3703.5999 565.93915 3901.9377 2496785
3721.0227 565.07343 3895.969 1575682
0 0 0 0
0 0 0 0
0 0 0 0
0 0 0 0
0 0 0 0
0 0 0 0
-3950.7319 662.83966 4390.6333 3618089
-4074.9868 688.2193 4558.7476 4537906
-4012.1831 682.13483 4518.4443 6183756
-4017.5554 687.63757 4554.894 5723461
-4035.8782 695.44623 4606.6187 5065275
-4120.0518 714.78564 4734.7227 4078897
-4141.04 723.35315 4791.4736 4802620
-4125.5513 725.62323 4806.5103 1973784
-4048.1167 716.95374 4749.084 2433823
-3959.5745 706.18188 4677.7314 2105115
-3885.9277 697.93341 4623.0938 723465
-3805.7563 688.38763 4559.8628 1
-3803.9658 692.98431 4590.311 65538
-3758.9561 689.71698 4568.6685 1
-3723.0752 688.08954 4557.8882 0
-3661.6531 681.68329 4515.4531 1117450
-3602.4329 675.59564 4475.1289 2170391
-3607.2019 681.50714 4514.2866 3025697
-3599.0701 685.05151 4537.7642 3223073
-3587.2068 687.93359 4556.855 5592133
-3537.051 683.46014 4527.2231 5394238
-3552.6638 691.72382 4581.9614 6184011
-3542.6709 695.09094 4604.2651 5197116
-3579.4995 707.76813 4688.2388 4473649
-3554.4182 708.30664 4691.8057 3947052
-3508.0623 704.58069 4667.125 2499607
-3527.9844 714.21301 4730.9292 2697242
-3484.5527 711.07135 4710.1191 4275763
-3461.3789 712.04633 4716.5771 5986894
-3364.3674 697.72424 4621.708 5263428
-3363.7578 703.32349 4658.7974 4012850
-3362.0349 708.78076 4694.9463 2236181
-3282.8958 697.87219 4622.688 3486249
-3286.6379 704.54694 4666.9014 3683885
-3268.6577 706.63892 4680.7588 4079155
-3228.6306 703.95972 4663.0117 3750190
-3207.5181 705.39386 4672.5117 3750187
-3139.0525 696.34857 4612.5957 4473913
-3120.8806 698.39911 4626.1787 3618348
-3059.2395 690.6723 4574.9961 2171156
-2998.7244 683.0636 4524.5967 3487014
-2984.6646 685.995 4544.0137 4802619
-2998.416 695.42999 4606.5112 5394496
-2947.2148 689.83551 4569.4531 4540215
-3025.8899 714.81824 4734.9385 4408887
-2956.9902 705.08032 4670.4346 4474424
-2928.7979 704.95654 4669.6147 4934977
-2882.625 700.46124 4639.8379 4869185
-2877.0601 705.84174 4675.4785 4474427
-2834.259 702.10291 4650.7124 3355433
-2791.4946 698.2998 4625.5205 2565917
-2753.9529 695.7406 4608.5688 3816240
-2722.906 694.78741 4602.2549 3487019
-2724.8342 702.31421 4652.1118 3158054
-2693.4331 701.31647 4645.5029 3618348
-2681.3206 705.37231 4672.3691 3487018
-2615.6421 695.27441 4605.4805 3355434
-2653.863 712.87256 4722.0503 2565916
-2589.6284 703.03119 4656.8613 2960418
-2565.4211 703.96149 4663.0234 4802877
-2540.1582 704.6192 4667.3804 4999741
-2511.0742 704.21985 4664.7349 5000252
-2499.0688 708.65448 4694.1099 5066558
-2425.8027 695.62195 4607.7827 5263680
-2395.5486 694.76709 4602.1201 4276785
-2408.7048 706.62762 4680.6841 3355686
-2432.8875 722.03693 4782.7549 3947567
-2355.3569 707.26709 4684.9199 4210740
-2319.1658 704.70636 4667.9575 4934465
-2318.9529 713.14819 4723.876 4013363
-2265.1379 705.11066 4670.6357 3947572
-2207.0881 695.53967 4607.2378 5460554
-2156.3613 688.06567 4557.73 5329225
-2144.835 693.06891 4590.8716 5329224
-2062.5103 675.02954 4471.3789 5987153
-2050.4163 679.8053 4503.0132 5592393
-1990.9154 668.7821 4429.9961 6447703
-1970.0962 670.63184 4442.249 4934463
-1980.3011 683.23553 4525.7354 5197635
-1969.61 688.87671 4563.1025 5131586
-1950.2216 691.59088 4581.0811 4078897
-1924.1176 691.96649 4583.5688 5394757
-1827.8602 666.76257 4416.6187 4604983
-1863.2336 689.53973 4567.4941 4473396
-1850.0125 694.73962 4601.938 6183758
-1809.7427 689.78558 4569.1226 3551526
-1775.725 687.1001 4551.334 4407091
-1723.1233 677.03003 4484.6304 4801335
-1704.1725 680.07336 4504.7891 4736056
-1647.7628 668.0271 4424.9951 4670263
-1647.5543 678.74457 4495.9873 4604213
-1640.1029 686.78137 4549.2227 5327936
-1566.9963 667.13477 4419.084 5657414
-1585.0236 686.27905 4545.8955 6250321
-1522.1979 670.47272 4441.1948 6644823
-1528.0331 684.88489 4536.6606 3157280
-1492.0205 680.72064 4509.0767 4604984
-1439.1798 668.58679 4428.7026 3947054
-1424.8533 674.22668 4466.061 3617835
-1385.652 668.08685 4425.3906 3617837
-1400.6998 688.37067 4559.7505 3552043
-1358.1383 680.58362 4508.1689 3288613
-1303.1399 666.12659 4412.4062 3881006
-1288.153 671.94916 4450.9746 1249290
-1271.3784 677.06311 4484.8491 986371
-1214.3937 660.5246 4375.2983 1578250
-1193.8464 663.51562 4395.1113 2696473
-1150.6656 653.78021 4330.624 2827801
-1121.7445 651.88751 4318.0869 4274220
-1098.321 653.1759 4326.6211 3419681
-1074.3999 654.2229 4333.5562 5328706
-1067.5807 665.98975 4411.4995 5460550
-1021.0554 652.95575 4325.1626 5986639
-1001.6022 657.00873 4352.0093 6184533
-955.93884 643.62872 4263.3809 5723983
-932.87567 645.15198 4273.4707 6381913
-925.39331 657.83612 4357.4902 4605505
-899.15619 657.53357 4355.4863 6249817
-870.99609 655.76538 4343.7739 3815732
-843.59216 654.4762 4335.2339 3355438
-818.45709 654.92139 4338.1831 5592910
-784.61755 648.20441 4293.6899 5790290
-738.013 630.138 4174.0186 5724240
-726.26978 641.61646 4250.0518 4868674
-703.95776 644.24731 4267.4785 3881263
-678.83832 644.40918 4268.5508 4802364
-648.14307 639.08582 4233.2886 3947054
-626.54199 642.66174 4256.9756 6052687
-608.58569 650.43323 4308.4536 3881517
-574.85175 641.2843 4247.8516 3091488
-556.98682 649.8111 4304.3325 2236436
-533.78265 652.62836 4322.9941 4144178
-499.68246 641.73608 4250.8438 6447192
-469.91034 635.54071 4209.8062 7105125
-445.66336 636.5423 4216.4404 5526348
-422.03412 638.5976 4230.0547 6447451
-396.77914 638.29712 4228.0645 4209717
-377.77548 648.69049 4296.9097 4210482
-350.52124 645.39502 4275.0806 4736570
-320.12686 635.3537 4208.5674 4802619
-290.172 624.56165 4137.0811 4144177
-267.37991 628.61749 4163.9468 4275765
-242.38907 627.80316 4158.5527 1249288
-216.5666 624.4068 4136.0552 525827
-193.02274 627.55157 4156.8862 3881009
-168.56125 628.19678 4161.1597 4933697
-143.5769 626.78046 4151.7783 5394246
-119.03719 627.12085 4154.0327 4736060
-95.153931 631.99878 4186.3442 4736059
-70.148087 630.23187 4174.6401 5525832
-46.689846 648.01892 4292.4614 6183505
-21.157337 645.13843 4273.3809 5328710
4.091476 633.35004 4195.2949 3683629
29.098888 636.52625 4216.334 3222823
53.808113 633.25836 4194.688 3157283
78.908882 635.2077 4207.6001 2630941
105.46288 645.11017 4273.1938 2565148
129.83324 640.40698 4242.04 4144433
152.70457 631.03516 4179.9614 3486249
177.43333 630.88379 4178.9585 1775631
202.27827 631.13196 4180.6025 2235667
221.9702 617.00232 4087.0081 4011564
246.73381 618.36353 4096.0244 4274992
273.12534 623.19531 4128.0303 4077610
295.923 619.7066 4104.9214 5590850
317.85028 615.06366 4074.1665 2893081
344.62186 619.78864 4105.4644 4077099
370.9823 623.19971 4128.0596 3287840
395.43372 623.18018 4127.9302 2038030
425.38516 631.32574 4181.8862 2301200
445.54749 624.84601 4138.9644 4209199
474.40637 630.60236 4177.0942 4669750
498.79196 630.13647 4174.0083 2038799
527.29309 634.66815 4204.0264 2828061
548.26471 630.13715 4174.0127 3683115
572.3136 629.38147 4169.0073 2038290
594.62671 626.8584 4152.2944 1906961
619.70691 627.33698 4155.4648 2959649
639.13031 622.27148 4121.9111 3156514
670.40637 628.69409 4164.4541 3090977
691.67859 625.6123 4144.0405 4670266
718.6391 627.71045 4157.9385 4538680
734.46313 620.26453 4108.6167 2301719
759.38074 620.72974 4111.6982 1775120
783.38611 620.44348 4109.8022 1775374
800.18317 614.63757 4071.344 1906704
813.40942 606.50909 4017.5012 3879980
846.50604 613.23767 4062.0713 2958876
863.76984 608.44147 4030.3013 2498583
887.27332 608.1803 4028.5715 1841426
933.95044 623.40106 4129.3931 3748392
949.15247 617.3717 4089.4548 3879979
966.78168 613.18195 4061.7021 1971987
978.22491 605.36761 4009.9402 1182729
1011.4589 611.08923 4047.8401 2958620
1034.0439 610.26105 4042.354 3879977
1065.1473 614.38379 4069.6628 2234637
1087.8044 613.56 4064.2063 4472112
1108.2096 611.52917 4050.7542 2301460
1120.3036 605.09552 4008.1375 2630422
1159.1044 613.05426 4060.8562 3353634
1190.1293 616.66022 4084.7422 459008
1190.5829 604.5979 4004.8413 393216
1224.7491 609.79218 4039.2483 327936
1237.4292 604.29474 4002.8333 1050368
1261.1206 604.28015 4002.7371 722176
1291.4727 607.3988 4023.3948 2103312
1305.319 602.78229 3992.8149 1709068
1339.8677 607.72003 4025.5225 4142634
1364.8767 608.23376 4028.9255 4339757
1381.251 604.94818 4007.1616 3352861
1408.0292 606.25311 4015.8059 3155482
1412.0557 597.88141 3960.3518 3944998
1450.537 604.13348 4001.7654 2431501
1463.7155 599.81567 3973.1641 2563604
1488.4973 600.31409 3976.4658 919296
1507.1068 598.34656 3963.4329 2760983
1539.8661 601.97083 3987.4402 2300431
1613.4412 621.20038 4114.8159 2694932
1588.8387 602.62012 3991.7407 2497810
1600.2413 598.04083 3961.4077 2827033
1638.3113 603.41595 3997.0125 2366740
1637.124 594.38489 3937.1909 2695703
1651.9664 591.34564 3917.0591 3682343
1681.7776 593.67474 3932.4868 4669237
1732.3488 603.16833 3995.3723 3419170
1767.682 607.17194 4021.8918 2958363
1762.5822 597.3656 3956.9351 2629141
1796.3947 600.83167 3979.894 2234640
1796.0161 592.92035 3927.4897 2037004
1822.7944 594.06201 3935.0522 3550754
1848.2489 594.7489 3939.6021 2892570
1848.845 587.51923 3891.7129 3879720
1883.9458 591.29736 3916.7393 2629653
1888.0123 585.36169 3877.4211 2563860
1902.2532 582.68518 3859.6924 2892825
1950.1525 590.25989 3909.8672 4274478
1974.8453 590.71521 3912.8831 2958363
2053.3711 607.07556 4021.2537 2958619
2029.8755 593.24414 3929.6345 2169104
2057.7495 594.56921 3938.4121 4339758
2091.7847 597.62488 3958.6526 2760983
2094.0173 591.62756 3918.9263 2365968
2087.0742 583.19775 3863.0876 5458241
2054.5083 567.86871 3761.5483 3550245
2167.5908 592.69403 3925.9907 2958107
2200.4558 595.29077 3943.1914 3681830
2228.7725 596.61548 3951.9661 4208431
2266.2595 600.34186 3976.6494 5524804
2262.1433 593.08405 3928.574 4011309
2340.0647 607.26343 4022.498 5195839
2384.3406 612.51373 4057.2756 4011564
2387.1135 607.10382 4021.4407 1380105
2394.9011 603.06366 3994.679 3090205
2404.5605 599.5694 3971.5327 4669493
2460.4978 607.57013 4024.5298 3419426
2449.8213 599.12634 3968.5979 2432275
2523.489 611.27411 4049.0647 2958363
2491.3342 597.80072 3959.8171 1708297
2521.6279 599.42352 3970.5669 2892826
2584.4399 608.67499 4031.8479 3090463
2569.665 599.65143 3972.0762 4274996
2621.812 606.26666 4015.8953 4998976
2609.0271 597.883 3960.3623 1315344
2649.9111 601.83807 3986.5605 1905933
2708.9485 609.80963 4039.3643 3353121
2710.1335 604.73254 4005.7336 4011051
2723.9971 602.54822 3991.2644 3945257
2765.8279 606.53448 4017.6697 4537138
2830.4258 615.40283 4076.4133 4602929
2803.1294 604.31018 4002.9358 2957848
2811.0029 600.92212 3980.4932 2628627
2844.417 603.00494 3994.2898 2496527
2872.4983 603.93219 4000.4319 2167563
2923.239 609.56934 4037.7722 2430990
2916.04 603.1311 3995.1255 2760212
2945.8196 604.3833 4003.4202 2628370
2970.7876 604.63629 4005.0959 2891796
2969.4873 599.58136 3971.6118 4076069
3000.135 601.00592 3981.0481 4207656
2994.4607 595.18866 3942.5151 2957589
3061.3013 603.76324 3999.313 3089177
3046.0557 596.14111 3948.824 3089178
3023.2917 587.17499 3889.4326 2826520
3043.2234 586.57397 3885.4517 1379332
3050.084 583.48157 3864.9675 2891799
3086.804 586.10474 3882.3433 2760213
3103.0896 584.83789 3873.9517 1510145
3158.5032 590.90985 3914.1724 2036230
3191.9507 592.81372 3926.7837 2365196
3110.6331 573.53003 3799.0486 4075814
3199.228 585.62628 3879.1741 2102280
3213.4768 584.03778 3868.6521 1970440
3240.0957 584.70416 3873.0657 2430991
3283.8337 588.42865 3897.7368 2234383
3332.6353 593.00214 3928.0315 2431506
3345.6829 591.19434 3916.0566 3023899
3362.229 590.02533 3908.3132 2365969
3407.9807 593.96252 3934.3933 3023899
3434.5796 594.53076 3938.1572 2563348
3450.3096 593.22266 3929.4922 3023900
3457.9246 590.5462 3911.7634 2694681
3450.2202 585.30652 3877.0559 2102286
3510.7502 591.63513 3918.9766 1904905
3496.2144 585.31354 3877.1023 2102027
3462.106 575.81909 3814.2114 2496785
3566.0237 589.25549 3903.2141 2102026
3582.207 588.11487 3895.6582 2036233
3578.8386 583.79944 3867.073 1773062
3632.1387 588.72412 3899.6938 2891541
3615.4941 582.32104 3857.2803 2891285
3659.4285 585.69415 3879.6238 2759956
3669.9045 583.70361 3866.4382 2430991
3625.9529 573.13452 3796.4292 1773062
0 0 0 0
0 0 0 0
0 0 0 0
0 0 0 0
0 0 0 0
0 0 0 0
-3904.5745 680.81134 4339.3364 3683622
-3973.9661 697.50439 4445.7344 4933432
-3975.3923 702.41156 4477.0112 4670515
-4026.7104 716.25928 4565.2734 5196859
-3934.29 704.55353 4490.6641 5394238
-3877.9958 699.20203 4456.5542 4144171
-3961.8125 719.21216 4584.0947 5460290
-3910.1428 714.73322 4555.5469 5855306
-3906.05 718.94904 4582.4175 5328962
-3759.1509 696.75482 4440.9565 4079409
-3807.8938 710.76538 4530.2568 5592135
-3823.2383 718.69659 4580.8086 5394756
-3791.646 717.85498 4575.4443 3618346
-3741.571 713.47675 4547.5386 3420710
-3705.1104 711.65002 4535.895 3618091
-3684.6846 712.89886 4543.855 2499612
-3619.3726 705.41779 4496.1724 2301718
-3580.0535 702.92938 4480.3115 2302230
-3529.8931 698.25909 4450.5444 1644045
-3518.4973 701.24451 4469.5728 1117960
-3522.7915 707.4259 4508.9717 4473397
-3483.7764 704.93823 4493.1157 5196863
-3488.0669 711.24255 4533.2983 6578773
-3468.0339 712.64661 4542.2471 6184015
-3447.3516 713.93805 4550.4785 4737082
-3466.3083 723.5238 4611.5757 3289638
-3426.238 720.84308 4594.4897 2236949
-3481.0676 738.24542 4705.4082 1381392
-3403.7229 727.67163 4638.0132 3750190
-3305.0044 712.31903 4540.1592 4078386
-3310.5576 719.37225 4585.1152 4605500
-3299.7195 722.95111 4607.9258 3947571
-3268.6333 722.11627 4602.6045 4210742
-3242.1282 722.28809 4603.6997 4605502
-3225.6846 724.72321 4619.2207 4408120
-3208.3716 727.00305 4633.752 3947571
-3188.3708 728.70813 4644.6196 2894883
-3089.2334 712.19836 4539.3901 2960675
-3048.4175 708.9624 4518.7646 3223077
-2989.5935 701.44366 4470.8423 4407860
-2943.0537 696.69861 4440.5981 6052684
-2949.0303 704.41205 4489.7622 6118989
-2961.0598 713.72504 4549.1206 6382161
-2927.3777 712.08954 4538.6968 5855818
-2944.2397 722.83282 4607.1719 5724746
-2940.0159 728.552 4643.6245 5856077
-2868.9609 717.66162 4574.2119 5527113
-2850.948 719.95831 4588.8506 4277047
-2768.0637 705.75946 4498.3501 3684395
-2764.8193 711.78717 4536.7695 4802877
-2760.7839 717.72766 4574.6328 4539705
-2689.0842 706.02069 4500.0151 3289637
-2734.8972 725.24121 4622.5225 4934717
-2681.5842 718.29846 4578.271 6907993
-2631.0403 711.9632 4537.8911 3881001
-2606.5046 712.60748 4541.998 7565410
-2612.9858 721.83368 4600.8032 3683623
-2558.8716 714.3385 4553.0308 3947053
-2555.0518 720.87341 4594.6831 5328449
-2509.4106 715.62268 4561.2163 3946540
-2488.8333 717.48315 4573.0742 1775883
-2447.1492 713.23285 4545.9839 2104078
-2418.3196 712.67615 4542.4355 2630677
-2393.1934 713.21051 4545.8413 4012587
-2341.8118 705.84351 4498.8857 4736567
-2283.5823 696.21906 4437.5415 6710871
-2263.3838 698.10016 4449.5317 5000512
-2264.1313 706.56238 4503.4678 4671805
-2256.2451 712.49994 4541.3125 6119252
-2248.2195 718.53625 4579.7866 4408379
-2175.6311 703.83368 4486.0757 3289900
-2150.0378 704.15857 4488.1465 4868931
-2068.7607 686.02625 4372.5752 5526860
-2072.3721 695.9411 4435.77 5987410
-2044.8218 695.51147 4433.0317 6579290
-1994.1711 687.11127 4379.4907 5263173
-1955.5929 682.70404 4351.3999 5526089
-1938.902 685.922 4371.9106 5526086
-1920.2783 688.53418 4388.5601 6381397
-1902.6306 691.57281 4407.9277 7039326
-1880.8304 693.16571 4418.0806 5986894
-1850.8121 691.73218 4408.9434 5592136
-1817.6094 689.05029 4391.8496 5328450
-1783.3433 685.88147 4371.6523 5657415
-1773.5125 692.15576 4411.6431 5788745
-1760.0303 697.17139 4443.6118 5459522
-1704.8877 685.58649 4369.772 5130814
-1677.7783 685.09113 4366.6147 4999228
-1651.7102 685.01202 4366.1108 3814955
-1607.3757 677.23438 4316.5376 3288611
-1606.4489 687.78967 4383.8149 4933437
-1583.9937 689.32336 4393.5903 5065022
-1521.5844 673.23047 4291.0176 6249552
-1511.2294 680.01361 4334.252 5657928
-1501.7456 687.43011 4381.5229 4868155
-1476.9032 687.95337 4384.8584 5591878
-1428.7352 677.43561 4317.8203 5197119
-1419.8097 685.48035 4369.0957 4802361
-1388.7805 682.95422 4352.9946 5723464
-1362.9215 682.92303 4352.7959 5131072
-1340.3341 684.56152 4363.2393 2630684
-1315.0958 684.88403 4365.2949 4012337
-1272.657 676.08185 4309.1919 4210226
-1244.1196 674.45544 4298.8252 4342069
-1204.9648 666.88477 4250.5718 4012848
-1170.8201 661.82294 4218.3086 4012591
-1141.4908 659.32147 4202.3652 4802619
-1117.1603 659.66022 4204.5239 4275507
-1094.5524 661.05469 4213.4121 1052168
-1072.0845 662.60089 4223.2671 2564888
-1052.4352 666.00464 4244.9619 1972748
-1029.9861 667.75995 4256.1499 3946283
-1003.4692 666.89996 4250.6685 4078126
-964.44604 657.46997 4190.564 5065279
-948.27246 663.53003 4229.1895 5789517
-915.63873 658.08887 4194.5088 5460809
-896.23828 662.12048 4220.2051 5395018
-876.65503 666.24457 4246.4912 6315863
-836.57104 654.57172 4172.0913 5921618
