# .PCD v0.7 - Point Cloud Data file format
VERSION 0.7
FIELDS x y z rgb
SIZE 4 4 4 4
TYPE F F F U
COUNT 1 1 1 1
WIDTH 1278
HEIGHT 1
VIEWPOINT 0 0 0 1 0 0 0
POINTS 1278
DATA ascii
-2736.2017 628.10895 5442.439 9215148
-2706.1628 628.62329 5446.8955 9149355
-2675.585 629.02338 5450.3618 9215149
-2637.9207 627.74683 5439.3008 9280941
-2605.9219 627.80353 5439.7925 9149612
-2578.7273 629.03363 5450.4512 9149355
-2546.033 628.93634 5449.6079 9083819
-2519.4131 630.35645 5461.9126 9018026
-2504.2979 634.72931 5499.8032 9018026
-2468.926 634.01581 5493.6201 9017769
-2435.7148 633.8454 5492.144 8951977
-2425.7566 639.80341 5543.7686 9083562
-2403.2502 642.57001 5567.7407 9017769
-2376.3494 644.22223 5582.0571 8952233
-2365.5425 650.34583 5635.1167 9149355
-2372.9729 661.73047 5733.7622 8557220
-2430.7517 687.69 5958.6968 9017771
-2376.0432 682.1217 5910.4487 9083307
-2258.8594 658.18286 5703.0234 9149355
-2228.4041 659.17145 5711.5889 9149355
-2190.9988 658.10309 5702.3315 9149612
-2151.9617 656.50323 5688.4692 9149355
-2113.2173 654.9433 5674.9526 9083562
-2070.5305 652.09131 5650.2407 8820133
-1995.226 638.70404 5534.2427 8096151
-1967.9115 640.48846 5549.7046 8424600
-1931.6481 639.3714 5540.0259 4739165
-1923.2341 647.59332 5611.2666 6976385
-1901.7866 651.63855 5646.3179 8029329
-1875.0488 653.98358 5666.6372 7436165
-1818.283 645.74988 5595.2939 5791595
-1790.9395 647.85352 5613.5215 6120560
-1769.5426 652.2287 5651.4316 8819358
-1740.1448 653.76672 5664.7578 8754337
-1695.9462 649.69525 5629.4795 8424603
-1662.5906 649.69763 5629.5 5726573
-1643.8323 655.521 5679.9585 6450295
-1607.34 654.36823 5669.9697 7964049
-1570.4252 652.99054 5658.0327 9279653
-1537.2546 653.14349 5659.3584 4871004
-1500.2291 651.62897 5646.2349 4804696
-1459.9524 648.60089 5619.9971 6975865
-1428.7531 649.55835 5628.2935 7963020
-1385.924 645.14789 5590.0776 8094863
-1355.0137 646.20551 5599.2417 7502470
-1316.6649 643.67975 5577.3569 5396321
-1271.8237 637.76825 5526.1348 2565934
-1249.7411 643.25848 5573.7061 2697511
-1214.955 642.33057 5565.666 4868421
-1183.7848 643.31586 5574.2036 8093053
-1168.8801 653.45087 5662.0215 6382692
-1122.1836 645.88666 5596.479 4277576
-1090.9463 647.03052 5606.3906 6844532
-1068.5826 653.67444 5663.9585 8752534
-1019.7369 644.02429 5580.3418 9015453
-987.9342 644.85162 5587.5107 6515828
-948.76599 640.76202 5552.0752 6909555
-915.48041 640.4942 5549.7544 5329749
-854.33917 619.9917 5372.104 4803143
-813.22998 613.00183 5311.5386 5855319
-799.96857 627.28558 5435.3047 2894632
-785.94366 642.14417 5564.0508 3881270
-757.75671 646.22632 5599.4224 3749940
-708.98413 632.32281 5478.9512 5000262
-673.23132 629.25391 5452.3594 4210743
-632.04352 620.53955 5376.8511 4868932
-615.33777 636.21234 5512.6528 4013626
-583.54401 637.16827 5520.9355 2895146
-556.00641 643.16089 5572.8608 3289648
-522.92059 643.08728 5572.2231 4276541
-491.14581 644.72473 5586.4111 2960422
-453.58759 638.45831 5532.1138 4604730
-426.33655 646.85382 5604.8594 4078130
-388.76682 639.68939 5542.7808 2894115
-357.73148 642.94678 5571.0054 4604734
-323.05692 639.66071 5542.5322 5197386
-291.62164 642.77063 5569.479 5000262
-260.96851 648.61835 5620.1484 4143924
-223.26744 636.09717 5511.6553 2959391
-186.07225 620.9729 5380.606 4406836
-156.58551 630.63818 5464.354 4933439
-121.80466 618.46283 5358.8569 4868419
-88.446861 607.47308 5263.6333 5856085
-60.355011 640.38141 5548.7773 5724500
-27.549698 642.19788 5564.5166 5855828
5.4480209 644.70752 5586.2617 4145209
38.311871 640.66858 5551.2651 5197896
70.317734 632.64227 5481.7188 4276796
105.52529 649.39142 5626.8472 4013881
138.65211 648.367 5617.9707 2697764
168.25629 634.45624 5497.4365 2960936
202.97563 641.21777 5556.0239 3684143
235.80171 640.94568 5553.6665 4407093
268.35983 640.10107 5546.3481 4472627
304.86765 647.8338 5613.3506 4735798
343.44266 658.00555 5701.4868 5130813
376.31476 656.40759 5687.6406 5328450
414.13687 662.99689 5744.7354 5262660
448.2215 663.05615 5745.249 4933954
482.78763 663.7691 5751.4268 4736320
515.73364 662.30743 5738.7617 4275256
550.94318 663.75366 5751.293 4340791
575.48853 652.93213 5657.5264 3813932
612.08093 656.21777 5685.9961 4077102
647.30182 657.76685 5699.4185 4340273
676.70001 653.53894 5662.7847 4537909
749.17859 689.35059 5973.0854 3945770
776.90686 682.61194 5914.6963 3221791
799.91357 672.48572 5826.9546 3682598
825.13788 664.98474 5761.96 3813928
855.14838 661.78394 5734.2256 3814186
878.22473 653.66663 5663.8906 3354149
908.95813 651.63635 5646.2988 3749420
938.10638 648.65417 5620.459 4868157
974.88062 650.96863 5640.5132 4341041
1003.3776 647.78589 5612.9355 4012075
1059.408 662.01263 5736.2075 2498067
1104.3893 668.6651 5793.8496 2827289
1118.8168 656.97491 5692.5566 4077357
1149.7233 655.36249 5678.585 4998458
1197.4343 663.14819 5746.0469 4932922
1226.613 660.5238 5723.3071 4669237
1256.9261 658.63507 5706.9414 4208686
1300.8722 663.80188 5751.7104 3023900
1341.3237 666.96716 5779.1372 1708297
1340.6609 650.03992 5632.4663 2103054
1377.0121 651.44592 5644.6489 2892570
1418.2598 655.04675 5675.8496 4208687
1457.1475 657.41602 5696.3789 3814187
1479.462 652.37012 5652.6567 4012336
1520.3452 655.55408 5680.2451 4143667
1560.3892 658.24615 5703.5718 4011825
1577.8441 651.49701 5645.0913 4209716
1615.8756 653.34772 5661.1279 3420199
1674.5969 663.31873 5747.5244 3485992
1725.9717 670.04004 5805.7632 3682857
1746.9677 664.93579 5761.5361 3156258
1770.0952 660.82306 5725.8999 3682345
1793.6281 657.01349 5692.8906 3090463
1808.3484 650.17609 5633.646 3156256
1842.5966 650.48041 5636.2827 3748392
1849.3234 641.23114 5556.1396 3485221
1903.7076 648.54108 5619.479 2432533
1903.2521 637.23846 5521.5439 3419429
1944.366 640.00073 5545.4785 3156512
1993.6473 645.31494 5591.5254 3221792
2013.2679 641.01147 5554.2368 2629398
2051.7988 642.77063 5569.479 2497812
2053.4771 633.11188 5485.7881 4076844
2099.2573 637.13953 5520.687 3353121
2140.7019 639.74786 5543.2876 2958363
2174.9785 640.16754 5546.9238 2892571
2226.6399 645.61542 5594.1289 2629398
2266.4539 647.51874 5610.6206 2563349
2304.9805 649.00458 5623.4951 2563604
2314.9705 642.52765 5567.3735 3090204
2351.7163 643.55444 5576.271 3155997
2393.231 645.83972 5596.0723 2300432
2402.5256 639.48651 5541.0229 1905418
2460.0398 645.96625 5597.1689 2037003
2497.3457 647.03778 5606.4536 1576453
2498.772 638.90729 5536.0039 1905417
2486.1411 627.4397 5436.6401 3550498
2538.7686 632.52448 5480.6982 3024155
2559.4729 629.62775 5455.5986 3681571
2609.5786 633.9458 5493.0137 2958104
2619.7041 628.56458 5446.3867 2365967
2643.9902 626.67078 5429.9771 3287326
2715.5317 635.88812 5509.8438 3155740
2790.2485 645.62115 5594.1787 2958618
2763.4753 631.91809 5475.4443 4011306
2807.7476 634.59045 5498.5996 4011051
2839.3108 634.36194 5496.6196 3353121
2920.0671 645.00476 5588.8374 2827034
2990.7388 653.20624 5659.9019 2695704
3043.7854 657.41907 5696.4048 2564374
3043.7117 650.19196 5633.7837 2630168
3095.8252 654.14886 5668.0693 4076844
3050.8838 637.73328 5525.8315 2892570
3069.8625 634.88574 5501.1582 2958363
3022.5586 618.53406 5359.4741 2695191
3202.2476 648.49103 5619.0454 2432019
3274.2839 656.25494 5686.3179 3024156
3311.7588 657.00415 5692.8096 3353377
3433.6099 674.30841 5842.748 1840139
3423.4016 665.59174 5767.2192 2958106
3497.3411 673.24591 5833.5415 2826777
3477.5337 662.88049 5743.7271 2826777
3526.634 665.72363 5768.3628 2497812
3476.897 650.03394 5632.4141 3418914
3540.3035 655.59442 5680.5947 4011051
3569.8535 654.8396 5674.0547 2958106
3589.8181 652.35712 5652.5439 4603187
3590.1475 646.38525 5600.7988 4011306
3735.6367 666.41858 5774.3843 3090458
3760.0051 664.67706 5759.2939 3682594
3760.8801 658.85114 5708.8135 3945253
3837.9243 666.35376 5773.8228 3287067
3813.5005 656.26239 5686.3823 3353373
3865.3623 659.36066 5713.2285 3682339
3874.5586 655.19037 5677.0938 3813927
3885.0327 651.30615 5643.438 3682341
3908.592 649.66309 5629.2012 4011306
3921.7805 646.33868 5600.396 3945514
3971.2446 648.99847 5623.4424 3616548
4012.2708 650.24646 5634.2554 3748133
4148.1313 666.71625 5776.9634 3616805
4113.6538 655.76263 5682.0522 3616548
4134.9082 653.79901 5665.0381 4340015
4215.7383 661.21106 5729.2622 3813927
4296.2695 668.45831 5792.0576 3747878
4267.3286 658.69275 5707.4409 3879721
4295.1782 657.77783 5699.5137 3418657
4310.8047 655.01996 5675.6172 2563605
4339.3027 654.24548 5668.9062 2629140
4350.9165 650.95673 5640.4102 2892313
4381.7607 650.57336 5637.0884 3155229
4395.1929 647.63013 5611.5859 3287070
4439.1196 649.1908 5625.1084 3221020
4468.1055 648.55939 5619.6377 3352606
4528.7676 652.50122 5653.793 3484449
4493.6812 642.69116 5568.7905 3286556
4581.2544 650.43909 5635.9248 3417630
4618.2056 650.93964 5640.2622 3418656
4643.5874 649.81409 5630.5093 3352864
4690.0488 651.63336 5646.2729 3747622
4655.0771 642.19269 5564.4712 3154972
4735.7358 648.72449 5621.0679 3878438
4778.0845 649.9538 5631.7197 3154715
4758.5649 642.80853 5569.8076 2430992
4763.5703 639.05188 5537.2568 2628371
4870.4517 648.92023 5622.7642 2759956
4791.2275 634.02692 5493.7168 3023129
4825.0229 634.1897 5495.127 3023898
4852.7251 633.55481 5489.626 2958104
4889.2397 634.07117 5494.1001 2825492
4877.7622 628.39795 5444.9429 3022871
4851.8584 620.953 5380.4341 2825748
4892.4673 622.06213 5390.0444 2825747
4883.8213 616.93494 5345.6182 2826003
4941.9883 620.2594 5374.4238 2826002
4986.3623 621.82111 5387.9561 2826003
4991.1084 618.4527 5358.7695 3220761
5013.4746 617.29645 5348.7505 3352347
5057.9067 618.85455 5362.251 3220760
5119.2417 622.44836 5393.3911 3286554
5089.333 614.97217 5328.6113 3352347
0 0 0 0
0 0 0 0
0 0 0 0
0 0 0 0
0 0 0 0
-4260.3574 570.73334 4703.7549 9280941
-4236.1509 571.22809 4707.8325 9346734
-4212.5605 571.81299 4712.6533 9346734
-4186.1777 572.02423 4714.394 9346735
-4158.4629 572.05493 4714.6475 9346734
-4128.3003 571.74713 4712.1104 9478320
-4096.2217 571.16797 4707.3374 9544114
-4059.4226 569.91815 4697.0366 9544113
-4023.5466 568.78149 4687.6689 9478320
-4000.624 569.47296 4693.3677 9412527
-3952.5791 566.573 4669.4673 9412527
-3910 564.42114 4651.7324 9346735
-3866.8757 562.15948 4633.0928 9280941
-3825.3467 560.099 4616.1113 9083563
-3782.2542 557.77832 4596.9854 9149354
-3729.1208 553.93243 4565.2891 9017769
-3678.7573 550.44482 4536.5454 8886954
-3521.8274 530.8432 4374.9966 9018537
-3448.7356 523.68134 4315.9717 4676711
-3353.1707 512.97455 4227.7305 271
-3379.895 520.95538 4293.5054 16
-3355.449 521.11041 4294.7827 16
-3329.3396 521.00751 4293.9346 16
-3305.3691 521.2403 4295.8535 65551
-3294.5591 523.56818 4315.0386 262162
-3261.6162 522.38757 4305.3091 327687
-3290.2598 531.13007 4377.3608 14083802
-3270.6833 532.16559 4385.8955 592674
-3296.1409 540.60388 4455.4404 197664
-3301.4783 545.85181 4498.6919 7502231
-3381.0906 563.56549 4644.6807 9871801
-3409.9954 573.04858 4722.8364 9412018
-3430.8853 581.33057 4791.0933 9412273
-3444.4504 588.49927 4850.1748 9412274
-3445.1018 593.56372 4891.9141 9543860
-3442.6003 598.16632 4929.8467 9543860
-3449.6086 604.51422 4982.1636 9543603
-3440.5779 608.13666 5012.0186 9412273
-3438.4597 613.05475 5052.5513 9412273
-3432.1553 617.30627 5087.5908 9215148
-3420.4536 620.65387 5115.1802 9280941
-3404.0061 623.19244 5136.1021 9215148
-3385.2686 625.35376 5153.9146 9412527
-3356.8784 625.75507 5157.2222 9412528
-3326.7703 625.84064 5157.9272 9412273
-3309.0464 628.27911 5178.0244 9280687
-3293.1677 631.11688 5201.4121 9280688
-3283.7788 635.26373 5235.5889 9412273
-3250.188 634.76306 5231.4624 9412273
-3231.7734 637.24518 5251.9189 9478322
-3221.8943 641.4751 5286.7803 9280686
-3205.9058 644.55957 5312.2017 9280942
-3177.3247 645.1485 5317.0552 9281199
-3151.5012 646.3147 5326.6665 9280942
-3107.9028 643.82227 5306.125 9215405
-3090.0513 646.66711 5329.5708 9215148
-3055.4846 646.0365 5324.3735 9215148
-3023.4648 645.93683 5323.5522 9083562
-3002.4287 648.20642 5342.2573 9083562
-2983.0039 650.87598 5364.2583 9215148
-2955.1213 651.73761 5371.3599 9083562
-2924.6912 652.05011 5373.9355 9280941
-2891.4473 651.73529 5371.3408 9149612
-2852.4646 650.10547 5357.9087 9149868
-2823.8064 650.8186 5363.7856 9083562
-2801.8674 653.11414 5382.7046 8951976
-2792.5242 658.43243 5426.5361 8885926
-2768.6604 660.41107 5442.8428 9412270
-2756.3481 665.22412 5482.5107 9017511
-2713.5728 662.71246 5461.8101 9412270
-2670.2805 660.01221 5439.5562 9412013
-2602.3855 651.09076 5366.0288 9346221
-2569.5669 650.83276 5363.9023 9412014
-2573.2041 659.91772 5438.7773 9345706
-2538.8474 659.36578 5434.2285 7897486
-2519.1567 662.65747 5461.3569 6252401
-2482.104 661.40839 5451.0625 6779001
-2460.5581 664.31293 5475.001 8884637
-2419.5168 661.9613 5455.6196 8689060
-2394.7998 664.07269 5473.021 8755110
-2365.0667 664.83197 5479.2788 9018026
-2338.5652 666.53357 5493.3022 8952234
-2368.7656 684.67236 5642.7949 8623525
-2377.3398 696.99023 5744.314 9084075
-2352.1121 699.61194 5765.9209 8951463
-2287.1831 690.32812 5689.4077 8161691
-2274.1223 696.65588 5741.5581 8029591
-2196.2456 683.01843 5629.1641 8095898
-2193.1804 692.58521 5708.0093 8095384
-2120.1384 680.00739 5604.3481 8226968
-2055.3164 669.70776 5519.4629 5725546
-1999.7136 662.1275 5456.9893 1645344
-1892.5443 636.94318 5249.4302 2698287
-1894.6902 648.32233 5343.2129 3223856
-1854.1199 645.22339 5317.6724 4473409
-1835.261 649.70337 5354.5942 2039581
-1870.0997 673.685 5552.2412 3026478
-1823.3792 668.61841 5510.4849 2171428
-1767.0183 659.76764 5437.54 197637
-1733.7041 659.35303 5434.123 2171175
-1699.1653 658.44824 5426.666 2697261
-1721.3013 679.89429 5603.416 5066322
-1688.0887 679.89203 5603.3975 5461592
-1627.3947 668.5993 5510.3271 5527640
-1608.5413 674.38586 5558.0176 5330260
-1589.3265 680.25958 5606.4263 3750718
-1542.7439 674.42017 5558.3003 1579804
-1495.6755 668.10895 5506.2861 789514
-1488.4083 679.69165 5601.7461 1644825
-1426.3497 666.2113 5490.646 4473925
-1377.5187 658.42389 5426.4658 5658199
-1366.7719 668.90277 5512.8286 3224629
-1311.4525 657.54675 5419.2363 3948352
-1266.8625 651.13525 5366.3955 1580061
-1239.2793 653.35962 5384.7275 1052946
-1214.2716 657.09534 5415.5161 986895
-1182.9705 657.53571 5419.1455 2434081
-1162.3617 664.10986 5473.3267 3157803
-1119.3976 657.922 5422.3291 4737091
-1104.2122 668.17773 5506.853 3815992
-1076.9523 671.52924 5534.4746 4145471
-999.51862 642.823 5297.8892 3027504
-962.00995 638.76447 5264.4404 4803659
-931.99622 639.57733 5271.1396 5987421
-901.80865 640.32306 5277.2856 4079678
-853.87817 628.07166 5176.3145 5263436
-828.88391 632.40656 5212.041 5461070
-801.71997 635.35754 5236.3623 5723984
-760.82764 627.22852 5169.3657 6184531
-750.92096 645.03369 5316.1089 5394756
-708.0199 634.81543 5231.894 4999742
-691.40186 648.30591 5343.0771 5262913
-672.64453 660.98907 5447.6069 5723465
-623.87518 643.97241 5307.3623 5789516
-605.71686 658.42346 5426.4619 6052691
-568.53723 652.65924 5378.9556 5789777
-548.33917 666.86237 5496.0122 4407870
-503.1698 650.57281 5361.7598 2828838
-469.94885 648.57709 5345.312 3881266
-435.81271 644.9386 5315.3252 4275765
-415.14383 662.21545 5457.7139 5131074
-371.99384 643.52118 5303.6431 5197123
-336.86877 636.54004 5246.1074 5460040
-304.76761 634.43414 5228.7515 4801854
-276.90381 641.67084 5288.3936 4143925
-247.44814 646.59503 5328.9771 4209202
-211.4196 633.27216 5219.1753 4209458
-181.83719 638.00018 5258.1416 4208687
-148.89005 630.43665 5195.8062 4077100
-117.49753 627.22803 5169.3618 3617063
-86.890045 627.42493 5170.9844 4999486
-58.140869 648.56573 5345.2188 4670521
-26.12678 640.30219 5277.1138 4407350
5.2073679 647.87213 5339.5024 4802111
36.688789 645.03088 5316.0859 3749422
68.093948 644.09351 5308.3604 3552559
99.944763 646.6319 5329.2808 3618353
130.13782 639.80115 5272.9844 3355437
158.74585 629.33197 5186.7017 3157799
189.16617 628.2785 5178.0195 4275764
221.96733 634.323 5227.8354 3091232
257.84131 646.59247 5328.9556 2630424
294.77521 658.55231 5427.5239 3155741
332.41507 669.58099 5518.418 4997943
360.25739 660.6665 5444.9482 4866613
400.97607 674.89014 5562.1738 4340271
436.35281 678.64478 5593.1177 3287328
461.73404 667.42102 5500.6162 3156000
496.29245 670.06805 5522.4321 3024158
508.20828 643.70807 5305.1836 3485222
543.1842 647.92627 5339.9482 3748651
579.75641 653.47919 5385.7134 2892572
606.11053 647.53632 5336.7344 3353635
660.08545 670.22797 5523.75 3353894
674.1048 652.12268 5374.5337 2300949
715.1366 660.6037 5444.4307 2169365
759.81885 671.5791 5534.8853 2366486
774.8656 656.53619 5410.9077 2497813
795.0249 646.84845 5331.0654 3023900
822.43829 643.57776 5304.1099 2826775
855.73438 644.98175 5315.6812 2958362
909.45819 661.13623 5448.8193 2892825
937.56793 658.20093 5424.6279 3879978
972.91522 660.3728 5442.5278 3945513
1009.9708 663.52759 5468.5283 3353633
1038.0251 660.75647 5445.6899 4340272
1046.531 646.08405 5324.7656 5129788
1071.7277 642.27313 5293.3574 4537908
1137.0804 662.05975 5456.4307 3288097
1174.1998 664.76788 5478.75 3550756
1191.1243 656.20465 5408.1753 3813928
1250.2045 670.70569 5527.687 4208684
1264.407 661.00513 5447.7393 5129787
1315.4867 670.58624 5526.7026 4208685
1349.4817 671.20428 5531.7964 3747878
1336.7877 649.12164 5349.8003 3880234
1389.981 659.3147 5433.8071 3880235
1441.4806 668.26099 5507.5386 4406837
1476.016 669.12073 5514.6245 2696219
1491.2041 661.36255 5450.6846 3222819
1496.0688 649.4519 5352.522 5393475
1545.9723 657.18152 5416.2261 4077100
1571.005 654.23926 5391.9775 3616804
1637.1144 668.17963 5506.8682 3813927
1686.4716 674.87128 5562.0186 3221790
1702.2036 668.10876 5506.2847 3090460
1713.714 659.97473 5439.2471 4472114
1730.809 654.25201 5392.083 4077356
1761.5432 653.79913 5388.3501 3617062
1800.9009 656.50592 5410.6582 3222047
1823.6112 653.15558 5383.0459 2958876
1833.0631 645.2533 5317.9185 2695447
1828.1586 632.6499 5214.0469 2760984
1899.7642 646.50238 5328.2134 3089949
1956.7462 655.00684 5398.3037 2037261
1975.9229 650.78619 5363.5186 1774089
2008.0958 650.9118 5364.5542 1248003
2004.3264 639.56464 5271.0352 3287329
2053.1467 645.08917 5316.5659 2695446
2072.457 641.31494 5285.4604 4866615
2102.2632 640.8526 5281.6499 3748391
2174.1157 653.0332 5382.0376 3616549
2170.2092 642.43506 5294.6919 3155996
2203.4207 642.97021 5299.1025 3419169
2228.4839 641.146 5284.0679 2958618
2287.5176 649.01044 5348.8838 3287583
2299.176 643.40234 5302.6641 2629909
2304.1567 636.10211 5242.498 2761240
2354.3533 641.3125 5285.4404 2497811
2381.3926 640.16113 5275.9512 787456
2422.8206 642.85736 5298.1724 2629397
2460.5315 644.51093 5311.8003 2760726
2496.2292 645.60205 5320.793 2892314
2505.594 639.94037 5274.1318 3419169
2503.8828 631.62427 5205.5938 2760982
2541.7437 633.37134 5219.9927 3089947
2603.4578 640.94897 5282.4443 2892312
2623.0518 638.10016 5258.9653 3155227
2684.7776 645.44702 5319.5156 4273709
2739.4543 650.94849 5364.856 3287582
2771.6973 651.05408 5365.7266 3813927
2853.8083 662.73816 5462.022 6840661
2896.0405 665.00305 5480.688 3551268
2961.0015 672.37878 5541.4761 3024155
2992.5017 672.07788 5538.9961 3089949
2990.3616 664.3103 5474.979 3155742
2929.6753 643.84296 5306.2954 2892570
2963.2551 644.30695 5310.1191 3616293
3004.8911 646.49432 5328.147 2695190
3093.3015 658.59503 5427.876 4011050
3149.207 663.59723 5469.1021 3682085
3174.4817 662.10876 5456.835 3024411
3272.6235 675.69513 5568.8081 3287326
3359.5291 686.71344 5659.6167 3287070
3354.5271 678.91302 5595.3286 3155742
3353.4128 672.04443 5538.7207 2760984
3370.7419 668.9693 5513.377 2366226
3360.0066 660.43695 5443.0566 2037004
3418.9709 665.6366 5485.9102 2826520
3398.0667 655.33527 5401.0103 3287328
3512.311 671.04712 5530.501 1971467
3547.946 671.5885 5534.9629 5524286
3629.667 680.76367 5610.5811 3945255
3581.7632 665.68109 5486.2764 4274218
3560.2512 655.73071 5404.2695 4339495
3619.9255 660.7774 5445.8623 4339751
3651.6567 660.67932 5445.0542 4274215
3692.5471 662.22565 5457.7979 4076838
3768.2249 669.92963 5521.2915 4603182
3692.0745 650.74078 5363.1445 4208170
3763.7214 657.70691 5420.5566 3023639
3799.8538 658.40161 5426.2817 3747362
3791.416 651.4267 5368.7974 3813668
3850.5715 656.0849 5407.1885 2761238
3914.3279 661.44366 5451.353 3418656
3992.9136 669.20001 5515.2778 5392445
4020.9072 668.42017 5508.8506 3287070
4052.3477 668.22125 5507.2114 3681828
4038.3484 660.59247 5444.3384 3879206
4058.7563 658.6684 5428.481 3879207
4099.0132 659.9704 5439.2114 4274221
4092.137 653.72253 5387.7188 4340015
4083.9165 647.35834 5335.2676 3747622
4178.1543 657.20819 5416.4463 3616036
4172.6924 651.34497 5368.124 3023899
4248.6201 658.17914 5424.4482 3089691
4263.4053 655.50977 5402.4487 3287070
4289.9863 654.68036 5395.6128 2760726
4308.5083 652.64252 5378.8179 2563347
4383.7261 659.15961 5432.5288 2759956
4400.5967 656.87219 5413.6772 3023128
4434.854 657.19446 5416.333 2957335
4523.0884 665.45337 5484.3999 3286299
4581.814 669.28406 5515.9707 3023128
4578.8477 664.11267 5473.3501 2957335
4579.5781 659.54639 5435.7168 3023128
4602.9741 658.28546 5425.3247 3154715
4693.9448 666.63898 5494.1709 2496785
4665.877 658.08795 5423.6968 2167564
4642.4639 650.30591 5359.5605 1773062
4644.5649 646.17932 5325.5508 1904649
4686.501 647.61304 5337.3672 2563347
4644.5059 637.5072 5254.0786 2102796
4710.5005 642.25995 5293.249 2958105
4727.2686 640.28235 5276.9502 2958105
4735.2275 637.14545 5251.0972 3088664
4756.4497 635.82245 5240.1934 3154714
4787.2026 635.78241 5239.8633 3220761
4828.9233 637.19012 5251.4653 2496783
4881.3857 639.9881 5274.5254 2759956
4869.1978 634.32825 5227.8789 2957589
4897.6343 633.99878 5225.1636 3023382
4933.2041 634.59106 5230.0449 3154967
4910.7266 627.75555 5173.7095 3154968
4949.4517 628.78003 5182.1528 2957333
0 0 0 0
0 0 0 0
0 0 0 0
0 0 0 0
0 0 0 0
0 0 0 0
-4228.2681 598.01282 4699.0718 9281197
-4207.333 598.99695 4706.8052 9346991
-4182.1104 599.3797 4709.813 9478320
-4155.6572 599.59015 4711.4663 9346991
-4129.0371 599.77917 4712.9517 9083820
-4100.0625 599.62634 4711.751 9215149
-4066.0642 598.73169 4704.7212 9280941
-4038.3665 598.75891 4704.9351 9215148
-4001.1218 597.36121 4693.9517 9280941
-3962.3877 595.71991 4681.0547 9280940
-3917.99 593.198 4661.2383 9280941
-3872.22 590.43109 4639.4961 9280941
-3830.8364 588.29822 4622.7363 9215148
-3775.6946 584.00647 4589.0127 9083820
-3721.1223 579.74115 4555.4971 8820648
-3647.782 572.46826 4498.3477 9347248
-3548.179 560.93634 4407.7319 5267051
-3332.0879 530.68097 4169.9912 271
-3381.6895 542.60498 4263.6875 273
-3356.5393 542.6239 4263.8364 15
-3339.73 544.00177 4274.6636 15
-3304.9836 542.4566 4262.522 15
-3283.3435 543.05554 4267.228 17
-3280.8042 546.84735 4297.0234 262162
-3231.7341 542.88202 4265.8647 65558
-3291.2678 557.24188 4378.7017 17
-3123.1033 532.97211 4187.9946 65563
-3261.8025 561.10083 4409.0244 29
-3243.3025 562.42371 4419.4194 29
-3359.9966 587.4032 4615.7036 987691
-3339.0437 588.53131 4624.5684 7503257
-3360.04 597.13324 4692.1606 9872568
-3393.7231 608.15216 4778.7451 9544371
-3386.2563 611.92047 4808.356 9609907
-3403.5686 620.26849 4873.9531 9609906
-3446.2068 633.41425 4977.25 9082792
-3429.1536 635.72107 4995.3765 9214633
-3410.5513 637.77832 5011.542 8885408
-3457.041 652.151 5124.48 8489876
-3386.4019 644.48688 5064.2568 7831433
-3349.4956 643.16309 5053.8545 7831431
-3354.7227 649.9787 5107.4102 8226705
-3265.1868 638.39093 5016.3555 8688288
-3299.0366 650.93542 5114.9282 9412014
-3289.9883 655.16998 5148.2021 8885412
-3259.7307 655.22052 5148.5996 7898004
-3274.8521 664.47968 5221.356 7503503
-3217.4668 659.06323 5178.7949 9806771
-3163.7791 654.30713 5141.4224 8885410
-3179.2988 663.91071 5216.8853 5858159
-3151.4253 664.55237 5221.9272 5396576
-3135.2563 667.6994 5246.6562 4737875
-3107.3225 668.37891 5251.9956 7501439
-3009.4841 653.88367 5138.0947 7699076
-3018.6736 662.58423 5206.4619 8489109
-3009.7649 667.45099 5244.7041 8949918
-2988.2993 669.60559 5261.6348 9279655
-2927.0557 662.7984 5208.145 8884640
-2933.176 671.26251 5274.6543 8291989
-2919.9629 675.43671 5307.4546 7501442
-2831.677 662.14722 5203.0278 5133402
-2812.5527 664.91559 5224.7812 6843761
-2771.4448 662.49054 5205.7261 6383210
-2765.5752 668.52917 5253.1763 7172468
-2727.9602 666.94403 5240.7207 5001297
-2678.1912 662.31671 5204.3599 6053471
-2626.6235 657.13159 5163.6162 6908523
-2579.0151 652.82635 5129.7866 1315606
-2649.5999 678.69366 5333.0469 3421753
-2642.3882 685.01733 5382.7373 4803153
-2600.3308 682.35175 5361.7915 3355450
-2571.9971 683.26599 5368.9756 2039846
-2502.519 673.13599 5289.376 1315605
-2373.5295 646.53833 5080.3765 855055
-2321.1526 640.39429 5032.0977 2170656
-2301.4221 643.21454 5054.2588 3749689
-2374.6201 672.42383 5283.7798 5395027
-2350.2866 674.42651 5299.5166 5395285
-2335.3113 679.20526 5337.0674 3816512
-2305.3203 679.68811 5340.8613 3093045
-2305.6155 689.2381 5415.9033 3422010
-2332.4653 707.10797 5556.3213 3092532
-2301.0591 707.57593 5559.9985 2368292
-2259.9956 705.04468 5540.1084 2829101
-2133.0393 675.24805 5305.9722 3158067
-2171.2004 697.61249 5481.7075 3881789
-2101.9092 685.60718 5387.3721 4276805
-2118.177 701.56982 5512.8037 2500137
-1985.3573 667.87933 5248.0698 855568
-1936.9186 661.95404 5201.5103 2236966
-1922.8038 667.75732 5247.1113 3158322
-1898.65 670.2077 5266.3657 3224113
-1851.1183 664.34985 5220.3359 4606021
-1853.8671 676.64478 5316.9473 4934984
-1816.1957 674.35681 5298.9688 4606021
-1802.5867 681.0799 5351.7979 2829611
-1768.2686 680.0791 5343.9336 3355701
-1758.6036 688.69641 5411.6465 1250325
-1716.0652 684.52081 5378.8359 1842205
-1658.7808 674.19391 5297.689 2631978
-1624.5583 673.02264 5288.4854 3553078
-1599.0266 675.4765 5307.7671 4408644
-1585.7897 683.32678 5369.4531 5132367
-1578.3312 694.03955 5453.6318 6119518
-1557.7802 699.32257 5495.145 5921881
-1539.5317 705.88702 5546.7275 5395791
-1463.0293 685.44531 5386.1001 6119515
-1385.2889 663.49872 5213.6479 5000777
-1320.437 646.86475 5082.9414 6909030
-1307.4146 655.43744 5150.3037 5724756
-1296.7413 665.62585 5230.3628 5790548
-1260.6019 662.92114 5209.1099 5658963
-1255.1422 676.61945 5316.7485 6646115
-1237.5408 684.30939 5377.1743 5066571
-1203.5646 683.11176 5367.7637 6184796
-1157.5931 674.8562 5302.8931 6447965
-1099.8809 659.10425 5179.1172 5658706
-1077.8105 664.41943 5220.8828 6184794
-1049.165 665.87567 5232.3257 5461329
-1026.307 671.20569 5274.208 7106924
-979.73175 660.87225 5193.0098 6251359
-916.02814 637.94 5012.8125 5198159
-898.95874 647.03613 5084.2881 4934987
-885.99603 659.82135 5184.752 4211007
-835.00531 644.18756 5061.9048 3355951
-792.55573 634.22345 4983.6084 5526348
-768.9068 639.11505 5022.0459 4868670
-745.03577 644.20856 5062.0693 3684652
-715.62219 644.7359 5066.2134 5723720
-698.51746 656.88464 5161.6758 5197634
-667.99976 656.9549 5162.228 4933949
-633.25525 652.67554 5128.6016 5591879
-605.0506 655.04492 5147.2197 5329222
-571.82886 651.9458 5122.8677 5066050
-549.52026 661.63904 5199.0352 4737086
-514.7915 656.6413 5159.7637 5131843
-481.20297 652.55847 5127.6816 4407865
-455.43472 659.24518 5180.2246 4407352
-410.6731 637.4184 5008.7139 4736316
-392.0885 655.98615 5154.6157 4341558
-360.05453 653.28882 5133.4204 5526346
-319.50287 633.21259 4975.6655 6249556
-291.0997 635.57867 4994.2578 4538936
-265.25626 644.70178 5065.9453 3946543
-231.66736 634.92566 4989.1265 4538167
-202.0282 634.69781 4987.3359 3222050
-174.14505 640.854 5035.71 3879978
-146.02383 648.49908 5095.7837 3419170
-115.10309 644.45648 5064.0176 3353634
-85.802917 649.83582 5106.2876 2828059
-55.312157 647.14697 5085.1592 3814955
-25.138538 646.17334 5077.5083 4275508
4.8777189 636.49884 5001.4883 3485993
35.208618 649.24109 5101.6143 4801852
65.266602 647.5022 5087.9507 3881007
96.678787 656.05188 5155.1318 3157027
124.48534 641.9032 5043.9546 2893856
152.6273 634.62842 4986.7905 3091490
184.18349 641.6073 5041.6294 3354403
217.6855 652.47028 5126.9888 3485475
249.0118 654.94965 5146.4712 3288096
280.53033 657.33844 5165.2417 3222046
320.73373 677.60547 5324.4961 3682341
345.27466 664.11597 5218.4985 3353374
375.1293 662.22485 5203.6382 4932664
406.2196 662.6366 5206.8735 4603700
439.50565 666.31915 5235.8105 3748392
469.39401 664.70459 5223.1235 2826777
493.03098 654.98492 5146.748 3024156
526.91071 659.21222 5179.9658 1905932
562.23785 664.68549 5222.9731 3287328
593.8573 665.4328 5228.8457 3945771
626.1637 666.83765 5239.8848 3353636
652.24127 661.78979 5200.2192 2958878
692.13574 670.58392 5269.3223 3879980
713.67206 661.60022 5198.73 4735288
731.25891 649.85028 5106.4009 3550243
770.50635 657.51831 5166.6553 3484962
794.41351 652.00989 5123.3711 2892825
819.34222 647.71454 5089.6191 4340271
856.45587 653.01483 5131.2676 3089948
898.37561 661.49036 5197.8667 2827032
917.38196 653.0918 5131.8726 3748134
947.32623 652.76904 5129.3364 3879720
992.2605 662.47437 5205.5991 2760983
1020.1445 660.55432 5190.5112 3089948
1011.9905 636.09442 4998.3105 2695445
1060.0137 647.33234 5086.6157 3748132
1114.4888 661.77985 5200.1416 3616545
1153.6578 666.60571 5238.0625 2892822
1190.264 669.73676 5262.665 3484961
1210.3142 663.62988 5214.6787 4472113
1244.2247 665.23767 5227.3125 4998713
1259.6545 657.12653 5163.5767 5525057
1286.385 655.15558 5148.0889 4012077
1307.5382 650.50122 5111.5161 3946285
1363.0967 662.78674 5208.0532 2169877
1372.915 652.78009 5129.4233 2301461
1405.7183 653.89899 5138.2148 3090462
1460.005 664.75195 5223.4956 3551012
1476.2982 658.21466 5172.127 3682339
1519.6854 663.77759 5215.8394 3813925
1545.3118 661.51575 5198.0659 3813412
1574.5637 660.86395 5192.9443 4406062
1602.3934 659.65167 5183.4185 3418910
1632.3007 659.32416 5180.8452 2432016
1644.4945 651.98596 5123.1831 2958617
1706.9728 664.48853 5221.4258 1380101
1696.2894 648.57275 5096.3623 2761239
1728.2118 649.21893 5101.4399 2300431
1742.151 643.20349 5054.1719 2563089
1788.4028 649.11969 5100.6602 2826516
1842.0978 657.49585 5166.4785 3681569
1860.9902 653.37921 5134.1309 3089688
1886.6987 651.74957 5121.3252 2826518
1917.4742 651.89423 5122.4619 2563345
1952.1322 653.33374 5133.7734 2826516
1981.9874 653.1463 5132.3008 2497296
2005.8843 651.03076 5115.6772 3484447
2011.8063 643.23114 5054.3892 1773830
2041.2469 643.06958 5053.1196 2694931
2045.3456 635.04449 4990.0601 1971209
2121.5945 649.33026 5102.3149 3550240
2182.9314 658.71478 5176.0566 3221532
2181.4624 649.14966 5100.896 3155226
2167.2859 636.11627 4998.4819 3023640
2211.3137 640.28748 5031.2583 4208426
2225.3323 635.77405 4995.793 3944997
2290.6838 645.85242 5074.9868 3945254
2353.1775 654.87427 5145.8784 3089689
2384.1514 655.00562 5146.9106 3221275
2372.8948 643.67816 5057.9019 3417373
2446.624 655.39917 5150.0034 2826517
2459.2573 650.66675 5112.8169 3023896
2487.012 650.00159 5107.5903 2957847
2450.5022 632.75836 4972.0962 4076585
2534.1313 646.578 5080.6885 3615779
2583.2908 651.38153 5118.4336 2892312
2675.1306 666.71063 5238.8867 3221278
2722.7971 670.80518 5271.061 3287068
2747.7778 669.28125 5259.0859 2234896
2801.7815 674.78131 5302.3047 3353117
2813.7795 670.15503 5265.9521 3222044
2814.22 662.90771 5209.0039 3221277
2847.3223 663.42798 5213.0918 3484448
2871.71 661.92822 5201.3076 2563345
2899.1423 661.15472 5195.2295 3353118
2963.1616 668.65356 5254.1538 3418911
2994.1636 668.62335 5253.9165 3155739
3048.8022 673.81769 5294.7329 3155226
3050.3325 667.28839 5243.4263 3418655
3138.127 679.57141 5339.9443 3287069
3149.7935 675.28809 5306.2866 2695189
3195.6436 678.34564 5330.312 3221790
3227.8076 678.46661 5331.2627 3879720
3222.95 670.87891 5271.6401 3155742
3279.8208 676.16266 5313.1592 3353121
3263.1353 666.32599 5235.8643 3945513
3269.7695 661.3916 5197.0908 4076842
3365.5161 674.40619 5299.3569 4866100
3397.5332 674.52777 5300.312 4010791
3504.3196 689.35535 5416.8242 2826517
3497.8362 681.83398 5357.7231 3221529
3463.6289 669.09241 5257.6021 4010274
3506.1003 671.25848 5274.6226 3287065
3595.8389 682.35577 5361.8232 3550494
3607.2893 678.53259 5331.7817 4274216
3695.2617 689.04474 5414.3838 3155736
3604.7861 666.38763 5236.3486 2563346
3674.6196 673.49939 5292.2314 2826517
3734.74 678.72559 5333.2979 3287068
3740.0898 673.99396 5296.1177 3352861
3780.7478 675.65088 5309.1377 3418654
3826.4792 678.17975 5329.0088 3286814
3967.8313 697.47565 5480.6323 3418656
3912.7759 682.2135 5360.7051 3813414
3964.0925 685.5943 5387.271 3550242
3932.1233 674.63184 5301.1299 4076586
3965.7913 675.0152 5304.1421 3879207
4038.0769 681.914 5358.3516 4208172
3978.6814 666.64142 5238.3428 3945000
3985.6643 662.64117 5206.9097 3418655
4002.3513 660.30347 5188.54 3089691
4042.1892 661.7915 5200.2334 3023899
4122.6265 669.85388 5263.5854 2958104
4101.7539 661.45764 5197.6094 3616034
4159.3262 665.74243 5231.2788 3287070
4244.5254 674.35309 5298.9399 2695190
4273.7358 674.00745 5296.2236 2037519
4247.3486 664.9624 5225.1494 1575686
4307.3125 669.46954 5260.5654 2957335
4312.6489 665.4823 5229.2349 2957335
4350.8765 666.59125 5237.9487 2430991
4327.168 658.26257 5172.5034 2694163
4416.168 667.07605 5241.7578 3220507
4399.8906 659.97498 5185.959 2759956
4425.1982 659.16675 5179.6084 2825749
4477.7852 662.40527 5205.0557 3023128
4517.1484 663.65649 5214.8877 3154713
4523.1289 660.01959 5186.3096 3023384
4576.0005 663.22797 5211.5205 2629140
4545.4932 654.38971 5142.0708 2629140
4566.9111 653.09473 5131.8955 2432017
4571.2031 649.38409 5102.7378 3287068
4605.6465 649.97723 5107.3989 2891795
4608.2954 646.10504 5076.9717 3023379
4633.4736 645.4212 5071.5981 3352345
4709.1421 651.73395 5121.2026 2957587
4766.354 655.42786 5150.229 3089172
4821.0908 658.73657 5176.228 2497036
4810.4487 653.12683 5132.1475 2299658
4748.0176 640.60016 5033.7153 3023382
4747.8193 636.57391 5002.0781 3089175
4801.0718 639.71979 5026.7974 3089175
0 0 0 0
0 0 0 0
0 0 0 0
0 0 0 0
0 0 0 0
0 0 0 0
-4210.5479 623.23761 4679.3789 7633542
-4184.2378 623.44928 4680.9683 7436162
-4189.1357 628.34485 4717.7251 7501696
-4166.458 629.14227 4723.7119 6777717
-4141.6221 629.62231 4727.3164 6712437
-4120.2632 630.64105 4734.9653 7370110
-4055.731 625.02051 4692.7651 7436160
-4032.6826 625.7594 4698.313 7502725
-4000.2217 625.03784 4692.8955 7963278
-3971.2803 624.86005 4691.5605 8358295
-3917.6958 620.77484 4660.8882 8358809
-3870.7566 617.69214 4637.7427 7898261
-3839.6169 617.10461 4633.3315 7635860
-3771.0391 610.4483 4583.3545 7175565
-3665.5752 597.68097 4487.4951 5597305
-3484.8765 572.37018 4297.457 269
-3362.3267 556.30762 4176.8564 274
-3380.8318 563.51782 4230.9922 17
-3366.7639 565.36609 4244.8691 18
-3350.8206 566.92474 4256.5718 18
-3328.6357 567.44305 4260.4634 18
-3298.6726 566.63324 4254.3828 18
-3274.3713 566.79089 4255.5669 18
-3262.8438 569.17932 4273.4995 19
-3256.0613 572.43939 4297.9766 21
-3243.0686 574.65039 4314.5776 21
-3236.7393 578.08661 4340.3774 25
-3217.9097 579.32745 4349.6938 527402
-3230.5596 586.30145 4402.0557 2238538
-3201.6511 585.78534 4398.1807 2041672
-3314.636 611.43512 4590.7637 3949924
-3155.0667 586.81665 4405.9238 8753577
-3341.6582 626.70758 4705.4321 9674931
-3445.2449 651.57184 4892.1172 8293531
-3447.9448 657.61633 4937.5005 6581627
-3477.646 668.95819 5022.6572 3028287
-3458.0547 670.93213 5037.478 3158586
-3372.6743 660.06494 4955.8848 1447965
-3302.9556 652.09882 4896.0742 1842463
-3247.7437 646.88104 4856.8979 1973791
-3228.3213 648.76215 4871.0215 2500132
-3111.082 630.84253 4736.478 4605255
-3204.0046 655.59985 4922.3604 4145218
-3190.481 658.83099 4946.6201 3487032
-3204.3931 667.84009 5014.2622 2105379
-3159.9868 664.74976 4991.0591 3750462
-3150.4265 669.00049 5022.9746 4539721
-3166.4883 678.8252 5096.7402 4013634
-3148.1223 681.38745 5115.9785 5263699
-3040.0239 664.38898 4988.3506 2763565
-3005.5271 663.29987 4980.1733 3158322
-3033.147 676.03387 5075.7827 3487544
-3032.5457 682.66998 5125.6079 2368550
-2966.5991 674.58136 5064.877 855308
-2917.4307 670.18164 5031.8433 2960429
-2884.2698 669.40619 5026.021 4539458
-2846.6763 667.57507 5012.2725 5066058
-2771.2957 656.75049 4930.9995 4078906
-2748.1548 658.20697 4941.9351 4342080
-2706.3442 655.17517 4919.1719 2960682
-2702.259 661.30969 4965.231 4474434
-2700.7971 668.22827 5017.1768 5132107
-2703.4375 676.32721 5077.9849 5790037
-2679.2595 677.82367 5089.2207 2236958
-2615.2251 669.15613 5024.1436 3553075
-2559.1533 662.34991 4973.041 5000520
-2596.7886 679.92053 5104.9644 4605505
-2551.6875 675.987 5075.4307 4539967
-2593.2678 695.19702 5219.6631 6645344
-2542.6992 689.86963 5179.6636 6448478
-2499.4192 686.41357 5153.7153 4474175
-2472.9814 687.55469 5162.2827 3816502
-2414.6672 679.75085 5103.6904 4934724
-2398.9521 683.89313 5134.7915 6316118
-2328.6685 672.38568 5048.3916 5263686
-2294.0811 671.0199 5038.1367 4934979
-2320.4021 687.66864 5163.1387 5132104
-2263.1104 679.65204 5102.9482 5132361
-2226.0483 677.57581 5087.3599 4934726
-2184.8892 674.17847 5061.8521 4803141
-2202.5422 689.08636 5173.7832 4934984
-2190.6321 695.03564 5218.4512 4013883
-2184.6619 703.06671 5278.75 3224883
-2143.4351 699.82013 5254.374 2566957
-2075.8059 687.73053 5163.603 2566958
-2047.9333 688.64789 5170.4907 5132884
-2062.5547 704.09937 5286.5034 3422266
-2028.4241 703.12817 5279.2114 3817023
-1981.6866 697.68811 5238.3667 4606282
-1910.8734 683.46375 5131.5674 5527380
-1878.3743 682.70465 5125.8682 6316385
-1833.5552 677.36938 5085.8096 7237485
-1793.1807 673.52509 5056.9463 7303534
-1814.7549 693.21381 5204.7725 6777190
-1770.5979 688.04065 5165.9316 5461328
-1728.5481 683.51874 5131.9805 5658707
-1748.3364 703.72552 5283.6963 5790293
-1685.6569 690.86963 5187.1719 5658708
-1653.0134 690.07507 5181.2065 5461331
-1622.8701 690.31396 5183 4934987
-1565.9939 678.97144 5097.8384 5461331
-1578.2733 697.75653 5238.8799 5198158
-1494.1788 673.83337 5059.2607 4737864
-1465.2563 674.32111 5062.9229 4013627
-1456.1104 684.12073 5136.5 3091753
-1421.0679 681.91217 5119.918 4736576
-1372.6978 673.07233 5053.5469 5262661
-1331.6237 667.49542 5011.6743 5065281
-1290.8107 661.79791 4968.8965 6249809
-1292.256 678.00604 5090.5898 5065278
-1254.7424 674.05988 5060.9614 5723465
-1229.3629 676.59863 5080.0229 5526085
-1189.8345 671.28223 5040.1064 4407865
-1159.6095 671.07611 5038.5586 5658191
-1124.7937 668.13208 5016.4546 4474173
-1101.089 671.80743 5044.0498 5460814
-1061.6455 665.81726 4999.0742 5526350
-1037.4792 669.33936 5025.519 5066056
-1022.8172 679.38263 5100.9258 4539713
-993.86957 680.25983 5107.5117 4539456
-942.81921 665.5885 4997.3569 4013370
-898.40973 654.80585 4916.3989 2894888
-868.51611 654.23486 4912.1118 2368289
-842.69751 656.80035 4931.374 920843
-809.36676 653.4848 4906.4805 920842
-783.07544 655.81775 4923.9966 4078902
-756.98224 658.50354 4944.1616 5657417
-716.77515 648.63342 4870.0552 5525829
-686.11646 646.93842 4857.3286 5723464
-665.31305 654.79431 4916.3125 3618089
-634.84937 653.42694 4906.0459 4802363
-611.29535 659.38147 4950.7534 4407605
-582.1369 659.5863 4952.291 5393987
-545.91223 651.38141 4890.6875 4801593
-526.16327 663.01746 4978.0532 4012590
-495.0791 660.90405 4962.1855 5393474
-462.46722 656.35553 4928.0342 5459267
-439.91452 666.43256 5003.6943 4209970
-408.57388 663.6911 4983.1108 3288613
-375.48541 657.46204 4936.3418 3946543
-346.06906 657.15344 4934.0249 4077872
-313.99045 651.26581 4889.8198 3617579
-282.77026 646.14258 4851.3535 4209970
-257.09592 653.96643 4910.0962 4736314
-225.95204 648.09906 4866.043 5591880
-201.83737 663.6264 4982.6255 3749418
-170.29471 655.86755 4924.3706 2433300
-141.86475 659.36694 4950.6445 4472371
-112.65717 660.13452 4956.4077 4208943
-83.044731 658.23462 4942.1426 3024669
-54.053593 661.87189 4969.4521 2629911
-24.47175 658.32611 4942.8296 3551783
4.7741494 651.99451 4895.291 3354917
33.728096 650.9024 4887.0913 4539447
62.929565 653.38934 4905.7637 2236436
91.776909 651.78961 4893.7524 3881261
119.40932 644.40167 4838.2822 3091230
147.92624 643.72382 4833.1929 4538677
176.74391 644.3623 4837.9868 3815210
204.74808 642.27069 4822.2827 4998714
240.86411 663.02081 4978.0781 1314565
271.56012 665.95093 5000.0781 1643016
303.79044 671.69702 5043.2207 3090204
331.02466 666.35657 5003.1235 4011306
357.60175 660.68005 4960.5034 3353376
391.48767 668.34351 5018.042 4011306
418.72247 664.37177 4988.2212 3879465
451.49734 669.13446 5023.9805 2761239
475.73306 661.43542 4966.1748 3682341
514.54633 673.72058 5058.4141 3748392
533.9754 660.66968 4960.4253 3748135
585.28717 686.36981 5153.3867 4603700
598.53821 667.10034 5008.708 4274736
632.95172 672.12396 5046.4263 4208941
676.41895 685.87457 5149.6685 3879977
691.86682 671.25342 5039.8901 2695446
710.55487 660.85596 4961.8237 3813925
746.13318 666.36945 5003.2202 3484960
756.93024 650.17535 4881.6323 3945255
790.62823 654.12042 4911.2524 3682083
810.29218 646.58661 4854.6875 3550754
872.65723 672.47528 5049.064 3747876
895.61914 667.28973 5010.1304 3550755
927.2832 668.71259 5020.813 3221533
942.13104 658.29688 4942.6099 3089947
973.67316 659.82239 4954.064 2037516
1002.2567 659.31232 4950.2344 2827032
1014.675 648.49988 4869.0522 2169102
1042.1089 647.61664 4862.4209 2234896
1064.5114 643.7384 4833.3022 2760726
1115.5781 656.94324 4932.4468 2958617
1164.7539 668.38867 5018.3809 3090460
1153.3373 645.35907 4845.4707 4867383
1155.0413 630.61188 4734.7461 5919815
1233.5518 657.50323 4936.6514 4670517
1276.1835 664.46771 4988.9419 5065018
1294.7402 658.86566 4946.8804 5196351
1311.7992 652.7663 4901.0854 4867386
1362.9113 663.50928 4981.7456 3155999
1377.6418 656.46057 4928.8228 3682598
1422.1082 663.57983 4982.2754 3813926
1447.9117 661.87817 4969.499 3879462
1483.0857 664.44244 4988.752 3287325
1501.9739 659.75281 4953.5415 3287581
1511.3143 651.12952 4888.7964 3155738
1577.5248 666.8714 5006.9893 3221788
1610.6537 668.30554 5017.7568 3485473
1593.6923 649.28058 4874.9141 3222302
1646.7754 658.96161 4947.6011 3617316
1688.277 663.75067 4983.5581 3748388
1699.1228 656.52972 4929.3423 3484703
1725.7294 655.53998 4921.9106 2497553
1775.4894 663.23199 4979.6636 2102795
1788.7063 657.24506 4934.7129 3287068
1830.2622 661.69617 4968.1323 3089947
1833.7332 652.45538 4898.751 3418911
1887.5215 661.12689 4963.8584 4340014
1900.514 655.46234 4921.3276 4471600
1939.2751 658.72198 4945.8018 4076841
1954.9084 654.14551 4911.4409 1510919
1996.6996 658.32788 4942.8428 2168590
2018.3912 655.85803 4924.2988 2496785
2047.812 655.93445 4924.8726 1905417
2066.5654 652.63977 4900.1353 2826262
2126.4604 662.24921 4972.2852 1444865
2128.9907 653.97498 4910.1606 3286811
2163.7996 655.70538 4923.1523 3616033
2204.9661 659.29065 4950.0718 3352862
2222.4817 655.80298 4923.8853 4537392
2243.0957 653.30817 4905.1538 4142634
2290.6799 658.63177 4945.1245 4471342
2257.7942 640.97589 4812.561 3812895
2336.6804 655.09613 4918.5781 2496779
2389.4336 661.63226 4967.6528 2562830
2400.0078 656.47211 4928.9092 2826003
2432.7708 657.43231 4936.1187 3089689
2477.4727 661.55774 4967.0933 4076585
2571.0671 678.48877 5094.2144 3155482
2617.8403 682.81433 5126.6914 2563088
2658.5208 685.46973 5146.6284 3616289
2623.5735 668.78625 5021.3662 4208683
2706.7512 682.2511 5122.4624 3945254
2720.7952 678.18494 5091.9331 3089945
2680.4602 660.80219 4961.4204 2760725
2735.5859 667.07483 5008.5166 4142377
2744.2051 661.99384 4970.3677 3155481
2795.3091 667.16077 5009.1616 3287069
2858.1992 675.00256 5068.0391 3352604
2899.9326 677.73669 5088.5679 2760467
2965.0095 685.81396 5149.2134 2826002
2985.6555 683.5545 5132.2485 3616033
3013.1184 682.88544 5127.2251 3418654
3047.4507 683.77112 5133.875 3681826
3061.7446 680.18762 5106.9697 3023896
3112.4495 684.68402 5140.7295 2892312
3096.8169 674.64166 5065.3296 3418656
3116.9583 672.51056 5049.3291 3353376
3172.4033 677.96478 5090.2803 2892568
3175.7151 672.27991 5047.5972 4471857
3175.0125 665.85919 4999.3892 4076841
3185.2263 661.82544 4969.103 4208170
3302.125 679.82947 5104.2803 3944482
3323.3315 677.98468 5090.4297 2957330
3350.2258 677.323 5085.4619 3154453
3370.5222 675.3512 5070.6572 3418137
3424.6301 680.12909 5106.5303 3615773
3432.6165 675.74384 5073.605 3812896
3526.0471 688.10931 5166.4468 3615517
3509.4539 678.9754 5097.8682 3417884
3560.0549 682.8866 5127.2339 3681055
3635.147 691.38965 5191.0767 3154968
3641.9832 686.87701 5157.1948 2826260
3692.8328 690.67126 5185.6826 2826517
3752.4807 696.03497 5225.9541 2958105
3761.4817 691.99323 5195.6084 3221791
3825.2417 698.0094 5240.7788 2892826
3885.4502 703.28583 5280.395 3419172
3877.7683 696.2876 5227.8511 4406068
3878.198 690.84521 5186.9888 4406326
3920.0083 692.80188 5201.6797 5261632
3871.3735 678.86792 5097.061 3813671
3880.4358 675.1889 5069.4385 3352863
3869.0742 668.03998 5015.7632 3286813
3949.7263 676.76611 5081.2808 3286554
4067.5632 691.68359 5193.2832 3089433
4063.8032 685.8548 5149.5195 3023640
4051.6851 678.71271 5095.896 2892055
4079.676 678.34558 5093.1392 3287069
4189.875 691.55249 5192.2988 3549985
4178.519 684.65002 5140.4741 3154714
4169.6416 678.25061 5092.4263 2628370
4164.8564 672.60406 5050.0312 2891286
4219.1147 676.50537 5079.3228 2628623
4224.4268 672.55878 5049.6909 4207655
4337.6953 685.73431 5148.6152 3286810
4323.1035 678.65375 5095.4531 3220507
4368.0532 680.95367 5112.7212 1904648
4352.3345 673.82922 5059.2295 2036235
4359.1279 670.26367 5032.459 2233612
4399.5996 671.88983 5044.6685 2562576
4476.4497 679.01208 5098.1436 2694162
4461.0684 672.14252 5046.5654 2694418
4519.9497 676.479 5079.1245 2891541
4457.8267 662.7677 4976.1777 2497038
4503.8843 665.21472 4994.5508 2430988
4504.5459 660.96869 4962.6704 2760210
4511.2715 657.66174 4937.8413 3089432
4592.3379 665.1651 4994.1777 4076584
4619.5957 664.82855 4991.6509 2629395
4678.8784 669.07574 5023.5396 2958103
4751.8145 675.20935 5069.5918 2760467
4675.0693 660.13049 4956.3774 2826003
4698.105 659.24133 4949.7012 2299659
4727.5918 659.26282 4949.8623 2760210
0 0 0 0
0 0 0 0
0 0 0 0
0 0 0 0
0 0 0 0
0 0 0 0
-4206.5532 650.35101 4674.9395 5198162
-4218.8096 656.57007 4719.644 4934220
-4182.2573 655.22546 4709.9785 4342852
-4166.0781 657.07599 4723.2808 2368807
-4196.7866 666.39685 4790.2822 2631725
-4065.2507 649.90668 4671.7456 4803150
-4024.7944 647.85114 4656.9692 2039583
-3931.407 637.18823 4580.3208 2302506
-3956.6104 645.73145 4641.7324 3552575
-3935.9705 646.86023 4649.8462 1447455
-3898.0881 645.15112 4637.561 2632240
-3800.3379 633.43903 4553.3706 4276808
-3797.2749 637.45477 4582.2368 4409423
-3656.9202 618.31494 4444.6533 1843497
-3550.0229 604.5954 4346.0327 10
-3147.7336 540.00024 3881.7014 15
-3405.8796 588.5871 4230.96 16
-3378.5913 588.2016 4228.1885 18
-3357.8228 588.9538 4233.5957 18
-3337.1978 589.74274 4239.2666 16
-3315.293 590.31567 4243.3853 17
-3288.3835 589.99951 4241.1128 17
-3263.2161 589.99341 4241.0688 18
-3259.1262 593.82764 4268.6304 263192
-3243.8142 595.66113 4281.8105 17
-3224.6045 596.80225 4290.0127 22
-3191.8611 595.43665 4280.1968 856877
-3233.4646 608.02972 4370.7197 2764875
-3198.875 606.38287 4358.8818 2238278
-3207.1233 612.89563 4405.6978 2370377
-3189.8118 614.5907 4417.8823 1910077
-3192.4343 620.18634 4458.106 4673370
-3246.9697 636.04456 4572.0996 5001302
-3339.2278 659.62128 4741.5771 5264469
-3368.8853 671.1272 4824.2856 4605767
-3396.6677 682.45349 4905.7026 3487542
-3329.344 674.70172 4849.9805 3158578
-3322.8918 679.25812 4882.7334 3158576
-3286.9238 677.80804 4872.3096 3355184
-3263.3845 678.91797 4880.2881 4144956
-3182.6807 668.04877 4802.1567 4868934
-3182.9192 674.12677 4845.8472 4539968
-3163.3823 676.08881 4859.9512 4539968
-3120.4453 673.03992 4838.0347 5197642
-3143.8706 684.38062 4919.5557 4605761
-3113.8716 684.19513 4918.2222 5263692
-3088.7097 685.07886 4924.5747 5395535
-3033.4092 679.23096 4882.5381 5198669
-2990.7075 676.11871 4860.166 5329742
-3024.1138 690.31915 4962.2437 3158316
-2983.6665 687.77429 4943.9502 3947832
-2939.092 684.2182 4918.3877 5000518
-2914.5149 685.29279 4926.1123 4803394
-2891.3088 686.71472 4936.334 5460810
-2859.8738 686.19135 4932.5718 4210486
-2823.6038 684.48511 4920.3066 4670269
-2777.2351 680.26965 4890.0044 3947572
-2736.3308 677.31787 4868.7861 4013366
-2738.2163 685.00763 4924.063 4934468
-2669.2776 674.95459 4851.7979 4671553
-2700.2402 690.21863 4961.521 6185048
-2678.4646 692.1897 4975.6899 6118999
-2670.2341 697.74414 5015.6172 5132104
-2653.2283 701.1048 5039.7744 3158314
-2592.7241 692.91687 4980.917 5000517
