# .PCD v0.7 - Point Cloud Data file format
VERSION 0.7
FIELDS x y z rgb
SIZE 4 4 4 4
TYPE F F F U
COUNT 1 1 1 1
WIDTH 1298
HEIGHT 1
VIEWPOINT 0 0 0 1 0 0 0
POINTS 1298
DATA ascii
-1424.5496 785.15851 2432.1345 5394498
-1438.4858 800.94354 2481.0308 7039323
-1422.7644 800.37073 2479.2563 6842715
-1392.4808 791.50848 2451.8044 6908509
-1403.708 806.30365 2497.6343 4670777
-1387.1532 805.28583 2494.4814 3157280
-1383.7577 811.96771 2515.1794 3815210
-1366.2977 810.45245 2510.4858 3485991
-1349.317 809.19128 2506.5791 4012334
-1329.0564 805.91302 2496.4246 2301716
-1320.3473 809.64459 2507.9836 2433558
-1301.9469 807.45074 2501.1875 3551784
-1274.7893 799.71259 2477.2175 4472887
-1264.2389 802.33374 2485.3369 2499097
-1253.7825 805.0769 2493.8345 2235926
-1236.3861 803.37616 2488.5662 4472372
-1224.4888 805.25079 2494.373 4669749
-1209.1525 804.88196 2493.2305 4275762
-1185.6725 799.01593 2475.0598 3420196
-1183.01 807.20758 2500.4343 6051917
-1166.5259 806.0564 2496.8684 3881005
-1151.8269 806.12494 2497.0808 5263171
-1125.7589 798.13501 2472.3308 1973525
-1120.6466 804.98724 2493.5566 6841687
-1115.4609 811.9693 2515.1843 3222819
-1086.5807 801.65894 2483.2468 2762268
-1075.7913 804.59595 2492.3445 5065281
-1068.7379 810.44769 2510.4712 5723466
-1065.7551 819.59521 2538.8066 5263171
-1054.4948 822.54767 2547.9524 6907486
-1039.2275 822.41504 2547.5417 5526603
-1028.6116 826.01373 2558.689 3289640
-991.52069 808.14166 2503.3279 5263430
-973.3584 805.38867 2494.8003 3617837
-957.99976 804.90649 2493.3066 3814957
-951.91803 812.32568 2516.2886 2828316
-932.36407 808.30157 2503.8232 4472884
-931.35712 820.48627 2541.5669 5591364
-918.245 822.23206 2546.9749 5525826
-899.34473 818.76685 2536.2407 5920840
-881.12976 815.81818 2527.1069 7368289
-869.52893 818.99738 2536.9551 4012078
-862.31671 826.49481 2560.1792 3683370
-829.43097 809.21301 2506.6465 3749164
-811.50934 806.1665 2497.2095 2959648
-800.23279 809.73071 2508.2502 1775374
-781.76947 806.0202 2496.7563 2564890
-768.99231 808.14215 2503.3293 2893855
-754.29913 808.29437 2503.801 1972498
-736.66772 805.24097 2494.3428 2498843
-726.10144 809.94354 2508.9094 985605
-709.4472 807.90979 2502.6096 2762016
-696.41656 810.00372 2509.0959 1314312
-677.31012 804.9682 2493.4976 3288358
-661.21814 803.37042 2488.5483 4867902
-650.25336 808.07141 2503.1104 3815471
-633.8667 806.09686 2496.9939 3288613
-622.49731 810.56097 2510.822 3419688
-616.20099 822.01117 2546.2905 1446156
-597.45374 817.0097 2530.7979 3157288
-578.05975 810.84351 2511.6973 3288873
-559.34564 805.33026 2494.6191 2828835
-549.78937 813.06079 2518.5657 2763044
-541.88147 823.72852 2551.6104 2434335
-526.58069 823.448 2550.7412 3158317
-506.569 815.56647 2526.3271 3289646
-494.85562 820.97174 2543.0708 986637
-473.51883 810.24982 2509.8584 921098
-452.56653 799.51172 2476.5955 131072
-439.54297 802.53027 2485.946 131328
-426.22363 805.19952 2494.2141 1314313
-409.20557 800.82208 2480.6545 3222820
-394.24634 800.29767 2479.03 4604471
-378.52051 798.11621 2472.2727 5854280
-363.70584 797.75763 2471.1621 5854023
-352.46173 805.52942 2495.2361 5328450
-337.30386 804.64539 2492.4978 5525574
-328.43158 819.36157 2538.083 3090979
-316.25235 826.84418 2561.2615 2893859
-298.87122 820.79535 2542.5244 1051913
-279.91434 809.54681 2507.6807 526086
-268.49973 820.0733 2540.2876 1183504
-248.8609 805.23901 2494.3367 131074
-228.19946 785.01355 2431.6853 65540
-210.20776 771.86438 2390.9541 6
-196.5092 773.71777 2396.6953 7
-181.12688 768.71405 2381.1956 9
-166.77516 767.6084 2377.7705 9
-152.36421 766.00067 2372.7905 9
-138.19778 765.42047 2370.9932 9
-124.50851 767.6507 2377.9016 9
-110.3309 767.05518 2376.0569 9
-96.04821 765.44794 2371.0784 9
-81.795074 763.56586 2365.2483 9
-67.782776 763.61841 2365.4111 11
-53.224003 755.93683 2341.6165 11
-39.338791 755.77747 2341.1228 11
-25.373487 753.06744 2332.728 11
-11.322887 738.30798 2287.0085 12
2.2015686 728.75989 2257.4321 11
15.541813 726.99268 2251.958 14
29.405691 740.03632 2292.3623 14
42.849514 737.60559 2284.833 14
56.237453 735.61127 2278.6553 12
69.273865 730.68152 2263.3845 12
82.714493 730.92291 2264.1323 11
96.104576 730.71271 2263.4812 4
108.9655 727.02344 2252.0532 6644580
121.39641 721.58325 2235.2014 3025703
137.29886 735.81824 2279.2964 5657424
153.60669 749.48126 2321.6194 196614
167.46902 749.94659 2323.0608 196625
181.87306 752.58289 2331.2271 722971
195.63075 752.36108 2330.54 10723245
213.17714 765.77844 2372.1021 13619663
226.51425 763.3504 2364.5811 13619667
243.16232 771.7132 2390.4858 13750737
258.42093 774.98834 2400.6309 13750737
273.5347 777.50989 2408.4419 13750737
288.98486 780.69019 2418.2932 13750737
304.34747 783.34454 2426.5156 13750737
320.43243 787.53473 2439.4951 13750736
335.26544 788.41907 2442.2344 13750737
350.362 789.82428 2446.5874 13685199
365.4653 791.13245 2450.6394 13619665
379.52112 790.15967 2447.6265 7698039
401.31891 804.784 2492.927 131337
420.33817 812.99561 2518.3638 3551531
439.27954 820.49878 2541.6057 4735543
451.87268 816.0401 2527.7944 4274479
464.61996 812.13696 2515.7039 4668719
481.86807 816.09918 2527.9775 4866098
500.19815 821.59967 2545.0159 4076836
512.0448 816.44049 2529.0347 3023892
526.07703 814.96051 2524.4502 2695186
545.89307 822.27441 2547.106 985347
561.33234 822.77954 2548.6707 1445380
574.62628 820.19598 2540.6677 1445382
584.05847 812.37299 2516.4351 1643789
607.03912 823.31512 2550.3296 2104343
623.01306 824.45337 2553.8557 394243
634.62195 819.89819 2539.7454 65536
642.59918 810.97089 2512.0918 2894627
655.98132 809.1145 2506.3416 3617576
679.05133 819.02515 2537.041 4012075
684.79663 808.06323 2503.085 3024152
701.48767 810.20825 2509.7295 3221786
715.83881 809.6178 2507.9004 2826770
728.97131 807.70117 2501.9634 2694929
750.93262 815.44824 2525.9609 2432787
755.77252 804.66345 2492.5537 3551013
768.54541 802.57642 2486.0889 1775379
792.36823 811.89008 2514.9392 3090465
804.8244 809.42822 2507.3132 3418916
825.65466 815.32489 2525.5789 2695192
837.19958 812.00574 2515.2974 3024669
844.06323 804.34167 2491.5569 3024669
860.90332 806.28467 2497.5754 2827291
863.83234 795.35358 2463.7151 4603702
876.10602 793.24689 2457.1892 2629912
887.33142 790.27533 2447.9846 3551014
898.39264 787.25568 2438.6306 2564118
913.65533 787.9549 2440.7966 2892571
925.31659 785.57495 2433.4243 4603443
953.38983 796.98755 2468.7764 2168588
954.61005 785.94659 2434.5757 2826517
966.3476 783.76459 2427.8167 1839369
969.45135 774.74689 2399.8831 853249
982.14752 773.54498 2396.1599 4537646
999.83887 776.25543 2404.5559 1708554
1010.124 773.22046 2395.1548 3879203
1023.0253 772.24457 2392.1318 3089687
1038.433 773.16138 2394.9717 2365967
1062.5369 780.44098 2417.5212 1708293
1078.295 781.47833 2420.7346 1708550
1098.6118 785.74884 2433.9631 4077099
1115.1638 787.25092 2438.6162 1774087
1130.717 788.01868 2440.9941 2827032
1142.5037 786.17499 2435.2832 2234896
1147.2308 779.58032 2414.8552 1971209
1163.6855 781.01904 2419.312 2694930
1184.1011 785.04883 2431.7947 3023896
1195.3927 783.00537 2425.4648 2760207
1201.0811 777.38391 2408.0515 2168070
1214.2501 776.6792 2405.8687 2102022
1231.4279 778.52533 2411.5874 2365451
1251.6837 782.25275 2423.1335 2891796
1260.3324 778.72388 2412.2024 2694675
1272.6377 777.50818 2408.4365 2431502
1263.7325 763.50476 2365.0591 3616034
1306.7281 780.82129 2418.6995 1510660
1320.3458 780.39813 2417.3884 2958361
1332.568 779.16803 2413.5781 1905674
1342.1796 776.45374 2405.1702 2497812
1346.5464 770.79437 2387.6396 1839625
1375.2675 779.04871 2413.2085 2168332
1387.7791 778.04529 2410.1003 1905162
1401.5696 777.77222 2409.2544 1641986
1416.6061 778.1889 2410.5454 2299402
1428.2645 776.76031 2406.1199 2168074
1454.1071 782.99768 2425.4409 1773314
1475.8687 786.93695 2437.6433 3418138
1494.2496 789.01471 2444.0796 3089173
1500.8436 784.88843 2431.2979 3154709
1515.9833 785.26721 2432.4712 2365450
1523.0336 781.4881 2420.7649 1773827
1537.4617 781.52985 2420.8943 3944742
1547.5067 779.3634 2414.1833 5984322
1578.5145 787.69733 2439.9988 1905158
1597.0896 789.73218 2446.302 1247232
1608.0896 788.01837 2440.9934 1773059
1609.4471 781.65216 2421.2729 2497036
1625.4189 782.43329 2423.6929 2496522
1633.542 779.45569 2414.4692 2694157
1669.5391 789.71466 2446.2478 2693903
1708.5793 801.22394 2481.8994 1444354
1721.6094 800.44379 2479.4827 1838594
1729.8939 797.48895 2470.3296 984576
1735.072 793.16382 2456.9319 1575680
1751.8716 794.17889 2460.0764 1773058
1762.927 792.59473 2455.1692 1707267
1763.2499 786.25079 2435.5181 2035973
1793.3315 793.17181 2456.9568 2365196
1809.5159 793.88434 2459.1638 2891281
1811.7369 788.50812 2442.5105 3022867
1844.0255 796.19971 2466.3362 2628106
1844.6321 790.19843 2447.7461 2496522
1847.6444 785.31323 2432.6138 1509888
1863.5419 785.93793 2434.5488 1970181
1879.2939 786.49213 2436.2656 2299143
1918.5751 796.80994 2468.2263 2233095
1930.2578 795.59637 2464.467 2693903
1949.9143 797.66272 2470.8682 3286296
1977.5341 802.9317 2487.1895 3154710
1970.2255 794.04584 2459.6641 4866099
1977.6077 791.1676 2450.7485 3681568
1987.7449 789.4256 2445.3523 4471340
1995.3544 786.7121 2436.947 2431500
2028.3108 793.95941 2459.3965 4536366
2025.1306 787.05896 2438.0215 3615521
2025.2686 781.53668 2420.9155 1904647
2062.3076 790.23193 2447.8501 2365198
2068.991 787.25519 2438.6292 524800
2088.7102 789.24561 2444.7947 852992
2104.6338 789.78424 2446.4631 2168591
2108.7246 785.9054 2434.448 2365968
2126.9995 787.32965 2438.8599 1050112
2134.9534 784.94006 2431.458 655616
2144.5627 783.18726 2426.0281 589824
2153.6592 781.27148 2420.094 1049344
2170.9072 782.31885 2423.3381 1050113
2179.1133 780.11523 2416.5122 2233609
2205.6533 784.46118 2429.9744 3944227
2238.8003 791.08521 2450.4932 2694931
2242.4558 787.2702 2438.6758 2826263
2291.8464 799.45776 2476.4282 3023900
2315.8835 802.70233 2486.479 3023899
2340.2798 806.02972 2496.7859 2234128
2389.2622 817.73004 2533.0291 1641994
2373.5623 807.28461 2500.6731 1444357
2381.333 804.9021 2493.293 1115905
0 0 0 0
0 0 0 0
0 0 0 0
0 0 0 0
0 0 0 0
0 0 0 0
0 0 0 0
0 0 0 0
0 0 0 0
-2108.436 785.86279 2390.4343 2433302
-2094.5283 785.95984 2390.7295 2104337
-2076.6746 784.56732 2386.4937 2433558
-2059.0674 783.24957 2382.4854 3618346
-2031.8896 778.2478 2367.2712 3683882
-2005.0048 773.28961 2352.1892 4933948
-2023.4153 785.85376 2390.4067 2894365
-1980.8154 774.73279 2356.5791 3354917
-1962.8353 773.15149 2351.769 4078897
-1962.7666 778.6532 2368.5042 4013103
-1940.6611 775.42896 2358.6968 5591879
-1949.1017 784.45184 2386.1423 5328450
-1937.8348 785.617 2389.6865 3354661
-1936.9508 791.03949 2406.1807 3354660
-1913.7113 787.34491 2394.9426 4736313
-1918.2782 795.12079 2418.5952 5130815
-1878.9 784.66156 2386.7803 5591364
-1849.5411 778.25958 2367.3069 6051914
-1850.767 784.72778 2386.9817 4670514
-1844.043 787.89886 2396.6274 6644561
-1814.4548 781.27429 2376.4768 4407345
-1808.1843 784.66461 2386.7898 4802362
-1815.959 794.25159 2415.9512 7039327
-1796.8214 792.12665 2409.4875 7894128
-1784.7407 793.10352 2412.4592 1973012
-1765.3613 790.82666 2405.5334 6315350
-1752.4087 791.4151 2407.3235 3288358
-1745.5974 794.80963 2417.6487 3683371
-1735.8191 796.89807 2424.0015 6117968
-1755.2603 812.54773 2471.6045 5525829
-1707.6748 797.17169 2424.8337 3946540
-1694.3251 797.6521 2426.2949 4078126
-1679.1161 797.25775 2425.0955 3288611
-1668.5398 799.07538 2430.6245 4275249
-1645.0549 794.6889 2417.2815 4867899
-1631.5698 795.09827 2418.5269 6841432
-1599.9613 786.6048 2392.6914 5986377
-1596.019 791.68292 2408.1379 3354657
-1584.7509 793.18597 2412.71 5393985
-1586.8073 801.44617 2437.8357 3485989
-1590.8129 810.85162 2466.4453 4538677
-1549.9633 797.35645 2425.3958 2893854
-1533.7288 796.39008 2422.4563 4144177
-1515.9551 794.59882 2417.0073 4604473
-1506.3883 797.11597 2424.6641 6249298
-1513.6509 808.67273 2459.8174 3683627
-1487.6724 802.5224 2441.1094 5921358
-1473.0011 802.41083 2440.77 6446931
-1465.4532 806.216 2452.3447 3814697
-1445.9508 803.45477 2443.9456 3682341
-1430.1492 802.71484 2441.6948 2498579
-1420.7463 805.58795 2450.4343 2432791
-1398.0354 800.89667 2436.1643 6380110
-1382.6013 800.31964 2434.4092 3419426
-1370.9802 801.96094 2439.4016 4867129
-1364.1404 806.46375 2453.0981 3749161
-1368.1268 817.5329 2486.7683 3551782
-1341.9069 810.5965 2465.6692 4012335
-1321.7288 807.19727 2455.3293 3749421
-1318.0387 813.90393 2475.7297 3025697
-1300.8615 812.33929 2470.9705 3485992
-1262.4424 797.3233 2425.2949 2762270
-1265.8429 808.67773 2459.8328 2170132
-1254.3209 810.65247 2465.8394 1380873
-1233.8484 806.82098 2454.1848 4012334
-1218.741 806.44806 2453.0505 1709839
-1199.2072 803.10199 2442.8723 4867129
-1193.943 809.34711 2461.8689 2827544
-1182.3618 811.41168 2468.1487 4143405
-1172.8315 814.953 2478.9209 3683369
-1153.2595 811.51813 2468.4727 4604213
-1132.5071 807.15369 2455.1968 4933692
-1109.9453 801.3692 2437.6018 4078896
-1112.8608 814.06927 2476.2327 5723980
-1102.9253 817.58221 2486.9185 6382167
-1073.1006 806.24725 2452.4397 5460295
-1059.1559 806.69586 2453.8042 6841689
-1050.2196 811.0246 2466.9714 4341811
-1046.1544 819.29034 2492.1143 5986380
-1031.7377 819.57013 2492.9651 4867901
-1004.2642 809.33551 2461.8335 4802364
-992.87054 811.94879 2469.7827 5197377
-980.23505 813.60962 2474.8345 5789258
-962.15204 810.73071 2466.0774 6973278
-937.3056 801.97607 2439.4478 2565403
-933.11328 810.89606 2466.5806 4473398
-925.00659 816.6441 2484.0649 3749418
-909.82153 816.22791 2482.7988 3485990
-899.9491 820.6424 2496.2268 3156511
-884.96661 820.46698 2495.6931 2038544
-862.60022 813.32343 2473.9639 3551270
-852.60217 817.79614 2487.5691 3353890
-840.51074 820.38318 2495.4382 1380875
-822.65369 817.33441 2486.1646 2893598
-811.21387 820.66656 2496.3003 3683371
-791.44946 815.54443 2480.7197 1118219
-771.93353 810.48932 2465.343 3354662
-764.36334 818.02344 2488.2605 3815213
-747.50275 815.71582 2481.2412 3420458
-728.36578 810.78162 2466.2324 1841426
-714.95581 812.15106 2470.3977 657153
-703.17102 815.46234 2480.47 1512461
-691.7757 819.37628 2492.3755 2367770
-669.65515 810.48041 2465.3159 1051910
-654.02057 809.21265 2461.46 4078385
-643.99536 814.9859 2479.0208 3683628
-632.31683 818.88739 2490.8884 3420711
-615.48962 816.14838 2482.5569 4802366
-598.78992 813.4483 2474.3438 2959906
-587.90826 818.7149 2490.3635 3881008
-570.19684 814.49664 2477.5325 3486764
-551.34949 808.38995 2458.9573 4473402
-540.21112 813.56146 2474.688 4078130
-524.98547 812.6944 2472.0505 5196612
-512.37427 815.94092 2481.926 4472632
-496.45181 813.9505 2475.8713 4473914
-478.32431 808.11346 2458.1162 1776405
-463.12744 807.01654 2454.7795 1118476
-451.34381 811.98889 2469.9045 1381392
-435.3829 809.52759 2462.4177 920327
-417.00659 802.2489 2440.2773 3420459
-406.30688 809.74603 2463.0823 1643536
-387.72552 801.50897 2438.0269 3683115
-373.09106 801.10919 2436.8108 3748136
-360.01547 804.15924 2446.0884 2893081
-346.20874 805.76349 2450.9683 4077611
-333.68835 810.6333 2465.781 2761752
-318.67947 809.62683 2462.7197 3090720
-305.23215 812.68146 2472.0112 3551787
-290.9361 813.67047 2475.0195 2236445
-278.25482 819.52026 2492.8135 526343
-262.21277 815.57288 2480.8064 2
-243.64987 802.8501 2442.1064 65541
-221.66148 776.52045 2362.0168 7
-208.81799 780.83685 2375.1465 7
-195.18083 782.59497 2380.4941 7
-179.83939 777.26099 2364.2695 9
-165.82294 777.23621 2364.1941 9
-151.35976 774.9198 2357.1479 9
-137.8627 777.58142 2365.2441 9
-123.53004 775.59912 2359.2144 9
-109.88025 777.94556 2366.3518 9
-95.949867 778.70135 2368.6506 9
-81.824623 777.86365 2366.1025 9
-67.529198 774.72711 2356.5618 11
-52.985966 766.37085 2331.1438 11
-38.096157 745.33972 2267.1714 11
-24.600975 743.54321 2261.7068 11
-11.183087 742.57825 2258.7715 12
2.1906128 738.44482 2246.1985 11
15.531433 739.84381 2250.4539 14
29.303396 750.99969 2284.3879 14
42.828751 750.78204 2283.7258 14
55.837761 743.79089 2262.4602 12
69.089653 742.11597 2257.3655 12
82.519302 742.58417 2258.7896 9
95.51236 739.54114 2249.5332 2
107.32661 729.23413 2218.1814 6249555
122.76279 743.1004 2260.3599 4669755
137.98434 753.06702 2290.6763 1052176
152.81358 759.29889 2309.6323 65544
166.6158 759.82257 2311.2253 65551
181.15567 763.37518 2322.0315 131090
196.31107 768.83679 2338.6448 526106
210.17805 768.86493 2338.7302 13882323
226.24442 776.43744 2361.7642 13684944
240.49246 777.25104 2364.239 13685199
257.27985 785.73004 2390.0305 13750737
272.49951 788.78632 2399.3271 13750737
287.68359 791.44159 2407.4038 13750737
303.10477 794.46729 2416.6074 13750737
319.0925 798.63806 2429.2942 13750737
334.19836 800.33679 2434.4612 13750737
349.12411 801.48145 2437.9431 13685201
364.36212 803.22357 2443.2422 13750479
370.45029 785.4328 2389.1265 10459048
397.44794 811.6524 2468.8811 30
412.64703 812.77118 2472.2842 65541
431.9183 821.5589 2499.0146 2630172
444.14352 816.80597 2484.5571 4932154
459.29108 817.55981 2486.8503 2366482
473.62527 816.86407 2484.7339 4274220
492.73291 824.19489 2507.0327 3747876
505.51788 820.83008 2496.7976 3879977
519.17401 819.03101 2491.3252 4998970
544.76782 835.64313 2541.856 4801592
555.76257 829.56976 2523.3818 2565400
568.03351 825.66956 2511.5183 4340786
583.96454 827.15289 2516.0303 1841169
600.35675 829.19934 2522.2554 328448
613.94043 827.36151 2516.665 196608
625.64746 823.14185 2503.8296 788742
629.60138 809.15356 2461.28 1117964
648.69244 814.81219 2478.4924 3617321
658.52905 808.85327 2460.3667 2629911
678.81372 815.70758 2481.2161 5195836
691.59717 813.4483 2474.344 4143148
696.75403 802.4989 2441.0381 2761238
708.94238 799.92889 2433.2205 3155996
721.32184 797.67255 2426.3572 3024154
743.29169 805.90271 2451.3916 1248259
764.55408 813.065 2473.1777 2037260
769.23657 802.65753 2441.5205 722434
781.53638 800.43591 2434.7629 1380361
809.28766 813.83313 2475.5144 3419173
828.25238 818.07458 2488.416 3090464
838.73383 813.9353 2475.8252 5130303
850.01825 810.7041 2465.9966 2958877
852.6864 799.50342 2431.9263 1708554
857.50397 790.65674 2405.0166 1643019
875.4715 794.02606 2415.2654 985091
887.50043 791.98749 2409.0642 722176
899.66443 790.13208 2403.4207 1445381
912.81372 789.18634 2400.5437 1116419
925.6319 787.98773 2396.8979 2694933
939.17639 787.43427 2395.2146 2826519
957.48022 790.82837 2405.5386 1510662
968.56305 788.24615 2397.6841 2102538
969.62274 777.69946 2365.603 1971208
979.4519 774.38678 2355.5266 2168588
991.29871 772.73999 2350.5173 2958102
1006.7337 773.89722 2354.0374 2234378
1025.9182 777.86566 2366.1086 1314051
1051.6292 786.60876 2392.7034 1708548
1066.6243 787.21057 2394.5339 2366221
1082.0844 788.13525 2397.3467 2103307
1114.7217 801.38489 2437.6494 3287581
1125.1829 798.55688 2429.0471 1905928
1123.8903 787.56384 2395.6084 1905672
1124.6206 778.24475 2367.262 3550240
1143.475 781.54297 2377.2942 1970951
1162.1576 784.64471 2386.7292 1641987
1158.0771 772.4881 2349.7512 1181697
1180.5386 778.11456 2366.8657 589824
1190.5503 775.49933 2358.9109 1050113
1219.4758 785.12195 2388.1809 1904900
1237.4446 787.5506 2395.5681 1246976
1233.3018 776.01105 2360.4673 1839107
1242.2722 772.88898 2350.9707 1905414
1255.8446 772.66748 2350.2969 2628881
1277.9767 777.65955 2365.4817 4076583
1302.5028 783.98419 2384.72 2234383
1315.8783 783.53357 2383.3491 1905415
1330.1738 783.63446 2383.6562 2168588
1337.2134 779.50354 2371.0908 2102793
1356.6863 782.63092 2380.6035 2300172
1360.3948 776.69348 2362.5432 2299916
1378.0713 778.77069 2368.8616 2234380
1382.4133 773.34631 2352.3618 2826002
1421.8518 787.4679 2395.3167 1970695
1420.152 778.75171 2368.804 2102280
1454.7664 789.9245 2402.7893 2299659
1474.5029 792.88037 2411.7805 1839109
1481.79 789.14954 2400.4319 2036742
1475.0742 778.10303 2366.8306 1970692
1507.5524 787.74457 2396.1584 2233864
1516.8041 785.18304 2388.3667 3088915
1540.9043 790.28412 2403.8833 3812637
1552.16 788.76465 2399.2612 1510149
1567.4977 789.32819 2400.9753 1642247
1578.1582 787.54755 2395.5591 984832
1588.7935 785.78625 2390.2014 2760727
1593.7789 781.28638 2376.5139 1773576
1611.6907 783.14648 2382.1719 3286554
1646.1702 792.9549 2412.0071 1444353
1679.465 802.02869 2439.6077 3286552
1678.8329 794.88409 2417.8752 2826002
1706.0295 800.92511 2436.251 1773315
1715.0435 798.40021 2428.5706 983808
1733.2194 800.14691 2433.8838 1246976
1735.1005 794.40436 2416.416 1707523
1752.9467 796.00555 2421.2864 3023381
1773.2814 798.70148 2429.4871 2562831
1808.5363 808.02008 2457.8323 2563086
1805.4447 800.19427 2434.0278 2562829
1812.5109 796.9588 2424.186 3154966
1809.4268 789.34625 2401.0303 3286552
1831.0601 792.55109 2410.7788 2299403
1834.5258 787.90356 2396.6418 2233866
1868.3717 796.27509 2422.1064 1575938
1876.4846 793.63562 2414.0776 1707270
1873.3068 786.29675 2391.7544 1641731
1884.7168 785.14539 2388.252 2233609
1925.6772 796.22961 2421.968 2628110
1922.6815 789.10925 2400.3093 2562318
1940.6973 790.65369 2405.0073 3154453
1964.1382 794.36981 2416.311 2562575
1981.6061 795.63385 2420.156 3681052
1991.5358 793.87494 2414.8057 3747105
2013.2196 796.79309 2423.6821 3747103
2026.311 796.29321 2422.1616 2760210
2028.1118 791.39478 2407.2615 2036487
2040.8943 790.81989 2405.5129 3285787
2071.2222 797.00458 2424.3252 2234382
2083.4192 796.17529 2421.8027 2497555
2110.8911 801.15466 2436.949 1839882
2115.1812 797.32782 2425.3086 1247747
2139.1245 800.91125 2436.2085 2563609
2156.6694 802.06683 2439.7236 984833
2159.8013 797.88251 2426.9958 393216
2165.7449 794.78558 2417.5754 985089
2166.3386 789.77875 2402.3459 2497553
2187.9634 792.45453 2410.4851 1970953
2219.3115 798.59454 2429.1616 1773829
2216.9429 792.60095 2410.9304 3023893
2268.2139 805.73859 2450.8923 3353372
2278.4045 804.2088 2446.2393 4734769
2273.3057 797.33588 2425.333 4076585
2293.0603 799.21155 2431.0383 4339758
2310.5229 800.2699 2434.2578 2497555
2360.3279 812.44769 2471.3003 1905675
0 0 0 0
0 0 0 0
0 0 0 0
0 0 0 0
0 0 0 0
0 0 0 0
0 0 0 0
0 0 0 0
0 0 0 0
-2069.6919 785.32788 2346.5083 3157024
-2050.9446 783.47845 2340.9822 4275506
-2045.4053 786.68372 2350.5593 3552036
-2017.467 781.25909 2334.3508 3420449
-1996.8605 778.61823 2326.4602 3749160
-2004.4631 787.01648 2351.5537 6249294
-1987.7562 785.9209 2348.28 1051909
-1964.9153 782.36737 2337.6626 2827033
-1944.9735 779.92603 2330.3679 3550756
-1943.1694 784.7749 2344.856 3879721
-1945.6558 791.43884 2364.7673 4735286
-1921.3376 787.21698 2352.1528 5064251
-1907.9962 787.46375 2352.8901 4669495
-1878.4417 780.97339 2333.4976 3682856
-1880.5282 787.6394 2353.415 4011822
-1865.5277 787.19482 2352.0867 3288356
-1857.4268 789.67682 2359.5027 4209199
-1836.5951 786.74304 2350.7368 4406577
-1817.1882 784.37939 2343.6743 4735543
-1821.5948 792.33746 2367.4524 4998714
-1806.3646 791.81146 2365.8806 5459780
-1799.3252 794.89557 2375.0959 3288611
-1780.5778 792.81531 2368.8801 5525574
-1785.606 801.37225 2394.448 4998976
-1693.3076 766.03687 2288.8679 3090979
-1731.2872 789.54321 2359.1033 3551786
-1708.8702 785.66449 2347.5139 3880750
-1724.8334 799.51239 2388.8906 3617577
-1687.6053 788.72974 2356.6729 4670524
-1702.879 802.50958 2397.8459 4735800
-1674.6536 795.84906 2377.9448 3025439
-1652.5603 792.01434 2366.4871 4736057
-1657.8269 801.33893 2394.3481 2959390
-1647.338 803.14313 2399.739 3683369
-1619.5907 796.49127 2379.8638 5656901
-1602.657 795.08716 2375.6685 6052171
-1574.7922 788.18726 2355.052 6643792
-1557.5836 786.54498 2350.145 4998453
-1551.0662 790.32074 2361.4265 3946023
-1547.7555 795.81396 2377.8398 3946022
-1535.3292 796.67804 2380.4219 4274989
-1518.0188 795.00031 2375.4089 5393471
-1510.9297 798.69427 2386.4463 4538677
-1493.882 797.1441 2381.8145 5130814
-1485.8813 800.43799 2391.6562 6907482
-1484.668 807.48676 2412.7175 4473145
-1465.8463 805.00262 2405.2952 3749165
-1467.0724 813.58752 2430.9463 3683630
-1439.6178 806.27954 2409.1106 920328
-1419.7231 803.10181 2399.6155 854790
-1405.6827 803.20477 2399.9233 2301459
-1394.068 804.71002 2404.4209 4801850
-1378.4995 803.94055 2402.1218 5591622
-1340.5938 789.99207 2360.4446 5065021
-1358.0144 808.69623 2416.3313 6381138
-1355.5784 815.84827 2437.7012 3420967
-1343.0629 817.02295 2441.2109 3947054
-1339.0073 823.42554 2460.3416 3420711
-1326.4664 824.6936 2464.1304 4671034
-1308.5927 822.63739 2457.9866 5460807
-1282.6219 815.38757 2436.3247 3881776
-1267.8105 815.14758 2435.6077 5460808
-1246.4333 810.63196 2422.1152 5394757
-1234.9889 812.54633 2427.8352 3026466
-1229.8038 818.67255 2446.1399 1183494
-1221.2256 822.65912 2458.0518 2104338
-1210.4154 825.22046 2465.7046 1972239
-1180.8501 814.90137 2434.8718 2104854
-1163.729 813.021 2429.2534 5459524
-1151.2286 814.36206 2433.2605 4077611
-1142.0649 818.12756 2444.5115 4603955
-1120.1884 812.76569 2428.4907 4998712
-1113.5315 818.45087 2445.4775 4998711
-1097.8048 817.53168 2442.7312 3813668
-1077.0771 812.81403 2428.635 4537647
-1055.3555 807.20819 2411.8853 3551267
-1045.938 810.98877 2423.1814 5130043
-1027.6122 807.87128 2413.8665 5393729
-1032.3184 823.02826 2459.1545 3551525
-1015.6703 821.35059 2454.1416 3222048
-993.71429 815.26935 2435.9714 2498068
-979.11896 815.13684 2435.5754 3682343
-960.37793 811.49731 2424.7007 5129532
-945.4364 811.00635 2423.2339 4142894
-938.3468 817.33972 2442.1575 5986123
-929.71582 822.50781 2457.5996 4209715
-916.83447 824.02039 2462.1189 2499351
-899.00421 821.06201 2453.2795 2828573
-878.93726 815.92993 2437.9453 2894366
-862.30396 813.86725 2431.782 4933436
-846.71466 812.73651 2428.4036 3486503
-834.00006 814.37366 2433.2952 3025440
-827.35596 822.1004 2456.3821 2828061
-810.45087 819.72546 2449.2861 2235671
-801.62738 825.58716 2466.8003 1971985
-787.55334 826.15857 2468.5078 721921
-773.70453 826.99243 2470.999 2367001
-759.10773 827.04346 2471.1516 1775122
-743.32727 825.78149 2467.3811 3617325
-724.76941 821.32159 2454.0552 2959907
-712.98889 824.51654 2463.6013 2302236
-691.80579 816.74432 2440.3784 2367770
-678.27106 817.86261 2443.72 1315083
-663.47162 817.47156 2442.5515 1052167
-650.88116 819.8454 2449.6443 4604731
-638.84247 823.03851 2459.1851 3157284
-620.01501 817.43018 2442.428 2104597
-606.58942 818.84589 2446.658 4670266
-590.09961 816.09326 2438.4333 2696222
-579.09088 820.97296 2453.0134 3223079
-556.85516 809.77759 2419.5625 3485994
-542.85919 810.28937 2421.0916 3091490
-533.59735 818.0871 2444.3906 5722957
-519.1261 818.11029 2444.46 3947569
-499.09637 809.1236 2417.6082 5921614
-485.03278 809.5636 2418.9231 4342582
-470.47055 809.17291 2417.7556 3618608
-458.0592 812.57318 2427.9155 3552814
-441.07083 807.81128 2413.6873 5328198
-427.31598 808.85089 2416.7935 3288872
-403.37793 790.01855 2360.5237 3354153
-400.92859 813.43103 2430.4785 1775117
-383.63373 807.34619 2412.2976 3485222
-371.24185 811.50806 2424.7329 2432531
-357.32733 812.5426 2427.8242 2695705
-341.91916 810.12494 2420.6003 1905934
-328.4032 812.17529 2426.7266 1380621
-315.45386 815.87878 2437.7925 722949
-299.71655 812.38116 2427.3416 262402
-286.25385 815.0069 2435.1873 65539
-268.99731 806.53632 2409.8777 65542
-255.55327 809.18793 2417.8005 8
-235.64388 790.46655 2361.8623 11
-221.33258 789.34528 2358.5122 11
-208.03839 791.94476 2366.2791 9
-194.26779 792.9754 2369.3584 9
-180.26288 793.1355 2369.8369 9
-165.13779 787.97772 2354.4258 9
-150.87679 786.37146 2349.6265 9
-136.93141 786.25098 2349.2664 9
-123.06944 786.63629 2350.4177 9
-109.10188 786.35889 2349.5889 11
-95.535431 789.31439 2358.4197 11
-81.392944 787.70801 2353.6199 11
-67.253975 785.47827 2346.9575 11
-51.462391 757.75208 2264.1135 11
-37.802063 752.91785 2249.6692 11
-24.46756 752.84149 2249.4412 11
-11.102496 750.51636 2242.4937 11
2.1868708 750.47211 2242.3616 12
15.441945 748.84088 2237.4875 12
28.631014 746.99475 2231.9714 12
42.013638 749.76947 2240.2622 12
55.381641 751.01343 2243.979 11
68.73745 751.6424 2245.8582 9
82.095978 752.0921 2247.2019 4
94.553986 745.31793 2226.9612 263171
108.17774 748.26678 2235.7722 5131076
122.53818 755.11163 2256.2241 5723471
137.91072 766.23303 2289.4541 1
151.67325 767.21802 2292.3972 65543
165.51915 768.42816 2296.0129 12
179.69756 770.88092 2303.3416 17
194.26137 774.52386 2314.2266 65558
208.93283 778.08734 2324.874 6644088
226.38257 790.91638 2363.2065 13684945
239.5762 788.24731 2355.2312 13684944
256.27255 796.76215 2380.6731 13750737
271.43945 799.88147 2389.9934 13750737
286.22186 801.6145 2395.1716 13750737
301.20709 803.72498 2401.4775 13750737
317.31821 808.51373 2415.7861 13750737
332.57922 810.81653 2422.6667 13750737
347.62402 812.42346 2427.468 13684946
362.42001 813.34424 2430.2192 13750483
376.89651 813.505 2430.6997 12038085
396.88983 825.12335 2465.4146 264260
411.36685 824.85553 2464.6143 2500403
424.65231 822.29877 2456.9749 65543
435.18216 814.75238 2434.4268 1775129
449.37048 814.32001 2433.135 2169369
464.47919 815.53046 2436.7517 1445901
486.04111 827.65686 2472.9846 3287587
503.09348 831.61902 2484.8232 3024413
514.73608 826.66779 2470.0291 4800054
526.25372 821.79523 2455.4702 3616037
548.34772 833.25641 2489.7156 3090210
563.30499 833.55627 2490.6116 4603187
577.95117 833.39227 2490.1216 6577748
591.97534 832.36182 2487.0427 3946797
609.60809 836.33221 2498.906 4210483
614.22369 822.67926 2458.1118 2499098
624.96161 817.66919 2443.1418 2696478
634.85498 811.80591 2425.623 986118
644.07416 805.35931 2406.3608 1840653
657.38818 804.20129 2402.9009 1445892
680.24139 814.51459 2433.7163 5656130
688.26843 807.01544 2411.3093 2958361
698.41681 802.25818 2397.0947 4866613
715.099 805.04608 2405.425 2695447
737.08844 813.58325 2430.9333 1050625
750.28888 812.27771 2427.0327 1116674
762.23236 809.68628 2419.2896 1379848
777.80475 810.97406 2423.1375 1314826
791.54596 810.34058 2421.2446 2169875
806.1001 810.54706 2421.8616 2959648
821.22064 811.30579 2424.1287 4933438
826.76813 802.74365 2398.5454 1512462
823.88947 786.42792 2349.7952 2696732
851.96472 799.70996 2389.481 1577482
857.62262 791.85925 2366.0234 3485475
879.19763 798.72131 2386.5269 5392963
889.99249 795.72772 2377.5823 853505
902.28253 794.14343 2372.8486 1971725
914.96039 792.94379 2369.2642 1182468
934.79706 797.89093 2384.0459 1116931
943.5827 793.39856 2370.6228 5327423
953.23309 789.75452 2359.7346 1971981
964.53833 787.56696 2353.1985 1379588
968.71338 779.70282 2329.7009 1707782
984.09009 780.94916 2333.4248 1773830
989.47546 774.34174 2313.6824 1839878
1006.5247 776.91815 2321.3806 4406062
1035.9471 788.84705 2357.0232 3024410
1053.861 791.81146 2365.8809 2169358
1080.3196 801.03394 2393.437 2103563
1097.4124 803.16284 2399.7979 2234379
1104.1659 797.76703 2383.6755 2629138
1107.7164 790.22247 2361.1331 3023896
1118.8311 788.19513 2355.0754 2102796
1130.3879 786.52533 2350.0862 1840650
1134.6973 779.91467 2330.334 1774344
1136.6823 771.88464 2306.3408 3287840
1167.4293 783.34485 2340.583 459008
1189.7041 788.91766 2357.2344 262144
1200.325 786.72284 2350.6765 1379591
1224.9402 793.64545 2371.3606 655616
1239.2625 793.81781 2371.8757 853248
1231.219 779.82056 2330.0527 2300687
1247.325 781.25964 2334.3525 1971208
1269.3816 786.35339 2349.5725 1050368
1275.7167 781.70319 2335.678 2563347
1297.7291 786.65619 2350.4771 2497297
1310.4744 785.94598 2348.355 2431760
1324.3596 785.92725 2348.2991 1708038
1341.6937 787.9342 2354.2959 1905416
1341.6273 779.78644 2329.9507 1971208
1354.0262 778.97583 2327.5288 1050624
1352.2913 770.13232 2301.105 3615519
1383.2207 779.88226 2330.2371 1575938
1403.8956 783.71478 2341.6885 2168074
1422.7614 786.47229 2349.9277 4865330
1441.3403 789.01935 2357.5381 2102540
1465.7362 794.6712 2374.4255 1839110
1462.6635 785.46454 2346.9167 2168073
1482.5898 788.66589 2356.4822 1707521
1493.3131 786.95758 2351.3777 2694415
1499.8044 783.07129 2339.7656 2759951
1542.512 797.99194 2384.3477 3089944
1544.955 792.00061 2366.446 2234637
1562.3252 793.70062 2371.5254 2893084
1575.0475 793.03003 2369.5217 2892827
1582.4634 789.72308 2359.6409 5919051
1584.7859 783.95459 2342.405 2498069
1610.6877 789.84912 2360.0173 2826519
1635.4785 795.10199 2375.7126 2497295
1641.6744 791.30225 2364.3594 3023382
1676.595 801.29517 2394.2175 2628623
1695.9613 803.74896 2401.5493 2957586
1683.3057 791.11243 2363.7922 2760208
1722.4255 802.81689 2398.7642 2957587
1708.0938 789.61987 2359.3325 2759696
1757.3933 805.81409 2407.7197 2364940
1772.5022 806.19623 2408.8616 2825231
1776.7006 801.64954 2395.2761 2891025
1808.868 809.69446 2419.314 2957074
1776.7098 789.04547 2357.6162 2825486
1797.1014 791.87433 2366.0686 4470313
1813.6047 792.95935 2369.3105 3878689
1822.5339 790.74139 2362.6836 1182212
1845.5204 794.60992 2374.2424 2299659
1851.2615 791.05078 2363.6079 2233867
1866.2814 791.48029 2364.8914 2299149
1906.8384 802.65277 2398.2739 1773320
1903.6793 795.39447 2376.5867 4404780
1929.9269 800.43927 2391.6602 2497038
1944.4606 800.58759 2392.1033 3352347
1985.9552 811.75397 2425.4678 3154453
1971.4766 800.04529 2390.4829 3286293
1997.4026 804.78339 2404.6401 2562830
2006.3229 802.65106 2398.2688 2694415
2020.0453 802.4563 2397.687 3681310
2029.7449 800.67731 2392.3716 2891538
2038.391 798.5105 2385.897 2694417
2027.739 788.86572 2357.0791 3155484
2065.3477 797.99969 2384.3708 3352605
2098.259 805.20691 2405.9055 3484447
2119.9736 808.04907 2414.3977 2497551
2137.8499 809.39996 2418.4341 1905416
2147.7085 807.71759 2413.4072 2826261
2155.8525 805.41681 2406.5327 393729
2171.8506 806.06128 2408.4583 2366481
2172.0571 800.87476 2392.9612 2103309
2176.4111 797.27478 2382.2048 3221787
2173.8135 791.19104 2364.0271 4076583
2176.3906 787.05658 2351.6736 4866356
2202.9761 791.60181 2365.2544 3550239
2264.5601 808.58612 2416.0024 4076586
2257.1213 800.86652 2392.9368 3813669
2284.5208 805.5274 2406.863 4932152
2278.7517 798.50769 2385.8887 2958363
0 0 0 0
0 0 0 0
0 0 0 0
0 0 0 0
0 0 0 0
0 0 0 0
0 0 0 0
0 0 0 0
0 0 0 0
-2018.1733 779.33936 2288.0994 3617574
-1996.8605 776.3252 2279.2498 4801849
-1944.3342 761.05237 2234.4097 2893852
-2017.2063 794.99011 2334.0491 2301716
-1990.4677 789.86847 2319.0122 4538677
-1990.7817 795.48541 2335.5032 3420454
-1966.9181 791.45245 2323.6626 2170129
-1958.9609 793.80804 2330.5786 4078128
-1914.1313 781.14972 2293.4143 1708810
-1919.8279 789.07721 2316.6892 2235668
-1892.9558 783.63641 2300.7153 3288356
-1888.0862 787.2912 2311.4456 3485735
-1864.6895 783.21759 2299.4856 4011565
-1841.9637 779.3678 2288.1829 1972238
-1844.1891 786.09656 2307.938 6445905
-1840.7665 790.50024 2320.8672 5393471
-1819.2262 787.13141 2310.9763 2893336
-1788.9402 779.89862 2289.7412 4538161
-1764.6271 775.17902 2275.8848 5130811
-1756.9155 777.73584 2283.3916 4144173
-1758.2914 784.38629 2302.9167 5591622
-1776.7733 798.83167 2345.3276 6512722
-1754.5031 795.03815 2334.1902 6249551
-1738.8574 794.21027 2331.7595 3749418
-1699.2555 782.3396 2296.9077 3749162
-1676.9294 778.29523 2285.0337 4407092
-1664.137 778.64569 2286.0627 3420198
-1659.6827 782.93536 2298.657 4867643
-1691.9442 804.75964 2362.7319 3419171
-1663.0972 797.63977 2341.8284 5393988
-1632.1163 789.36816 2317.5435 5525059
-1638.1914 799.03021 2345.9106 4736057
-1630.312 801.99304 2354.6094 5393729
-1607.642 797.6684 2341.9124 4867385
-1596.785 799.18079 2346.3525 3946024
-1589.4896 802.51788 2356.1501 5196091
-1562.177 795.71802 2336.1863 5262139
-1550.6652 796.91699 2339.7063 5590590
-1512.6396 784.38867 2302.9238 2169099
-1504.0074 787.01318 2310.6292 3748383
-1503.8142 794.14227 2331.5601 5656640
-1509.1997 804.37708 2361.6086 5130298
-1496.6119 805.13434 2363.832 3025440
-1486.5245 807.26379 2370.084 7630694
-1476.8564 809.6637 2377.1299 2828319
-1482.3232 820.48718 2408.9072 6381395
-1454.4088 812.86456 2386.5276 8618356
-1423.5862 803.45087 2358.8894 4144947
-1408.0663 802.57269 2356.3113 855556
-1398.2771 804.97614 2363.3674 4934464
-1385.5847 805.73999 2365.6101 5921360
-1366.4427 802.73041 2356.7742 6184274
-1355.1951 804.3443 2361.5125 3486248
-1348.5079 808.72687 2374.3794 5525830
-1341.5487 813.03699 2387.0337 3618088
-1338.6108 819.90198 2407.189 4012847
-1327.3149 821.74048 2412.5867 7499876
-1319.2482 825.63983 2424.0352 5921359
-1306.3491 826.56775 2426.7593 7632490
-1290.9689 825.92877 2424.8833 4013873
-1273.2898 823.78809 2418.5984 4408632
-1254.7034 821.005 2410.4272 6250580
-1236.0588 818.11926 2401.9551 5329221
-1235.1416 827.03638 2428.1353 1381643
-1225.772 830.43738 2438.1204 1776147
-1205.6276 826.53278 2426.6565 1117190
-1184.4136 821.79163 2412.7368 1512206
-1171.3135 822.63312 2415.2075 4603961
-1152.605 819.508 2406.0322 2565404
-1139.2845 820.18347 2408.0154 1709839
-1124.037 819.47101 2405.9238 986630
-1128.6132 833.37836 2446.7549 3419943
-1103.0785 825.12427 2422.5212 1972497
-1064.6619 806.8894 2368.9846 2103826
-1048.9048 805.57001 2365.1111 1117703
-1047.0791 815.05914 2392.9707 2170386
-1037.9536 819.04858 2404.6836 3222561
-1027.2219 821.86407 2412.9497 2499095
-1009.6555 819.21362 2405.168 1446408
-992.13403 816.52405 2397.2715 1512460
-988.82379 825.62207 2423.9829 1315080
-969.33978 821.28497 2411.2495 1709580
-951.20447 817.97791 2401.54 1907475
-932.54291 814.11096 2390.1868 3420199
-911.64764 808.14453 2372.6699 3420196
-909.77899 819.12195 2404.8989 2433045
-902.12982 825.16138 2422.6304 2893853
-884.75305 822.35468 2414.3899 1972750
-872.10162 823.91974 2418.9851 2564887
-843.95148 810.65021 2380.0264 2104337
-838.58313 819.18433 2405.082 3946541
-829.07861 823.9032 2418.9363 3814957
-816.77673 825.95929 2424.9729 3157030
-799.9295 823.41028 2417.4893 2828324
-790.98291 829.04919 2434.0447 1183498
-780.26947 833.01129 2445.6772 1972758
-764.5603 831.6889 2441.7949 1512462
-750.37708 832.00757 2442.7305 2367513
-728.2193 823.32281 2417.2322 3486249
-715.40576 825.06592 2422.3501 2959650
-710.47632 836.15936 2454.9197 2433820
-686.95001 825.37225 2423.2495 2499614
-666.71948 818.16913 2402.1013 986377
-649.59717 814.54901 2391.4731 2104855
-643.93268 825.45532 2423.4932 4933953
-626.63367 821.60468 2412.188 3420455
-617.42676 828.43182 2432.2322 3157284
-602.30048 827.45319 2429.3589 2762529
-586.28864 825.18011 2422.6853 2630429
-571.8609 825.07861 2422.3872 2235671
-555.05328 821.44971 2411.7332 3354150
-532.24347 808.51135 2373.7466 2433560
-525.30743 819.63824 2406.4148 3486246
-507.85254 814.51562 2391.375 5262401
-495.53806 817.58002 2400.3718 5591622
-480.74026 816.60718 2397.5156 4604984
-463.798 811.82159 2383.4653 5526087
-450.11816 812.62512 2385.8245 5262915
-437.63422 815.70984 2394.8811 2630683
-416.05081 801.47229 2353.0803 2367772
-405.18387 807.60712 2371.0918 4144183
-389.07251 803.35413 2358.6055 3486510
-376.46347 806.28522 2367.2109 1841173
-364.57254 811.04071 2381.1729 1643537
-351.00903 812.30853 2384.895 328194
-338.87872 817.13849 2399.0757 196608
-323.59454 814.45367 2391.1931 196609
-306.8548 807.69165 2371.3401 131074
-293.08237 808.46576 2373.6128 5
-275.22681 797.48682 2341.3792 65543
-264.3139 806.52686 2367.9204 65545
-248.26894 800.04279 2348.8833 9
-234.27606 799.79388 2348.1526 11
-220.37498 799.8468 2348.3081 9
-205.60835 796.55353 2338.6392 10
-192.40584 799.28192 2346.6494 10
-178.37671 798.73383 2345.0403 10
-164.15059 797.13654 2340.3508 10
-149.83057 794.74652 2333.3337 10
-136.23311 796.09265 2337.2861 9
-122.59801 797.49878 2341.4143 9
-108.44204 795.44312 2335.3789 9
-94.517036 794.72791 2333.2793 9
-80.390526 791.7829 2324.6331 9
-64.717461 769.23755 2258.4409 11
-51.22813 767.65924 2253.8071 11
-37.693577 764.0509 2243.2131 11
-24.404257 764.18982 2243.6211 11
-11.07399 761.84479 2236.7361 11
2.1759233 759.93744 2231.1362 12
15.359462 758.02991 2225.5359 12
28.515253 757.14813 2222.947 12
41.892086 760.8382 2233.7808 12
55.135918 760.92059 2234.0227 11
68.514427 762.46985 2238.5713 7
81.419937 759.10651 2228.6968 1
94.170723 755.44086 2217.9346 4078908
107.98833 760.18304 2231.8574 4801852
122.73952 769.74524 2259.9314 5854543
136.9613 774.43237 2273.6926 5
150.58276 775.18951 2275.9155 65545
164.85143 778.88 2286.7505 12
178.75298 780.4071 2291.2341 14
193.01755 783.19159 2299.4092 65556
207.67986 787.11621 2310.9316 21
221.28929 786.81177 2310.0378 11776443
238.36769 798.1582 2343.3506 13750479
253.00465 800.53058 2350.3157 13685201
269.80508 809.14355 2375.603 13750737
284.57242 811.10748 2381.3689 13750737
299.92697 814.48041 2391.2715 13750737
315.02289 816.8783 2398.3115 13750737
330.6972 820.50421 2408.957 13750737
345.85547 822.60266 2415.1182 13750737
360.85706 824.17651 2419.7388 13684947
374.5018 822.64954 2415.2556 13751257
389.81067 824.7558 2421.4397 394535
406.28464 829.09027 2434.1653 7240365
420.73651 829.14252 2434.3186 3947605
434.24295 827.38983 2429.1729 9
449.61887 829.19733 2434.4797 2433318
464.84555 830.62592 2438.6738 2827814
477.1593 826.9201 2427.7937 1052430
490.61795 825.3573 2423.2056 2038034
503.89554 823.5874 2418.0093 4603701
520.27924 826.85187 2427.5935 1841431
540.75732 836.27246 2455.252 4801599
555.51367 836.5827 2456.1626 3487020
564.57849 828.52472 2432.5049 1578255
576.45374 824.88965 2421.8325 5591365
592.48822 827.23828 2428.728 4274991
615.41388 838.86902 2462.8752 4143919
615.36249 819.36627 2405.6162 2367511
625.32349 813.77679 2389.2056 1446667
635.75427 809.03235 2375.2764 1380616
652.60767 812.48975 2385.427 459264
662.54498 807.37256 2370.4033 590336
683.51422 815.63214 2394.6531 1708813
696.38269 814.08588 2390.1133 2366743
705.98267 808.85645 2374.7598 1380364
722.89667 812.04742 2384.1284 722691
738.73468 813.93054 2389.6572 1314827
750.01898 810.82007 2380.5249 2104342
760.5473 807.02209 2369.3743 2630942
771.41809 803.71869 2359.6758 1184013
791.51764 809.97693 2378.0496 1578258
805.16327 809.5274 2376.7297 4143925
823.79346 814.01855 2389.9155 2433564
827.87939 804.22925 2361.1748 2301464
833.29565 796.03619 2337.1204 3881008
852.36139 800.93695 2351.5088 3617839
861.9693 796.93585 2339.7617 3090979
872.34601 793.76086 2330.4402 853505
891.34393 798.40741 2344.082 1445382
911.26373 803.72424 2359.6919 262400
923.38544 802.10651 2354.9424 7695460
935.40765 800.45178 2350.0842 1116933
942.26245 794.48859 2332.5767 7300441
950.16376 789.56757 2318.1287 3484962
960.80554 787.03156 2310.6831 788224
964.25061 778.75452 2286.3823 4471852
967.27338 770.37061 2261.7676 3813920
984.99481 773.76239 2271.7256 4011299
1001.2157 775.89984 2278.001 4865838
1035.8915 792.09192 2325.54 7103312
1051.1007 793.16919 2328.7029 4931889
1073.0598 799.24603 2346.5442 4339751
1078.0421 792.68427 2327.2793 2299915
1094.9889 794.97485 2334.0042 1445636
1104.182 791.64911 2324.24 2300427
1117.7788 791.52356 2323.8716 3155736
1135.0958 794.00348 2331.1523 3155995
1147.0704 792.73169 2327.4185 2629910
1158.2869 790.97235 2322.2532 591362
1182.8665 798.27258 2343.6863 2892828
1191.1876 794.55859 2332.7822 2038803
1209.1136 797.263 2340.7222 3814700
1209.0312 788.16638 2314.0149 1709324
1218.3206 785.31476 2305.6426 3353377
1234.7308 787.06549 2310.7827 1576968
1245.4954 785.21851 2305.3601 2037516
1260.045 785.77209 2306.9854 2300689
1265.661 780.80237 2292.3945 3024154
1295.8994 790.9668 2322.2368 1050112
1305.2177 788.28296 2314.3572 1576450
1313.8828 785.26465 2305.4956 1773829
1323.4816 782.86066 2298.4375 1971208
1331.5547 779.61243 2288.9009 2036998
1353.53 784.48718 2303.2131 3418138
1371.7378 787.10278 2310.8923 2891793
1383.941 786.25531 2308.4043 2036486
1406.9495 791.50317 2323.8115 2891795
1424.5853 793.65619 2330.1326 2826002
1424.8934 786.20691 2308.262 2562829
1413.843 772.69165 2268.582 2168071
1463.2638 792.1684 2325.7646 2497037
1468.5251 787.59808 2312.3464 2167817
1502.1466 798.18176 2343.4194 2497036
1518.671 799.56995 2347.4954 2628623
1521.7415 793.91394 2330.8894 3023123
1543.842 798.19861 2343.469 3089689
1553.5173 796.0401 2337.1316 4537394
1562.6782 793.65826 2330.1389 3024156
1570.0552 790.42029 2320.6323 3945258
1575.9078 786.47778 2309.0571 2958618
1610.0662 796.60779 2338.7983 2234381
1623.323 796.31165 2337.9292 2563087
1635.2185 795.35864 2335.1311 2826001
1641.439 791.68439 2324.3438 2628622
1652.4807 790.37732 2320.5061 2760208
1672.9143 793.54681 2329.8115 2102022
1669.1157 785.26398 2305.4937 2036486
1690.1245 788.69196 2315.5579 2430730
1721.8313 797.0166 2339.9988 2299398
1737.5033 797.84534 2342.4319 2891535
1760.7224 802.099 2354.9204 2891534
1775.8065 802.60889 2356.4175 2694156
1790.2981 802.84521 2357.1113 2167555
1793.3265 797.97711 2342.8188 2759950
1812.4186 800.27673 2349.5703 2694157
1815.0286 795.31909 2335.0149 3352088
1835.6882 798.28577 2343.7249 3615260
1833.4111 791.30817 2323.239 3023379
1874.9055 803.18591 2358.1113 3352344
1907.4418 811.07849 2381.2837 2233609
1905.2795 804.20929 2361.116 2562574
1908.719 799.78741 2348.1335 2891796
1932.0594 803.70795 2359.6443 2826003
1950.1588 805.40765 2364.6345 1049600
1955.3997 801.81055 2354.0735 1115392
1970.2448 802.17474 2355.1426 1904902
1981.2135 800.96649 2351.5955 3287068
1987.6027 797.93683 2342.7004 2760467
1996.2928 795.86646 2336.6221 2628881
2003.2605 793.14252 2328.6248 3155225
2034.0951 799.84088 2348.2908 2826774
2036.4865 795.33984 2335.0759 2760981
2060.4602 799.27155 2346.6191 5063224
2072.1013 798.39868 2344.0564 4339242
2094.5452 801.67212 2353.667 4208171
2110.0269 802.25513 2355.3787 2694675
2133.0959 805.69629 2365.4817 3484448
2137.6104 802.12982 2355.011 1708556
2152.6721 802.54205 2356.2212 3155995
2152.2236 797.20374 2340.5481 5129271
2151.071 791.67456 2324.3149 4011048
2160.6736 790.14905 2319.8359 3549984
2183.2859 793.37012 2329.293 1839880
2202.8904 795.46478 2335.4426 2760983
2204.6436 791.12732 2322.7083 1576454
2222.2886 792.51111 2326.7708 4932408
0 0 0 0
0 0 0 0
0 0 0 0
0 0 0 0
0 0 0 0
0 0 0 0
0 0 0 0
0 0 0 0
0 0 0 0
-2022.6321 794.65082 2293.1543 3618089
-1991.4167 787.67932 2273.0361 3618088
-1967.5543 783.54083 2261.0938 2959645
-1945.6497 780.1308 2251.2532 2893852
-1961.8673 792.06458 2285.6912 4341298
-1965.2338 798.93994 2305.5315 1907476
-1947.2181 797.15802 2300.3894 5657158
-1927.4012 794.60846 2293.032 3814955
-1903.0222 790.12848 2280.104 3485989
-1898.9039 794.05676 2291.4399 4012334
-1881.2051 792.32184 2286.4333 3024412
-1869.0426 792.9104 2288.1318 4077356
-1838.9677 785.85303 2267.7661 3683369
-1834.3903 789.66785 2278.7747 4736056
-1820.249 789.39172 2277.9778 4933435
-1775.7704 775.85663 2238.9192 5986123
-1765.0928 776.99713 2242.2102 2762520
-1778.1008 788.66034 2275.8674 5393983
-1760.1691 786.67395 2270.1353 6249036
-1753.7952 789.86249 2279.3362 4735797
-1744.0549 791.57245 2284.2708 5459263
-1738.9375 795.42365 2295.3845 4670263
-1735.3119 800.0235 2308.6584 4538677
-1711.6904 795.4046 2295.3293 4078127
-1693.9204 793.45251 2289.6963 5196607
-1660.332 783.99957 2262.4175 5525830
-1626.5464 774.29889 2234.4238 3552296
-1650.8408 792.31409 2286.4109 6907228
-1650.8134 798.85779 2305.2944 5920331
-1639.1224 799.8194 2308.0693 2828317
-1635.1428 804.59161 2321.8408 5460293
-1622.7544 805.27222 2323.8047 5986123
-1618.5016 810.03601 2337.552 5262400
-1602.3461 808.87366 2334.1975 3946541
-1594.39 811.86621 2342.8333 2564887
-1568.2433 805.5672 2324.656 2958876
-1551.5538 804.0575 2320.2996 4406577
-1525.2174 797.47693 2301.3096 4406833
-1507.7382 795.45044 2295.4617 1576710
-1496.334 796.62122 2298.8403 2300686
-1480.0045 795.16736 2294.6448 4406062
-1490.6749 808.32733 2332.6211 3353888
-1482.5466 811.44452 2341.6165 3024667
-1451.5574 801.98993 2314.333 2827033
-1450.3335 808.95728 2334.439 4999485
-1439.729 810.77618 2339.6877 4999484
-1427.7197 811.83167 2342.7336 5197119
-1413.8353 811.83112 2342.7322 7697254
-1406.5537 815.65961 2353.78 3486502
-1357.7863 795.26617 2294.9299 4934463
-1366.5364 808.48938 2333.0886 5263429
-1344.8585 803.79675 2319.5469 5329222
-1341.7694 810.23199 2338.1174 7499619
-1325.5057 808.763 2333.8784 5526085
-1310.3702 807.95868 2331.5574 2170646
-1315.5408 819.79114 2365.7026 5262400
-1313.0918 827.07928 2386.7341 6644309
-1295.2965 824.75452 2380.0256 5526342
-1272.564 819.20026 2363.9976 6645081
-1258.275 819.01849 2363.4729 4144947
-1261.7205 830.50592 2396.6226 3750189
-1248.4729 831.14197 2398.458 4079155
-1235.3425 831.87146 2400.5632 5855565
-1221.3918 832.0592 2401.105 4276024
-1207.6499 832.39526 2402.0747 2828320
-1179.3896 822.61292 2373.8455 1446667
-1179.1014 832.34009 2401.9155 1116935
-1159.0282 828.16803 2389.876 722948
