# .PCD v0.7 - Point Cloud Data file format
VERSION 0.7
FIELDS x y z rgb
SIZE 4 4 4 4
TYPE F F F U
COUNT 1 1 1 1
WIDTH 1266
HEIGHT 1
VIEWPOINT 0 0 0 1 0 0 0
POINTS 1266
DATA ascii
4753.6963 494.03445 8798.8945 3154456
4822.6968 495.76727 8829.7559 3022871
4862.8369 494.52792 8807.6826 2891542
4908.5396 493.87454 8796.0459 2957335
4924.5771 490.28156 8732.0537 2957336
4987.0908 491.34219 8750.9443 3220508
5040.9624 491.53833 8754.4375 3023642
5083.4844 490.63507 8738.3506 2958106
5132.8838 490.40717 8734.291 2958106
5213.3901 493.12607 8782.7158 3023899
5264.4663 493.03506 8781.0947 2629141
5329.9111 494.27832 8803.2373 2563348
5305.2437 487.22171 8677.5576 2892313
5358.7881 487.41452 8680.9912 2760983
5385.9902 485.23041 8642.0918 2892055
5544.1489 494.77435 8812.0723 3812387
5547.3096 490.43683 8734.8193 3089177
5585.4434 489.24289 8713.5547 3286554
5599.3853 485.97119 8655.2852 3154712
5667.7764 487.44165 8681.4746 3088662
5715.7002 487.1413 8676.125 3351833
5776.2661 487.91415 8689.8896 3351832
5823.4219 487.55054 8683.4141 3219989
5906.4258 490.1684 8730.0381 3154196
6021.7969 495.4035 8823.2773 3285525
5995.9375 489.02972 8709.7588 3219732
6140.8423 496.57352 8844.1152 3153940
6132.5649 491.70746 8757.4492 3153940
6164.9336 490.15463 8729.7939 3154197
6234.1006 491.52911 8754.2734 3088660
6324.5273 494.54333 8807.957 3417626
6607.9287 512.47412 9127.3096 3417626
6419.1431 493.79099 8794.5576 3351833
6735.0601 513.92017 9153.0645 3220247
6664.832 504.49826 8985.2578 3351833
6605.4141 496.03751 8834.5693 3022868
6607.5469 492.29568 8767.9258 3022868
6653.5698 491.85672 8760.1084 2825491
6693.9712 491.01224 8745.0674 2891541
6721.4385 489.23932 8713.4912 2891541
6768.4141 488.90256 8707.4932 2891285
6814.0312 488.47339 8699.8506 2957334
6965.3838 495.5737 8826.3086 2892054
6926.1196 489.10718 8711.1377 3023897
7017.6289 491.90295 8760.9316 2760212
7021.3491 488.54926 8701.2012 3023383
6871.9873 474.67056 8454.0176 2891540
6884.2158 472.07358 8407.7646 3023126
7001.1143 476.63986 8489.0918 2759954
6982.229 471.96274 8405.791 2628881
7010.5371 470.51935 8380.083 2366225
7081.6846 471.9512 8405.585 2168846
7310.7876 483.81631 8616.9062 2563604
7227.2979 474.97339 8459.4111 2628627
7300.4385 476.47504 8486.1562 2562578
7377.27 478.1955 8516.7979 2628625
7552.9741 486.25784 8660.3906 2693904
7570.272 484.08209 8621.6396 2759440
7785.5161 494.50833 8807.334 2825490
7776.208 490.62796 8738.2236 2759697
7837.8291 491.24442 8749.2031 2957076
8004.7612 498.40994 8876.8232 3022870
7927.188 490.35739 8733.4043 3022867
7865.7524 483.40103 8609.5098 3154452
7836.6177 478.50668 8522.3398 3023124
7879.2656 478.02997 8513.8496 3153939
7910.8042 476.88965 8493.54 3285525
7946.3262 476.00229 8477.7363 3219732
8035.9409 478.34607 8519.4795 3285525
8233.373 487.03842 8674.293 3088660
8271.5371 486.26001 8660.4287 2891281
0 0 0 0
0 0 0 0
0 0 0 0
0 0 0 0
-7362.0093 501.26718 8075.375 2830660
-7408.4644 507.73071 8179.502 2896198
-7139.8975 492.54749 7934.9014 2830405
-7478.7139 519.34125 8366.5469 2765381
-7316.8013 511.48868 8240.043 2765381
-7495.3535 527.49109 8497.8398 2962503
-7440.4009 527.16559 8492.5967 2962503
-7317.1934 521.96686 8408.8457 2962760
-7423.562 533.18585 8589.582 2962760
-7386.207 534.16559 8605.3662 2961989
-7397.7861 538.72253 8678.7783 2831173
-7255.0142 532.02448 8570.8721 2831173
-7198.0684 531.57001 8563.5518 2830916
-7279.2461 541.38196 8721.6211 2831174
-7249.2197 543.00439 8747.7578 2699588
-7191.165 542.53558 8740.2061 2831174
-7168.3564 544.7384 8775.6934 2831174
-7092.8477 542.93939 8746.7109 2765124
-7035.4023 542.50684 8739.7422 2831174
-6981.312 542.32831 8736.8672 2830917
-7012.666 548.83441 8841.6797 2896197
-6949.2769 547.96771 8827.7168 2896197
-7061.1055 561.00903 9037.8115 2830403
-7253.793 580.72308 9355.4033 2896196
-7006.5132 565.24664 9106.0791 3027268
-7022.7129 570.95111 9197.9775 3027525
-6656.8887 545.44293 8787.043 3027269
-6729.3486 555.72729 8952.7227 3093061
-6673.665 555.50854 8949.1992 2961475
-6558.0273 550.2558 8864.5781 2961731
-6122.5732 517.86713 8342.7988 2961474
-6536.8208 557.40668 8979.7783 2830913
-6644.2539 571.21802 9202.2773 2962498
-6143.7095 532.55646 8579.4434 2962241
-6461.0703 564.73993 9097.916 3027777
-6439.5454 567.59503 9143.9111 3093569
-6268.0625 557.1687 8975.9443 2961726
-5453.3687 488.89948 7876.1323 2896187
-6044.23 546.54865 8804.8564 2961721
-5714.415 521.22491 8396.8926 3093562
-5614.8042 516.63812 8323 3554110
-5652.6626 524.7312 8453.3779 4079937
-5493.228 514.49066 8288.4043 4474692
-5403.2007 510.62466 8226.123 4672326
-5339.3721 509.18661 8202.957 4803654
-5326.4912 512.62549 8258.3564 4474691
-5248.5361 509.80725 8212.9551 4211776
-5186.7031 508.51688 8192.167 4211521
-5200.0488 514.64246 8290.8496 4211520
-5082.939 507.85077 8181.436 4080193
-5086.23 513.07361 8265.5762 4212035
-5043.5508 513.71576 8275.9209 4146243
-4998.1128 514.08679 8281.8975 3948353
-4937.478 512.88654 8262.5615 3750976
-4724.8115 495.71158 7985.8745 3290683
-4784.4546 507.04797 8168.5029 3159356
-4679.6152 501.00638 8071.1738 3159100
-4658.1587 503.85928 8117.1338 3027260
-4589.4355 501.60571 8080.8286 2830138
-4523.481 499.61038 8048.6841 2764088
-4416.2437 492.96432 7941.6162 2698040
-4419.3252 498.6221 8032.7627 2764089
-4406.6626 502.60727 8096.9644 2764090
-4386.7573 505.84518 8149.1265 2829883
-4321.7744 503.89923 8117.7773 2829883
-4273.376 503.86499 8117.2256 2698552
-4301.6851 512.97729 8264.0244 2764088
-4259.4878 513.7948 8277.1934 2501688
-4195.9204 512.0235 8248.6592 2566711
-4168.2002 514.63654 8290.7539 2501176
-4085.4333 510.43423 8223.0557 2500920
-3968.6594 501.83038 8084.4487 2500920
-3901.8259 499.40833 8045.4292 2500920
-3856.1787 499.67157 8049.6704 2500921
-3911.1699 513.14526 8266.7295 2500921
-3898.7661 518.00623 8345.04 2500921
-3788.0608 509.7637 8212.2529 2500920
-3878.5781 528.73767 8517.9229 2501177
-3731.9409 515.45636 8303.9609 2566715
-3714.6626 519.92584 8375.9648 2435130
-3681.2109 522.22205 8412.9561 2435130
-3618.6831 520.39984 8383.6006 2500921
-3598.7842 524.74268 8453.5635 2566456
-3562.2446 526.7475 8485.8604 2500920
-3475.6975 521.30927 8398.251 2435383
-3364.2913 511.93033 8247.1572 2435897
-3290.0439 508.01245 8184.041 2435898
-3335.1858 522.68805 8420.4629 2501691
-3341.0713 531.56372 8563.4502 2435898
-3307.8123 534.38922 8608.9688 2501178
-3255.2649 534.13837 8604.9277 2369593
-3182.312 530.47803 8545.96 2435129
-3148.4526 533.32147 8591.7666 2500922
-3092.5281 532.45917 8577.876 2370362
-3001.3564 525.39801 8464.1211 2370106
-2959.313 526.84302 8487.4004 2435899
-2938.3237 532.15106 8572.9121 2501692
-2889.8101 532.5733 8579.7148 2567229
-2824.0681 529.77881 8534.6953 2501693
-2797.1487 534.29797 8607.499 2567231
-2751.4038 535.32239 8624.002 2633024
-2709.0752 537.06287 8652.04 2567231
-2646.3552 534.74988 8614.7793 2567232
-2628.6641 541.62396 8725.5195 2633025
-2563.8481 538.8692 8681.1406 2633025
-2523.8235 541.31891 8720.6055 2633026
-2438.533 533.95941 8602.0439 2698818
-2362.6147 528.38153 8512.1855 2764612
-2330.8438 532.64899 8580.9336 2830404
-2281.2942 532.95331 8585.8369 2830660
-2200.5469 525.81696 8470.8701 2765124
-2150.0276 525.73895 8469.6133 2830916
-2099.481 525.65027 8468.1855 2830916
-2059.9617 528.38599 8512.2568 2830916
-2029.496 533.63947 8596.8896 2896710
-1968.3639 530.89246 8552.6357 2962503
-1945.5261 538.60162 8676.8301 2962503
-1904.4469 541.5423 8724.2041 2896710
-1872.707 547.37689 8818.1992 2896457
-1821.2142 547.60718 8821.9082 3028042
-1742.1202 539.30652 8688.1855 2962250
-1694.3068 540.4787 8707.0693 3028042
-1644.5042 541.07007 8716.5967 3093836
-1593.9465 541.44336 8722.6094 2962248
-1581.5387 555.23492 8944.791 2764613
-1407.7745 511.37082 8238.1436 2698819
-1338.6812 503.74234 8115.25 2436417
-1289.5042 503.31912 8108.4316 2173243
-1256.2797 509.33075 8205.2783 2304829
-1183.9684 499.34152 8044.3525 3028293
-1175.5103 516.5741 8321.9688 3621200
-1111.3724 509.77634 8212.457 4410202
-1058.6057 507.81049 8180.7876 5002593
-997.44922 501.43832 8078.1323 5660779
-946.21228 499.6618 8049.5127 6252918
-911.29309 506.77097 8164.0405 6976385
-860.9231 505.60339 8145.2314 7173510
-806.87903 502.0112 8087.3608 7239818
-734.30682 485.70981 7824.7471 7306126
-700.27832 494.42416 7965.1348 7635604
-626.0058 473.93076 7634.9873 8096155
-589.86285 481.35977 7754.668 8424863
-528.06201 467.33682 7528.7598 8490912
-493.71722 477.26685 7688.7314 8688293
-462.49738 492.54401 7934.8457 8622500
-418.25385 495.83972 7987.9395 8622245
-380.93365 509.23187 8203.6855 8556708
-322.36414 493.98062 7957.9893 8556965
-272.85074 489.75769 7889.958 8557477
-227.21715 492.19241 7929.1816 8623015
-181.31767 495.17068 7977.1606 8623014
-136.27054 503.39828 8109.707 8623013
-87.24157 497.8678 8020.6108 8688293
-40.360851 506.03143 8152.1265 8753829
7.9289804 504.66876 8130.1743 8622500
56.158527 505.10406 8137.187 8622243
104.17975 504.12906 8121.48 8556707
152.43282 504.53766 8128.0625 8556963
202.1539 508.44229 8190.9658 8491171
249.65141 506.3251 8156.8579 8491171
300.09796 509.90564 8214.54 8557220
346.8197 507.04111 8168.3926 8754341
392.88846 504.04056 8120.0537 8754597
425.50711 486.32233 7834.6147 8754597
494.01016 509.0686 8201.0557 8754597
547.47241 513.62921 8274.5264 8820135
593.8833 511.36826 8238.1025 8820392
649.99933 517.17279 8331.6133 8820136
706.82062 522.6792 8420.3213 8754600
755.13434 521.58313 8402.6631 8557221
808.27234 523.74872 8437.5508 8557221
865.88098 528.39014 8512.3232 8557220
920.90186 531.02826 8554.8232 8491170
971.53607 530.99359 8554.2646 8228255
1025.6342 532.7616 8582.7471 7964827
1070.6479 529.86664 8536.1104 8162206
1126.7078 532.45306 8577.7773 8162462
1153.2399 521.46454 8400.7529 8294305
1201.7882 520.92859 8392.1191 8557476
1255.9948 522.79053 8422.1143 8557475
1291.4504 517.00354 8328.8867 8491682
1335.9453 515.12805 8298.6729 8491682
1379.9932 513.21954 8267.9268 8557475
1418.2589 509.36523 8205.834 8557475
1452.4443 504.34964 8125.0332 8688804
1495.1709 502.52658 8095.6641 8689061
1545.6792 503.35101 8108.9458 8754598
1606.4246 507.35892 8173.5122 8754597
1649.4479 505.69888 8146.7695 8886183
1702.7014 507.18048 8170.6377 8951719
1824.7706 528.51135 8514.2764 9017256
1894.527 533.9505 8601.9014 8227740
1998.8348 548.58746 8837.7012 8688547
2028.2402 542.44452 8738.7393 9214892
2085.3523 543.83307 8761.1084 9478064
2111.4773 537.26947 8655.3691 8424862
2164.6279 537.73077 8662.8008 8424605
2205.5266 535.19763 8621.9922 7173765
2218.7485 526.21521 8477.2861 7107199
2285.9951 530.15973 8540.832 3949136
2338.219 530.52484 8546.7139 5593961
2368.8159 526.07153 8474.9707 7435904
2408.584 523.79755 8438.3369 4606030
2481.1372 528.60083 8515.7188 2894381
2533.9216 529.08496 8523.5176 3551537
2532.6548 518.48474 8352.749 3814448
2612.0715 524.49188 8449.5234 4603963
2691.01 530.17877 8541.1387 4077106
2797.2129 540.9281 8714.3096 4341046
2632.0278 499.75778 8051.0586 3485222
2655.6455 495.26425 7978.6685 3617063
2715.8708 497.63571 8016.8721 3616550
2784.3171 501.40598 8077.6108 3813672
2871.7368 508.40784 8190.4106 3484707
2864.1531 498.63727 8033.0073 3353121
2931.5493 502.02646 8087.6069 3550501
2965.5293 499.67618 8049.7437 4077102
3037.0847 503.63126 8113.46 3616295
3073.7424 501.76633 8083.416 2958364
3129.1758 502.9765 8102.9126 3089696
3183.1973 503.92676 8118.2202 3221278
3260.1719 508.42807 8190.7368 3089949
3265.6765 501.81516 8084.2031 3089947
3340.3345 505.86615 8149.4639 3221278
3387.7456 505.7341 8147.3369 3352861
3453.2419 508.2677 8188.1528 3418140
3506.4041 508.9408 8198.9961 3286554
3549.3291 508.12994 8185.9336 3089688
3754.415 530.24323 8542.1768 3615520
3776.448 526.25909 8477.9932 3154971
3754.814 516.37445 8318.752 2958106
3863.9202 524.4928 8449.5381 2892313
3940.4963 528.04419 8506.751 3287072
3898.1365 515.76929 8309.0029 3089436
3983.4272 520.47961 8384.8857 3089692
4044.988 522.01154 8409.5645 3155485
4064.8403 518.18909 8347.9854 3418657
4157.2764 523.60022 8435.1592 3287071
4167.6309 518.66779 8355.6973 3418655
4256.5664 523.51575 8433.7979 3681828
4357.7212 529.73669 8534.0166 3549986
4337.3428 521.21039 8396.6592 3616291
4362.2656 518.25958 8349.1211 3286299
4429.5425 520.35034 8382.8037 4075816
4479.5581 520.38959 8383.4355 3023128
4548.9648 522.65582 8419.9443 3088921
4600.9302 522.89075 8423.7285 3154714
4683.5601 526.56824 8482.9727 3747364
4689.5405 521.64142 8403.6025 2958362
4769.0239 524.90839 8456.2334 2958106
4834.1689 526.54565 8482.6094 3286814
4808.3804 518.3465 8350.5215 2958106
4850.3843 517.54803 8337.6582 2694934
4884.2021 515.901 8311.125 2826520
4897.1909 512.10876 8250.0322 2826520
4976.1914 515.22626 8300.2539 3221277
5135.8057 526.54755 8482.6396 3023898
5215.6221 529.54742 8530.9678 3155484
5053.7241 508.18375 8186.8008 3154715
5136.4336 511.58939 8241.665 3615520
5317.6489 524.64966 8452.0645 3483934
5298.6768 517.89954 8343.3213 3680799
5276.9575 511.00821 8232.3018 3351833
5355.2676 513.841 8277.9385 3351834
5361.2598 509.74646 8211.9756 3220248
5505.3115 518.73407 8356.7656 3680027
5489.6904 512.65057 8258.7607 3482904
5605.1187 518.80438 8357.8984 3219732
5620.4419 515.66595 8307.3379 3219475
5677.0801 516.33954 8318.1904 3285268
5705.3228 514.44135 8287.6094 3088660
5939.6357 530.99792 8554.335 3022867
5929.5928 525.61395 8467.5996 3088660
5910.5596 519.53015 8369.5898 3286039
5945.979 518.29407 8349.6768 3154709
5989.1099 517.74506 8340.832 3022867
6310.7017 541.08026 8716.7607 3088403
6064.0508 515.71094 8308.0625 3220246
6112.2051 515.61975 8306.5938 3286039
6230.644 521.4118 8399.9033 3351832
6193.5737 514.20129 8283.7432 3220246
6282.6704 517.49658 8336.8291 3154453
6350.7109 519.01947 8361.3633 3088660
6393.9336 518.50629 8353.0957 2891281
6535.043 525.87793 8471.8525 3022610
6476.8672 517.22296 8332.4209 2891026
6501.4536 515.258 8300.7656 2891284
6619.4019 520.66614 8387.8906 2891283
6529.2944 509.75058 8212.042 2957333
6561.1787 508.45007 8191.0908 3023382
6572.748 505.60599 8145.2729 3089175
6603.6445 504.27921 8123.8984 3023382
6613.0938 501.34573 8076.6406 3089175
6654.2983 500.84445 8068.5654 3023381
6655.8506 497.38721 8012.8691 2891539
6697.563 496.95886 8005.9683 2825746
6811.0605 501.82544 8084.3687 2957589
6832.6343 499.89862 8053.3276 3023382
6851.3662 497.79205 8019.3906 3154709
6941.9106 500.89618 8069.3979 3154452
7016.7686 502.83365 8100.6104 3088660
7211.0483 513.24463 8268.3311 2759694
7092.3677 501.39056 8077.3628 2891281
7306.5513 513.06934 8265.5068 3088659
7469.6377 521.02838 8393.7266 3088660
7478.6855 518.20856 8348.2988 3022610
7542.6182 519.20386 8364.333 3088146
7568.521 517.58539 8338.2598 3022097
7462.4438 507.02084 8168.0659 3153937
7487.9839 505.47729 8143.1992 3088144
7480.7539 501.75552 8083.2422 3088144
7561.5312 503.94641 8118.5376 3285522
7565.4468 501.01956 8071.3857 3417109
7544.0444 496.46329 7997.9849 3285266
7807.6821 510.60489 8225.8047 3285522
7838.811 509.45978 8207.3574 3087887
0 0 0 0
0 0 0 0
0 0 0 0
0 0 0 0
-7438.8701 554.85657 8159.6841 2962503
-7057.9653 529.88983 7792.5249 2896710
-7405.2544 559.62482 8229.8057 2831174
-7336.9341 558.1377 8207.9365 2896710
-7135.665 546.44952 8036.0503 2962503
-7446.4624 574.08179 8442.4092 2896711
-6987.9893 542.38019 7976.207 2962247
-6530.1025 510.29257 7504.3286 2962503
-6922.603 544.67383 8009.937 2962504
-7063.2227 559.57483 8229.0703 2961990
-6280.8682 501.05328 7368.4561 2830917
-6053.3618 486.28491 7151.2739 2765124
-7046.104 570.02563 8382.7598 2699331
-6073.9419 494.86737 7277.4868 2633281
-5906.9854 484.70642 7128.0605 2698815
-5811.8872 480.33801 7063.8193 2764864
-5689.0518 473.59717 6964.689 3225157
-5302.7607 444.66562 6539.2236 3488070
-5287.6572 446.66336 6568.6021 3882054
-5541.9795 471.61865 6935.5928 4079175
-5351.2939 458.7941 6746.9956 4145223
-5290.937 457.0343 6721.1162 4342343
-5275.2847 459.13864 6752.063 4343110
-5198.0273 455.87244 6704.0298 4803401
-5214.6899 460.85614 6777.3198 5066825
-5013.877 446.54828 6566.9097 5592656
-5069.8662 455.06702 6692.1855 5855571
-5150.9819 465.99313 6852.8647 5986900
-5221.2007 476.09927 7001.4849 5592655
-5215.0552 479.34824 7049.2637 5131851
-5239.2368 485.45975 7139.1387 4737864
-5264.1045 491.7348 7231.4194 4474693
-5246.2798 494.09216 7266.0864 4277574
-5199.8853 493.77557 7261.4307 4080196
-5180.4321 496.03329 7294.6333 3751232
-5127.814 495.12674 7281.3013 3488062
-5103.8633 496.9964 7308.7964 3356221
-5101.4019 501.00845 7367.7974 2895927
-5017.8784 497.05997 7309.7314 2500915
-4960.8311 495.68829 7289.5591 2303793
-4919.459 495.87247 7292.2676 2435124
-5010.4956 509.52475 7493.0371 2435124
-5037.29 516.8299 7600.4668 2501175
-5030.0103 520.73926 7657.9575 2566967
-5065.7891 529.2182 7782.6479 2566967
-4952.5142 522.13831 7678.5308 2632760
-4976.3032 529.51154 7786.9619 2370360
-4713.2109 506.21106 7444.3066 2435896
-4733.2734 513.16925 7546.6333 2436153
-4818.8828 527.43433 7756.4141 2435896
-4787.7095 529.06903 7780.4541 2501690
-4765.665 531.75409 7819.9409 2435897
-4690.3379 528.48822 7771.9131 2435898
-4627.3525 526.56201 7743.5859 2304311
-4503.9028 517.64783 7612.4951 2304312
-4521.4839 524.92645 7719.5337 2238521
-4599.1079 539.39581 7932.3193 2304314
-4565.6851 541.00555 7955.9927 2238520
-4423.02 529.5694 7787.813 2238521
-4410.7935 533.67413 7848.1772 2369336
-4453.9375 544.63727 8009.3999 2369336
-4375.4683 540.80518 7953.0454 2435130
-4277.6001 534.46594 7859.8208 2500922
-4236.3926 535.14441 7869.7983 2435129
-4233.4712 540.72821 7951.9136 2435129
-4247.5415 548.63251 8068.1528 2370106
-4149.0591 542.01337 7970.813 2370106
-4098.3105 541.54932 7963.9883 2304314
-4093.2329 547.17969 8046.7881 2238777
-4058.5127 548.93353 8072.5801 2304570
-3945.165 539.96753 7940.7271 2304570
-3971.6626 550.15656 8090.5659 2304570
-3901.9585 547.1059 8045.7026 2238521
-3866.6523 548.86237 8071.5337 2304313
-3822.0684 549.32941 8078.4023 2304314
-3764.0942 547.8595 8056.7852 2304313
-3706.0503 546.34137 8034.4604 2304314
-3637.9775 543.28607 7989.5288 2370363
-3635.9673 550.146 8090.4102 2370106
-3598.9956 551.82849 8115.1538 2370106
-3546.2771 551.10956 8104.5806 2435899
-3500.5542 551.47296 8109.9248 2501692
-3434.4177 548.58569 8067.4653 2501692
-3399.7463 550.71393 8098.7627 2567485
-3345.6162 549.70587 8083.9385 2501692
-3275.7981 546.05347 8030.2261 2567485
-3239.9663 548.04224 8059.4727 2567485
-3223.8064 553.46771 8139.2598 2501693
-3199.53 557.64337 8200.667 2501692
-3119.4438 552.07086 8118.7183 2567486
-3095.7329 556.45721 8183.2231 2501692
-3040.1567 555.16418 8164.208 2567485
-2947.2625 546.90454 8042.7417 2567486
-2910.116 548.88806 8071.9121 2567485
-2897.8728 555.7135 8172.2866 2567485
-2857.7881 557.34125 8196.2236 2633278
-2790.7786 553.68341 8142.4316 2633279
-2754.4636 556.09369 8177.877 2633278
-2700.5723 554.97833 8161.4746 2633025
-2645 553.47052 8139.3008 2764611
-2604.3613 555.08966 8163.1118 2698817
-2572.9102 558.76532 8217.166 2698818
-2525.9189 559.14282 8222.7178 2764612
-2473.9163 558.40405 8211.8535 2764869
-2433.1721 560.22784 8238.6738 2896198
-2359.0562 554.28528 8151.2822 2896199
-2377.8284 570.37555 8387.9053 2896711
-2115.4419 518.27075 7621.6553 2633796
-2005.9806 502.17545 7384.959 2435904
-2004.4224 512.97711 7543.8076 2041146
-1883.0126 492.89914 7248.542 1909814
-1919.0643 514.06317 7559.7788 1844020
-1887.7281 517.75623 7614.0884 1581105
-1832.3185 514.86566 7571.5801 2107449
-1787.3561 514.83923 7571.1919 3225671
-1810.7585 535.01074 7867.8325 3620428
-1729.6372 524.54944 7713.9888 4673114
-1690.3579 526.55402 7743.4692 5133406
-1682.5934 538.7616 7922.9922 5462372
-1625.5518 535.4386 7874.125 6318195
-1606.3953 544.76697 8011.3071 6713211
-1580.302 552.23944 8121.1973 6844544
-1549.4299 558.45898 8212.6611 6450044
-1462.6162 544.26501 8003.9253 7371146
-1408.7799 541.80237 7967.71 7700370
-1355.6202 539.43817 7932.9419 8161434
-1286.0579 530.14252 7796.2407 7766419
-1236.1118 528.54175 7772.6997 6911111
-1188.4662 527.83862 7762.3604 7700883
-1123.3246 518.99561 7632.3145 8358813
-1068.8142 514.52826 7566.6191 8162203
-1017.2852 511.16794 7517.2017 8293532
-969.28162 509.35233 7490.5015 8359582
-919.9317 506.62094 7450.3345 8490912
-874.95111 506.14175 7443.2876 8490911
-827.30518 503.98804 7411.6152 8490911
-779.13641 501.25638 7371.4434 8490911
-768.94647 524.08521 7707.1621 8490912
-704.36078 510.38193 7505.6431 8425632
-662.41827 512.3446 7534.5059 8491425
-646.19684 535.92273 7881.2441 8557218
-571.68237 511.06293 7515.6577 8557475
-559.25995 542.20013 7973.5596 8623012
-490.69931 519.63605 7641.7329 8754597
-456.94308 533.08777 7839.5532 8688804
-412.57837 535.80737 7879.5479 8688804
-363.79181 532.74573 7834.5234 8754597
-323.99307 543.87579 7998.2017 8820391
-274.96198 540.66669 7951.0083 8754597
-229.14073 543.74713 7996.3091 8688549
-182.05554 544.65247 8009.6235 8688804
-132.18651 534.93091 7866.6592 8754597
-84.855698 530.48407 7801.2642 8688804
-38.547096 529.43134 7785.7822 8754597
7.5910935 529.29071 7783.7139 8754598
53.077358 522.9682 7690.7358 8754597
99.781929 528.9458 7778.6426 8754597
146.29666 530.45721 7800.8691 8754854
196.38243 541.08191 7957.1147 8689061
237.15582 526.90228 7748.5898 8689061
279.97333 521.12781 7663.6709 8688804
325.78113 521.75439 7672.8857 8623268
378.99875 532.64124 7832.9868 8688804
412.9765 517.06305 7603.8955 8688804
464.98315 524.90228 7719.1787 8623012
514.06439 528.33057 7769.5947 8689061
564.18158 532.17242 7826.0928 8623268
618.11517 538.75708 7922.9263 8754854
658.88794 533.75061 7849.3013 8689319
695.10736 525.95917 7734.7207 8689319
766.05255 543.78174 7996.8184 8623270
790.97656 528.76282 7775.9512 8623526
865.87274 546.96454 8043.624 8689064
919.27051 550.39496 8094.0723 8885929
972.5968 553.44446 8138.918 8820393
1007.8899 546.42914 8035.7505 8952234
1072.375 555.15924 8164.1353 8689062
1123.3231 556.43018 8182.8252 9018026
1166.7747 554.03619 8147.6191 9478577
1215.0045 554.01117 8147.252 9346733
1278.9489 560.87976 8248.2607 9148585
1338.3438 565.32086 8313.5713 7569549
1348.6406 549.44379 8080.084 8161429
1426.4232 561.20691 8253.0713 7634829
1469.7306 559.07593 8221.7334 7569036
1511.0787 556.36029 8181.7979 7766156
1551.1918 553.37292 8137.8657 6186353
1576.972 545.60681 8023.6577 5330785
1673.9248 562.1991 8267.6631 5790819
1679.0719 547.89099 8057.249 3224632
1698.1653 538.79907 7923.5435 2697771
1712.8032 528.8208 7776.8037 1973536
1711.2196 514.48834 7566.0312 2105122
1799.226 527.1358 7752.0239 2630950
1873.5614 535.24786 7871.3203 2631206
1924.3286 536.39636 7888.2095 3748918
1983.7312 539.84027 7938.8555 1775124
2070.1694 550.31152 8092.8452 3419434
2138.9224 555.71381 8172.2905 3024418
2157.6963 548.17926 8061.4878 2958621
2245.3008 558.07928 8207.0771 3353636
2308.5854 561.64282 8259.4824 3550759
2244.0073 534.59729 7861.752 3551016
2276.4397 531.29297 7813.1592 3353637
2355.0247 538.67706 7921.75 3813932
2393.3523 536.74432 7893.3267 3616808
2438.6763 536.42456 7888.624 3419429
2495.0471 538.5011 7919.1616 3616806
2551.667 540.55371 7949.3472 3616293
2612.4451 543.39679 7991.1577 3879721
2665.5205 544.565 8008.3374 4142635
2659.4929 533.82886 7850.4517 3682341
2694.4126 531.53973 7816.7876 3945512
2734.7305 530.37488 7799.6577 3419169
2784.6067 531.07172 7809.9058 3484962
2832.4592 531.36615 7814.2354 3353119
2868.6638 529.5011 7786.8081 3221277
2886.009 524.2691 7709.8672 3155484
2948.4966 527.27295 7754.041 3287326
3013.425 530.61432 7803.1797 3550242
3072.5979 532.85663 7836.1543 3813672
3102.2896 529.99554 7794.0796 3616292
3181.7095 535.58942 7876.3423 3484706
3217.0393 533.70691 7848.6587 3550498
3280.198 536.42914 7888.6909 3484448
3351.3943 540.37079 7946.6567 3484449
3411.3987 542.42358 7976.8457 3221276
3430.4619 537.99957 7911.7856 3418654
3514.3586 543.72552 7995.9917 3681826
3574.3899 545.65588 8024.3799 3352861
3740.3713 563.49738 8286.7549 3418653
3734.8762 555.37769 8167.3472 3616034
3703.678 543.69263 7995.5078 3089691
3809.0862 552.10291 8119.1895 2892312
3887.333 556.41577 8182.6133 2694934
3858.4883 545.48248 8021.8296 3616035
3882.6086 542.2121 7973.7349 3418656
4006.022 552.71997 8128.2627 3286813
4007.8462 546.40143 8035.3438 3352862
4023.5833 542.10596 7972.1743 3352606
4063.2664 541.09894 7957.3657 3616035
4104.2251 540.28302 7945.3667 3484706
4176.4429 543.55383 7993.4673 3483679
4194.228 539.74652 7937.4771 3286300
4282.6841 545.01727 8014.9883 3417886
4328.4028 544.79321 8011.6934 3352093
4410.0898 549.05206 8074.3237 3154714
4464.0786 549.80817 8085.4424 3681571
4446.8838 541.87408 7968.7646 2957848
4512.2388 544.06012 8000.9126 2892312
4519.4829 539.26691 7930.4238 3089690
4579.8887 540.8504 7953.71 3024154
4692.5498 548.50958 8066.3462 3484449
4699.0352 543.72876 7996.0391 2892312
4727.7207 541.58649 7964.5352 2891287
4847.4956 549.81824 8085.5903 3352090
4828.7183 542.32758 7975.4336 3088918
4839.0332 538.2179 7914.9971 3285782
4832.8652 532.37146 7829.0195 3022867
5031.7588 549.01025 8073.709 3154196
5040.2974 544.7619 8011.2319 3417625
5098.5068 545.91107 8028.1323 3417623
5075.6226 538.4364 7918.21 3220244
5103.3091 536.41425 7888.4727 3417879
5234.7974 545.24048 8018.27 3812637
5177.7183 534.44391 7859.4971 3615259
5296.4238 541.82263 7968.0083 3286293
5319.6685 539.39166 7932.2578 3417623
5362.8813 539.01019 7926.6484 3351831
5371.5308 535.19165 7870.4927 3351831
5439.6465 537.31274 7901.6855 3286294
5581.0122 546.57129 8037.8413 2891023
5635.9268 547.27826 8048.2378 3088402
5626.5674 541.78442 7967.4458 3088145
5702.6992 544.54547 8008.0498 3154195
5702.8887 540.06921 7942.2217 3285781
5753.312 540.3844 7946.8569 3022867
5871.1797 546.97778 8043.8198 3154196
5865.6831 542.06458 7971.5659 3220245
6021.7314 552.03943 8118.2554 3548954
5983.271 544.16595 8002.4688 3351575
5981.8711 539.7605 7937.6816 3022867
6011.2314 538.17755 7914.4038 3220245
6195.3193 550.3645 8093.624 3220248
6126.9312 540.10767 7942.7876 2825490
6146.3438 537.68811 7907.2061 2825490
6194.0752 537.76379 7908.3188 2825746
6390.1089 550.61713 8097.3389 2957332
6263.7681 535.70776 7878.083 2759953
6265.2275 531.86829 7821.6196 3023125
6326.1948 533.09985 7839.7314 3089175
6299.6831 526.99548 7749.9604 2957589
6321.5962 525.0011 7720.6313 3089175
6362.9277 524.63641 7715.2686 2826003
6393.0625 523.36035 7696.5029 2957588
6443.2754 523.73444 7702.0039 3089175
6505.3037 525.05682 7721.4512 3089175
6568.3501 526.44238 7741.8271 2826001
6597.6108 525.11969 7722.375 3023124
6652.7119 525.85767 7733.2285 3286038
6692.6387 525.39429 7726.4141 3220246
6791.2056 529.50946 7786.9312 3286039
6856.9028 531.0235 7809.1968 3088659
7011.5264 539.35785 7931.7612 3088660
7048.4619 538.58844 7920.4458 2298887
7072.5288 536.85229 7894.9146 2891281
7054.1211 531.9361 7822.6177 3153939
7209.2104 540.08173 7942.4067 3219730
7150.4238 532.203 7826.542 3285266
7169.2231 530.16327 7796.5464 3022350
7171.4233 526.93005 7748.9985 3153937
7181.542 524.3161 7710.5581 2956558
7227.6987 524.34961 7711.0508 2890765
7210.585 519.82147 7644.4609 2890252
7468.8882 535.08112 7868.8677 3088144
7507.1328 534.48395 7860.0854 2956558
0 0 0 0
0 0 0 0
0 0 0 0
0 0 0 0
-5560.9907 450.93668 6099.8408 4014153
-5573.3188 454.8934 6153.3638 4342859
-5572.8667 457.8522 6193.3872 4606029
-5583.6602 461.78024 6246.5225 4934993
-5565.1978 463.32513 6267.4199 4869197
-5811.0171 487.04108 6588.2266 5197904
-5520.5723 465.82773 6301.2725 5658711
-5584.4995 474.43115 6417.6514 5790297
-5491.9731 469.76987 6354.5981 5922137
-5496.0635 473.3656 6403.2378 6119260
-5290.2222 458.80466 6206.2715 6053724
-5383.9546 470.20279 6360.4546 5790553
-5296.7192 465.84558 6301.5142 5395539
-5150.0742 456.16434 6170.5557 5066318
-5118.5366 456.6131 6176.626 4605766
-5085.3086 456.91644 6180.7295 4407874
-5068.8008 458.73737 6205.3613 4408130
-5009.9297 456.72293 6178.1118 4210238
-4961.5098 455.63867 6163.4448 4012860
-4932.5493 456.33856 6172.9126 3947324
-4881.1694 454.95929 6154.2549 3749690
-4889.1587 459.13458 6210.7339 3617849
-4843.2959 458.27765 6199.1421 3354935
-4795.9136 457.26266 6185.4131 3157301
-4831.8857 464.24069 6279.8047 3091766
-4881.5776 472.65546 6393.6318 2894133
-4891.1206 477.28406 6456.2432 2763062
-4894.541 481.38348 6511.6958 2828856
-4933.0269 489.02414 6615.0518 2631991
-4999.3125 499.56525 6757.6416 2631736
-4913.9565 495.00113 6695.9023 2566201
-4936.3232 501.30231 6781.1392 2500920
-4956.5449 507.48737 6864.8047 2566458
-4919.8076 507.89462 6870.3135 2566458
-4970.916 517.453 6999.6104 2566457
-4896.0552 513.94916 6952.2129 2434870
-4910.7334 519.86456 7032.2314 2500663
-4870.1611 519.9823 7033.8237 2435127
-4882.5347 525.80377 7112.5713 2369334
-4862.5688 528.21368 7145.1699 2369588
-4854.4395 531.96295 7195.8872 2369588
-4799.9233 530.65051 7178.1333 2435381
-4758.3887 530.76251 7179.6484 2435382
-4707.2588 529.79663 7166.5835 2435381
-4669.2305 530.30121 7173.4087 2501174
-4670.877 535.36249 7241.8726 2500920
-4643.8877 537.20496 7266.7959 2304311
-4618.2759 539.24274 7294.3613 2304312
-4654.062 548.55585 7420.3398 2304311
-4615.958 549.25439 7429.7891 2304311
-4609.4536 553.76263 7490.7725 2370104
-4407.9224 534.70093 7232.9238 2435897
-4600.0854 563.49066 7622.3638 2370105
-4640.0947 574.02856 7764.9102 2370104
-4627.1426 578.15985 7820.7949 2304312
-4558.0747 575.2923 7782.0049 2304313
-4403.8442 561.50751 7595.5376 2304313
-4391.3169 565.69226 7652.145 2370106
-4362.5088 567.84521 7681.2681 2370106
-4264.417 560.93018 7587.7285 2434873
-4217.0605 560.61243 7583.4297 2500922
-4232.375 568.70911 7692.9536 2566715
-4124.5703 560.25824 7578.6382 2435129
-4087.4915 561.33405 7593.1904 2435129
-4083.5024 567.02856 7670.2207 2566458
-4051.9175 568.97626 7696.5679 2435899
-4020.8601 571.04321 7724.5278 2370106
-3959.2439 568.76782 7693.7485 2370106
-3926.9153 570.69586 7719.8286 2435899
-3858.8875 567.41992 7675.5151 2370106
-3779.4988 562.37549 7607.2788 2304314
-3737.6042 562.85553 7613.7725 2370106
-3709.9121 565.51227 7649.71 2370106
-3665.8076 565.70197 7652.2759 2370106
-3643.2441 569.26221 7700.4355 2435899
-3569.0686 564.74609 7639.3457 2370106
-3558.4458 570.29919 7714.4634 2370106
-3474.2273 564.04852 7629.9102 2435899
-3410.2087 560.95569 7588.0732 2501692
-3374.8167 562.552 7609.6665 2435899
-3357.2942 567.21063 7672.6841 2567485
-3301.9512 565.51971 7649.8105 2567485
-3275.8599 568.86133 7695.0127 2633278
-3250.6421 572.45111 7743.5718 2567485
-3215.4219 574.35699 7769.353 2633278
-3017.072 546.7558 7395.9907 2567485
-3022.9868 555.9035 7519.7324 2567485
-2962.1067 552.85815 7478.5371 2567485
-2913.7856 552.09991 7468.2808 2633279
-2872.7336 552.71686 7476.6265 2633278
-2813.9119 549.88068 7438.2607 2633278
-2762.3855 548.40259 7418.2661 2501436
-2705.5789 545.81134 7383.2148 2501179
-2645.3147 542.42603 7337.4214 2369592
-2639.3196 550.24146 7443.1411 2303544
-2584.575 547.98663 7412.6396 2171700
-2501.0483 539.4458 7297.1084 1908785
-2452.0203 538.17639 7279.9365 2106418
-2408.3113 538.04987 7278.2251 2566970
-2360.8418 537.06317 7264.8774 3159361
-2388.3701 553.41797 7486.1094 3553862
-2285.002 539.48712 7297.667 4080462
-2207.9146 531.34344 7187.5068 4738137
-2082.9124 511.12164 6913.9653 5593447
-1964.6854 491.78418 6652.3867 6382965
-2104.6646 537.61035 7272.2798 6844285
-2030.7032 529.56171 7163.4048 7239302
-1982.5483 528.04266 7142.8574 7568525
-1977.1875 538.10413 7278.9585 7963027
-1829.3522 508.97415 6884.9165 8226455
-1902.5956 541.42828 7323.9248 8160919
-1534.447 446.85693 6044.6538 8226968
-1564.1278 466.38846 6308.8574 8293532
-1596.423 487.67511 6596.8032 8227483
-1687.5759 528.46167 7148.5254 8490655
-1688.8976 542.49402 7338.3413 8556191
-1643.755 541.94867 7330.9644 8359071
-1655.316 560.57654 7582.9438 8293790
-1513.8225 526.96533 7128.2842 8293535
-1525.0031 546.09637 7387.0703 8425120
-1469.8907 541.91736 7330.541 8490913
-1433.9449 544.76532 7369.0654 8490913
-1401.3103 549.08972 7427.5615 8490657
-1361.6892 550.86816 7451.6191 8556705
-1328.9683 555.65094 7516.3154 8622242
-1288.767 557.52924 7541.7236 8556450
-1247.0834 558.8783 7559.9722 8556448
-1222.0101 568.04919 7684.0273 8490655
-1181.691 570.56873 7718.1089 8359326
-1160.1067 582.70123 7882.2266 8621985
-1112.8927 582.43848 7878.6714 7701395
-1038.1982 567.14062 7671.7373 6977416
-1000.1788 571.39392 7729.271 7832725
-958.85248 574.07556 7765.5459 8424862
-913.48328 574.48492 7771.084 8490655
-878.16046 581.59149 7867.2144 8490911
-823.42224 575.91541 7790.4341 8490911
-769.86572 570.44061 7716.376 8490912
-721.49133 568.35663 7688.1855 8425633
-670.58777 563.86505 7627.4277 8491425
-645.91638 582.37579 7877.8237 8491682
-581.88721 565.52008 7649.8154 8491425
-540.33661 569.50824 7703.7637 8688291
-485.50568 558.94336 7560.8521 8622498
-441.03586 559.37128 7566.6406 8622498
-395.74744 558.7403 7558.105 8425632
-348.88815 555.44739 7513.562 8491425
-307.79871 561.72083 7598.4224 8557218
-261.77847 559.60364 7569.7842 8688804
-217.43024 560.92432 7587.6489 8688805
-172.21654 560.11884 7576.7524 8754598
-126.39761 556.08234 7522.1509 8754597
-81.118347 551.31537 7457.6685 8820390
-36.721336 548.31 7417.0142 8689061
7.3435969 556.6579 7529.937 8689061
51.463764 551.26086 7456.9312 8688804
95.906319 552.70856 7476.5137 8754597
139.66927 550.56232 7447.4814 8689318
184.16718 551.64825 7462.1709 8755111
228.04672 550.82013 7450.9688 8689061
272.27661 550.9696 7452.9902 8820390
321.00647 558.91235 7560.4321 8820647
357.49619 546.20801 7388.5806 8886440
400.97769 545.79315 7382.9688 8886440
452.85852 555.76794 7517.8984 8886441
497.2153 555.54907 7514.9375 8820647
543.40656 557.24744 7537.9111 8820647
594.50922 563.34161 7620.3477 8886440
642.50482 565.83905 7654.1304 8755111
680.9826 560.17767 7577.5488 8820390
723.41858 558.27142 7551.7627 8030102
745.97046 542.13641 7333.5039 8095894
805.27032 553.0144 7480.6509 8950947
876.69824 570.65149 7719.228 8885409
920.25775 569.29895 7700.9326 7700106
955.28809 563.04718 7616.3643 3685443
995.09943 560.05029 7575.8257 2500137
1045.787 563.16913 7618.0146 2434085
1113.7863 574.96655 7777.5991 2697257
1159.5338 574.79602 7775.292 2368291
1213.4767 578.54572 7826.0142 2039069
1249.9087 573.97809 7764.2275 2367264
1324.8563 586.7937 7937.5854 3814196
1358.5979 581.10583 7860.6445 4340025
1387.1554 573.65112 7759.8042 4077364
1431.2865 572.90851 7749.7593 3353899
1485.8214 576.24701 7794.9194 2761763
1519.4701 571.52814 7731.0869 2564127
1543.4573 563.5578 7623.2725 3551535
1563.9314 554.79456 7504.7314 2893859
1602.7253 552.83514 7478.2256 2893345
1628.3373 546.55652 7393.2949 3156002
1663.6703 543.7843 7355.7954 3222307
1711.5516 545.15057 7374.2769 3419943
1798.5187 558.58807 7556.0459 4736061
1827.8751 553.91455 7492.8271 3749422
1930.7397 571.21008 7726.7852 3683630
1974.5411 570.63525 7719.0088 3485738
1972.8627 557.24048 7537.8174 3485737
2052.1177 566.79266 7667.0298 3419430
2052.2646 554.55469 7501.4863 3222051
2075.9688 549.06622 7427.2441 3617325
2162.5139 560.0813 7576.2446 3683119
2203.9761 559.20935 7564.4507 3287847
2308.8418 574.13879 7766.4014 3485223
2283.501 556.73907 7531.0347 3813417
2351.7705 562.39197 7607.502 3418657
2403.4077 563.92963 7628.3022 3089949
2440.7922 562.12811 7603.9326 3419170
2504.813 566.41522 7661.9243 3221790
2552.582 566.94 7669.0229 3879720
2572.6519 561.40192 7594.1094 3484962
2608.375 559.41144 7567.1836 3484962
2642.998 557.25623 7538.0303 3221790
2720.2092 564.00287 7629.2925 3155997
2757.5276 562.39276 7607.5127 2761239
2735.2896 548.88348 7424.772 3221534
2808.3059 554.61383 7502.2861 3879721
2845.3274 553.16766 7482.7236 3550499
2899.5891 555.0661 7508.4048 3550244
2902.5518 547.23553 7402.4795 3747623
2978.376 553.17059 7482.7642 3419169
3099.7744 567.27179 7673.5112 3682340
3109.5005 560.82422 7586.2944 2958361
3150.0386 560.03839 7575.665 2826775
3243.1147 568.48407 7689.9092 3155226
3366.6157 581.95496 7872.1304 3813412
3322.3108 566.44696 7662.3535 4142376
3287.0061 552.87097 7478.7109 3616033
3461.4885 574.47284 7770.9204 3747619
3539.8621 579.76654 7842.5278 3353118
3597.9363 581.64142 7867.8901 3484704
3590.5911 573.02795 7751.3755 3747619
3629.7122 571.95404 7736.8481 3813413
3738.0398 581.67615 7868.3599 3681825
3702.7122 569.0799 7697.9697 3681826
3742.1421 568.1402 7685.2578 3879205
3800.0662 569.99707 7710.376 3945256
3856.2366 571.54987 7731.3813 3418654
3863.1436 565.85046 7654.2852 2629139
3942.5566 570.7804 7720.9722 3484192
3947.9348 565.00171 7642.8037 3221534
4004.1367 566.54523 7663.6831 4404781
3992.8413 558.61108 7556.3574 3418141
4050.1719 560.34735 7579.8442 3286299
4116.8257 563.32135 7620.0732 3286298
4167.813 564.11035 7630.7461 3352091
4262.4102 570.7215 7720.1758 3681827
4230.1919 560.39252 7580.4551 3550241
4302.834 564.02594 7629.6045 3418911
4318.8223 560.23474 7578.3208 3286813
4355.5396 559.18286 7564.0918 3352606
4451.1172 565.63214 7651.3315 3352606
4441.3506 558.69952 7557.5542 3023384
4490.3501 559.22406 7564.6494 3220761
4694.6069 578.88275 7830.5728 3615519
4627.9897 565.08258 7643.8975 3615260
4625.27 559.27612 7565.3535 3417625
4714.5229 564.59564 7637.311 3680797
4789.9043 568.16858 7685.6421 3154453
4799.7236 563.97058 7628.8555 3220246
4833.3574 562.62305 7610.6274 3417109
4904.251 565.59747 7650.8628 3417109
4935.5151 563.98895 7629.104 3614231
4993.8066 565.47003 7649.1382 3614745
4983.2803 559.20197 7564.3506 3483672
5089.688 566.0506 7656.9922 3549465
5092.8018 561.39185 7593.9727 3417879
5153.5259 563.10956 7617.2085 3286293
5177.2104 560.7854 7585.77 3352085
5230.5337 561.68408 7597.9258 3615258
5341.4014 568.69409 7692.7505 3483416
5435.5952 573.82526 7762.1597 3549211
5384.9517 563.70837 7625.3081 3351832
5409.854 561.60236 7596.8203 3154454
5461.394 562.27356 7605.8999 3286039
5558.7593 567.6131 7678.1279 3351832
5667.6392 574.0321 7764.9585 3219989
5624.5972 565.08466 7643.9258 3285525
5838.0605 581.84454 7870.6377 3088403
5778.7437 571.36786 7728.9194 3154453
5712.9668 560.42224 7580.8569 2825488
5759.2705 560.55634 7582.6709 2957074
5782.9355 558.50195 7554.8818 3351832
5978.0645 572.91162 7749.8013 3351831
6110.6118 581.1496 7861.2373 3615005
6006.5879 566.93408 7668.9434 3154454
5931.3887 555.63232 7516.0635 3483163
5955.4956 553.7323 7490.3618 3220248
5997.9751 553.55603 7487.9771 3220247
6012.0254 550.77789 7450.3975 3220504
6037.147 549.04706 7426.9849 3023125
6071.1235 548.14081 7414.7261 3088918
6098.8765 546.68976 7395.0972 3154455
6246.8423 555.95813 7520.4707 3286041
6199.144 547.80475 7410.1797 3286041
6271.1494 550.26959 7443.522 3286039
6328.5127 551.42432 7459.1416 3351832
6356.3306 550.00635 7439.9609 3417625
6392.8145 549.35272 7431.1187 3286039
6411.4551 547.18512 7401.7979 3351832
6483.1714 549.54602 7433.7334 3286035
6535.3452 550.22961 7442.981 3022864
6631.1118 554.54968 7501.4185 3154193
6775.2632 562.83167 7613.4492 3219473
6843.5288 564.74176 7639.2871 3219730
6866.7368 562.93292 7614.8193 3219730
6885.2598 560.76617 7585.5093 3153424
6839.4463 553.42169 7486.1602 3087630
6826.0903 548.78125 7423.3887 3219217
6856.0991 547.66425 7408.2788 3021838
6882.0781 546.24158 7389.0347 2956044
6938.7437 547.2572 7402.7725 3087631
6982.5068 547.24872 7402.6582 3087631
7141.7817 556.23706 7524.2441 3088144
7238.5562 560.27618 7578.8813 2890765
0 0 0 0
0 0 0 0
0 0 0 0
0 0 0 0
-5325.4199 466.45206 5841.4438 3487811
-5470.3457 482.2811 6039.6733 3290688
-5455.9688 484.18158 6063.4731 3159360
-5428.5308 484.94055 6072.9775 3093312
-5409.3906 486.45581 6091.9531 3027775
-5361.1816 485.35974 6078.2271 3093568
-5342.7129 486.95947 6098.2612 3028032
-5257.4746 482.45395 6041.8374 2961983
-5225.1089 482.77173 6045.8174 2961726
-5190.7998 482.91315 6047.5879 2830399
-5156.1602 483.02551 6048.9951 2830654
-5090.4692 480.21017 6013.7388 2633022
-5089.3662 483.49118 6054.8267 2501180
-5317.4443 508.74548 6371.0903 2501181
-5265.5532 507.38345 6354.0332 2632253
-5250.1519 509.54327 6381.0811 2566717
-4970.4351 485.89572 6084.9395 2566717
-4899.2139 482.43338 6041.5801 2763583
-4873.5957 483.44376 6054.2334 2631998
-4827.6694 482.4397 6041.6587 2631998
-4819.5693 485.22888 6076.5889 2500668
-5275.2139 535.10089 6701.1426 2500668
-5259.0913 537.5119 6731.3359 2434875
-5220.0518 537.59961 6732.4346 2500411
-5072.0483 526.38037 6591.9346 2434618
-5107.4282 534.16632 6689.439 2500411
-5157.3887 543.6109 6807.7144 2500411
-5086.6567 540.38257 6767.2861 2500412
-5306.3179 568.19824 7115.625 2500411
-5363.8706 578.96191 7250.4199 2566204
-5246.0308 570.81512 7148.397 2500153
-5246.8179 575.5484 7207.6724 2435129
-5190.0317 573.99207 7188.1826 2435129
-5217.6006 581.81653 7286.1689 2435129
-5212.6558 586.11566 7340.0078 2435126
-5172.4556 586.48969 7344.6914 2435127
-5098.1079 582.96527 7300.5547 2435128
-5143.2236 593.15796 7428.1992 2435382
-5055.0376 588.02057 7363.8628 2369588
-5006.9629 587.50012 7357.3457 2435381
-4966.5132 587.87329 7362.0181 2435381
-4920.1143 587.54248 7357.8755 2501175
-4864.3999 586.08337 7339.603 2501175
-4871.7573 592.26569 7417.0249 2501175
-4574.8452 561.23334 7028.4028 2566711
-4829.1353 597.87256 7487.2407 2500663
-4421.0435 552.42432 6918.0864 2304311
-4300.168 542.34998 6791.9243 2304311
-4725.0239 601.56488 7533.48 2304311
-4661.9517 599.19641 7503.8198 2370104
-4439.0249 576.03851 7213.8101 2304311
-4622.8833 605.73083 7585.6514 2501690
-4551.3813 602.2182 7541.6616 2435897
-4469.6221 597.26514 7479.6338 2370104
-4434.0679 598.44904 7494.46 2304311
-4211.0361 574.09772 7189.5054 2304313
-4328.3535 596.12329 7465.3345 2304313
-4228.207 588.34424 7367.9165 2370106
-4175.3745 587.05505 7351.772 2370106
-4089.6335 581.06311 7276.7339 2500665
-3979.5151 571.44287 7156.2583 2304313
-4057.4026 588.9032 7374.916 2501692
-3984.5388 584.62494 7321.3389 2370362
-3946.8433 585.4693 7331.9131 2435899
-3895.0293 584.21484 7316.2036 2370106
-3866.9478 586.53192 7345.2202 2370107
-3824.7532 586.73663 7347.7842 2370106
-3785.353 587.3797 7355.8379 2435899
-3736.4929 586.5528 7345.4819 2435900
-3701.9399 587.97876 7363.3389 2435899
-3639.979 585.03357 7326.4565 2501692
-3576.4541 581.76294 7285.4976 2370363
-3554.1755 585.20367 7328.5869 2501691
-3519.7058 586.69739 7347.2925 2501692
-3367.6511 568.38281 7117.937 2501691
-3313.6218 566.35803 7092.5796 2501437
-3237.8081 560.50989 7019.3433 2566973
-3192.0632 559.78271 7010.2368 2567229
-3156.3059 560.81091 7023.1133 2369850
-3096.7756 557.58618 6982.729 2303800
-3028.3198 552.64526 6920.853 2435130
-3049.124 564.0816 7064.0718 2435385
-3054.5107 572.9444 7175.062 2566714
-2973.9495 565.70831 7084.4434 2501177
-2935.3545 566.36224 7092.6323 2369591
-2893.6702 566.43036 7093.4858 2632763
-2862.7307 568.63477 7121.0923 2830398
-2830.5901 570.66302 7146.4922 3422278
-2780.0383 568.98474 7125.4746 4212565
-2750.3713 571.59503 7158.1636 5133668
-2695.3521 568.93579 7124.8613 5857393
-2664.322 571.33606 7154.9204 6449273
-2622.458 571.45319 7156.3877 6975875
-2577.9707 570.99316 7150.6265 7305353
-2541.7427 572.37769 7167.9648 7634831
-2481.9265 568.40717 7118.2412 7897748
-2425.719 565.14001 7077.3267 8029847
-2378.467 563.88104 7061.5605 8227226
-2310.3806 557.54919 6982.2656 8293789
-2233.6187 548.85455 6873.3818 8359583
-2158.2485 540.1853 6764.8154 8491168
-2086.0374 531.99347 6662.228 8425375
-2015.8014 523.99908 6562.1133 8425630
-1981.8805 525.3158 6578.6025 8491166
-1939.5729 524.41779 6567.3564 8622752
-1895.0332 522.86713 6547.937 8622752
-1795.3971 505.73187 6333.3501 8688032
-1753.3522 504.43381 6317.0942 8622753
-1724.8151 507.04996 6349.8569 8753825
-1752.6995 526.7392 6596.4277 8688289
-1798.4872 552.82996 6923.166 8622240
-1761.0487 553.95917 6937.3071 8688033
-1717.5188 553.18036 6927.5542 8688033
-1675.8918 552.99139 6925.1875 8688033
-1632.8434 552.31207 6916.6807 8622497
-1590.9214 551.98859 6912.6294 8688547
-1555.298 553.89117 6936.4561 8622753
-1512.5251 553.2818 6928.8242 8556961
-1466.8444 551.54492 6907.0737 8622240
-1437.3043 555.95166 6962.2598 8556960
-1398.0386 556.74585 6972.2051 8557217
-1360.1869 558.16852 6990.022 8557474
-1321.2566 559.22412 7003.2417 8491682
-1288.7521 563.15613 7052.4824 8491426
-1252.7279 565.76221 7085.1182 8557218
-1214.2354 567.39557 7105.5732 8623011
-1175.2305 568.89825 7124.3916 8623011
-1155.6504 580.26636 7266.7559 8688804
-1128.4214 588.52527 7370.1831 8557218
-1065.4895 578.07874 7239.3599 8491425
-1029.7703 582.13922 7290.2095 8491425
-972.35687 573.75427 7185.2046 8491682
-933.61462 576.12323 7214.8706 8359839
-890.78809 576.07812 7214.3062 8556705
-844.30975 573.54779 7182.6187 8293019
-809.35815 578.99481 7250.832 6845830
-749.2843 566.07306 7089.0112 7174795
-745.63831 596.77881 7473.5439 8227483
-707.31787 601.85822 7537.1538 8425632
-663.78925 602.89191 7550.0991 8425632
-616.94971 600.85059 7524.5352 8359839
-563.88605 591.95721 7413.1621 8425632
-519.0329 590.90851 7400.0288 8425633
-476.99707 593.16962 7428.3457 8359839
-427.49799 585.66614 7334.3779 8425632
-382.48892 583.31146 7304.8906 8425632
-338.3829 581.90875 7287.3242 8557218
-294.1748 579.89435 7262.0977 8491425
-250.71248 578.91174 7249.7915 8557218
-209.50539 583.80701 7311.0957 8557219
-165.03986 579.80756 7261.0103 8557218
-122.57041 582.47284 7294.3877 8688804
-78.377289 575.38824 7205.667 8754597
-35.763271 576.81244 7223.5024 8689318
7.0255365 575.23969 7203.8062 8820647
49.684517 574.86578 7199.124 8820904
92.123894 573.4704 7181.6489 8952233
136.48961 581.15894 7277.9341 8952233
177.77954 575.20355 7203.354 8886697
221.87485 578.87372 7249.3154 8755111
262.85178 574.53693 7195.0054 8689062
304.40768 572.49969 7169.4932 8556962
356.01468 587.54932 7357.9614 8622497
388.95074 571.86334 7161.5234 7898256
434.45102 575.91913 7212.3149 5528420
476.96353 575.64252 7208.8511 6382957
516.38788 571.99066 7163.1182 3553087
541.0105 553.74353 6934.6069 2171431
575.51697 547.47516 6856.1069 2499882
625.29364 555.60168 6957.877 3552311
674.52777 562.27057 7041.3916 920331
747.94739 587.14825 7352.9385 2893607
801.01044 594.18634 7441.0781 2498848
845.90802 594.74896 7448.1235 3157292
855.1936 571.45898 7156.4604 3881273
878.26489 559.14661 7002.2705 4210495
950.17609 577.63617 7233.8184 4341566
987.64221 574.49341 7194.4604 3222572
1026.6221 572.45471 7168.9297 3815221
1091.8313 584.62262 7321.3105 2301983
1136.5421 585.30408 7329.8438 4012343
1168.5243 579.62152 7258.6807 2564896
1192.3109 570.42163 7143.4692 1643794
1253.1256 578.96008 7250.3975 2170137
1295.947 578.8949 7249.5806 3485483
1379.3093 596.36218 7468.3267 3485996
1428.0503 598.23987 7491.8408 4209205
1477.6711 600.36182 7518.4136 3682861
1514.6768 597.38403 7481.1226 4012083
1529.4745 586.06598 7339.3853 3551017
1554.2529 579.09259 7252.0566 2893087
1602.126 580.86761 7274.2852 2893086
1635.9821 577.60071 7233.374 3024671
1653.1709 568.76648 7122.7412 3222050
1705.8229 572.26923 7166.6069 3287843
1740.8851 569.84418 7136.2373 2564120
1777.4869 568.02612 7113.4702 2366741
1866.1057 582.53015 7295.1055 2893085
1890.4241 576.75958 7222.8398 2958878
1939.2429 578.55402 7245.312 3156256
1963.4152 573.07697 7176.7222 3024157
2016.9259 576.21381 7216.0054 2300433
2088.4915 584.27136 7316.9111 2892571
2095.6228 574.3418 7192.562 3155485
2197.3357 590.2132 7391.3218 3155741
2201.7268 579.83405 7261.3418 3813927
2253.2312 582.02234 7288.7466 3221790
2282.1619 578.40723 7243.4741 2892825
2325.7271 578.56616 7245.4639 3418912
2400.5713 586.3595 7343.061 3221790
2431.9902 583.45715 7306.7144 3287583
2484.415 585.60767 7333.6465 3418914
2522.8242 584.43744 7318.9912 3747879
2594.3232 590.84283 7399.2061 3221535
2548.0933 570.6687 7146.5635 3484707
2581.4805 568.69379 7121.8311 3287328
2625.1301 569.00684 7125.7515 3550500
2676.9844 571.06012 7151.4653 3682597
2762.7734 580.17572 7265.6206 3287327
2745.7627 567.75513 7110.0757 3418656
2763.3755 562.76099 7047.5337 3155484
2842.7778 570.31171 7142.0918 3418656
2910.7603 575.38336 7205.6055 3813414
2965.8276 577.79236 7235.7739 3352862
3058.155 587.28809 7354.6904 3615777
3114.9646 589.79199 7386.0464 3484447
3129.7573 584.38116 7318.2861 3418654
3189.7676 587.44574 7356.6646 3681826
3232.1431 587.22382 7353.8848 3747619
3273.8433 586.88672 7349.6631 3681826
3352.9062 593.1684 7428.3296 3287068
