# .PCD v0.7 - Point Cloud Data file format
VERSION 0.7
FIELDS x y z rgb
SIZE 4 4 4 4
TYPE F F F U
COUNT 1 1 1 1
WIDTH 1299
HEIGHT 1
VIEWPOINT 0 0 0 1 0 0 0
POINTS 1299
DATA ascii
94.333778 859.22839 1736.9128 2367006
103.66132 851.29718 1720.8801 2301467
113.87686 851.42621 1721.1407 1051399
123.01526 844.14233 1706.4166 919815
132.30223 838.90723 1695.834 460035
143.1702 843.72839 1705.5798 262144
153.31882 843.95404 1706.0361 262146
163.39406 843.77283 1705.6697 196610
173.41113 843.3299 1704.7743 196610
183.63203 843.87231 1705.8708 262145
194.00928 845.03918 1708.2296 196608
202.58617 838.63733 1695.2885 3156779
211.75996 835.19482 1688.3295 197121
219.75906 827.63885 1673.0552 2893861
229.7769 828.00995 1673.8053 459008
241.8495 835.44818 1688.8417 1116162
250.90225 832.27802 1682.4332 2431506
262.3671 837.04565 1692.0709 5063221
274.54199 843.64417 1705.4097 5063476
284.53543 843.30878 1704.7317 4339751
294.67657 843.41907 1704.9546 5458231
307.83524 851.87244 1722.0428 4997167
317.9881 851.7323 1721.7596 2826509
330.33896 857.30518 1733.025 4799013
342.8382 862.91534 1744.366 5983287
350.62469 856.68243 1731.7664 4272671
357.55554 848.77301 1715.7775 5193775
381.30444 880.12006 1779.1449 4931374
383.43512 861.22406 1740.947 6247493
393.75433 861.22833 1740.9557 2826516
405.3653 863.98578 1746.5298 4668204
412.0441 856.35522 1731.1047 4733998
418.37439 848.38873 1715.0007 3352088
429.9097 851.10461 1720.4907 5061932
440.51669 851.89935 1722.0973 5654581
446.38599 843.70361 1705.5298 3286290
455.71292 842.26129 1702.6141 4930604
464.09769 839.17773 1696.3809 5326390
474.96988 840.62744 1699.3113 4931893
487.83444 845.46985 1709.1002 5327680
504.62909 856.78802 1731.9797 5920333
517.2702 860.74347 1739.9756 6906717
529.77039 864.31433 1747.194 4143671
538.88049 862.32349 1743.1694 2564383
550.19165 863.86334 1746.2823 2104088
563.57605 868.54156 1755.7393 1775120
574.27368 868.98456 1756.6346 2762526
582.03046 865.04089 1748.6627 2958619
589.44379 860.73364 1739.9558 4143405
599.33698 860.13354 1738.7427 5064252
609.9447 860.56183 1739.6084 4603700
620.69159 861.16907 1740.8358 3024412
631.37012 861.66296 1741.8344 3287327
641.56506 861.4917 1741.488 3484706
651.297 860.71405 1739.916 3155484
660.59204 859.39215 1737.2439 262400
672.04999 860.88153 1740.2546 7826783
679.18091 856.86682 1732.139 5458489
686.65466 853.39777 1725.1263 3549721
699.2691 856.32568 1731.045 3549464
714.52881 862.36163 1743.2466 2956301
722.8775 860.00348 1738.4796 3220243
731.66797 858.22974 1734.894 6774607
744.71149 861.4248 1741.3528 7430738
760.51874 867.68579 1754.0092 5457458
775.02771 872.31653 1763.3702 8615523
777.93866 863.94385 1746.4451 9602677
786.26221 861.72308 1741.9558 6840146
796.56879 861.7052 1741.9196 5260860
805.96167 860.71179 1739.9116 4471859
819.35956 863.96667 1746.4912 5196352
818.45905 852.25159 1722.8093 6775124
836.26538 860.06427 1738.6027 4077354
851.36237 864.93451 1748.4476 3221531
863.35309 866.56958 1751.7529 4931892
868.34015 861.2196 1740.938 4471598
878.3515 860.9198 1740.332 3089688
879.24048 851.78955 1721.8752 3813671
890.41046 852.71442 1723.745 3945000
907.80139 859.50836 1737.4788 3813158
921.21167 862.42328 1743.3712 5457983
945.81232 875.63354 1770.0756 3813415
950.15088 870.00116 1758.6898 4076844
965.758 874.69714 1768.1825 1051140
982.69781 880.48621 1779.885 4538165
992.79028 880.0824 1779.0687 5262148
994.97076 872.74701 1764.2405 788227
1016.3393 882.22009 1783.3901 1445386
1025.5162 881.02448 1780.9731 1182474
1034.7498 879.90118 1778.7025 1578258
1053.35 886.68518 1792.4163 4735291
1077.8433 898.24506 1815.7842 4012341
1088.2802 897.97778 1815.244 3354925
1082.9277 884.815 1788.6357 3025445
1097.715 888.20325 1795.485 4736319
1107.5792 887.5813 1794.2275 7433574
1115.8024 885.6684 1790.3607 1183757
1120.8191 881.27051 1781.4706 984324
1129.1145 879.50867 1777.9089 1445126
1134.9393 875.87262 1770.5588 2432280
1146.8331 876.94397 1772.7245 3419431
1156.4557 876.27496 1771.3721 4012340
1171.3831 879.60132 1778.0963 4078648
1176.1389 875.29871 1769.3987 5131853
1179.298 869.89423 1758.4735 7829368
1198.3073 876.17371 1771.1674 7633018
1196.8927 867.54028 1753.7152 7633277
1203.5046 864.82343 1748.223 7567483
1229.7336 876.12903 1771.0771 6646382
1278.8478 903.40997 1826.2251 7502461
1318.9717 923.93555 1867.717 7699840
1332.9819 925.97906 1871.8479 7963268
1353.3188 932.34753 1884.7217 7962758
1369.0851 935.48859 1891.0713 7896965
1381.7004 936.44318 1893.001 7897222
1396.7362 939.00958 1898.189 7897478
1403.3064 935.88916 1891.881 7963271
1417.0488 937.56372 1895.266 8029066
1429.6899 938.48883 1897.1361 8094859
1441.8372 939.07782 1898.3268 7963530
1451.8477 938.27679 1896.7076 8094859
1466.1567 940.24481 1900.6859 8094859
1477.78 940.47357 1901.1483 7963016
1488.6957 940.25189 1900.7002 8029323
1498.0079 939.0285 1898.2272 8095115
1505.4705 936.67242 1893.4644 7765894
1520.4532 938.99554 1898.1605 7700102
1531.6724 938.97729 1898.1235 7765381
1533.8739 933.47144 1886.9937 7568515
1543.8715 932.75543 1885.5463 7568516
1553.4167 931.77844 1883.5713 7502724
1564.9839 932.01935 1884.0583 7634310
1576.1993 932.04907 1884.1184 7831689
1586.7551 931.69092 1883.3944 7765896
1598.4733 932.01556 1884.0505 7897738
1610.0109 932.23114 1884.4865 7963275
1618.5385 930.71289 1881.4174 8028555
1630.8922 931.40051 1882.8073 8028556
1644.2664 932.65759 1885.3485 8291213
1658.3136 934.27686 1888.6218 8159626
1676.0629 937.94629 1896.0394 7040374
1697.2041 943.45221 1907.1697 7631996
1712.4369 945.62268 1911.5571 5394779
1717.9094 942.41034 1905.0635 3223862
1727.4595 941.4621 1903.1467 2039590
1749.9456 947.53076 1915.4142 4934482
1748.0316 940.39447 1900.9884 4408139
1758.9027 940.18347 1900.5619 7369082
1784.0139 947.53864 1915.4302 4869459
1787.6898 943.48779 1907.2415 7106935
1806.7281 947.5448 1915.4426 5461853
1847.1639 962.70306 1946.0847 3158072
1821.4374 943.4046 1907.0734 5132374
0 0 0 0
0 0 0 0
0 0 0 0
0 0 0 0
0 0 0 0
0 0 0 0
0 0 0 0
0 0 0 0
0 0 0 0
0 0 0 0
0 0 0 0
0 0 0 0
0 0 0 0
-1403.0061 818.29492 1634.5848 855309
-1371.5753 805.52478 1609.0758 2500133
-1370.2202 810.36292 1618.7401 921100
-1362.1276 811.25647 1620.525 1315858
-1344.8369 806.64575 1611.3149 789515
-1344.9591 812.48798 1622.9852 1184272
-1342.174 816.64563 1631.2902 2171168
-1329.3109 814.68707 1627.3779 855307
-1321.8214 816.01727 1630.035 1250066
-1315.6836 818.20764 1634.4104 1842203
-1303.5084 816.64801 1631.295 592137
-1287.5831 812.69818 1623.405 394758
-1297.704 825.25244 1648.4828 592137
-1278.2766 819.06396 1636.121 1184274
-1261.0927 814.22937 1626.4636 1776411
-1243.0095 808.73523 1615.4888 1381909
-1234.0662 809.1485 1616.3143 789259
-1220.3845 806.43726 1610.8984 723465
-1207.4531 804.1828 1606.3951 1447186
-1189.3275 798.40576 1594.8551 2368287
-1180.3352 798.71643 1595.4757 2565666
-1166.3558 795.63025 1589.3109 2697251
-1153.1274 793.01019 1584.0773 4276026
-1154.7345 800.63324 1599.3048 2236443
-1148.7407 803.06891 1604.1702 3026216
-1138.807 802.76788 1603.5688 2434079
-1126.3192 800.64624 1599.3307 2302494
-1120.0662 802.95807 1603.9487 1249805
-1111.4054 803.56885 1605.1687 2105114
-1102.615 804.0954 1606.2205 2039321
-1092.7717 803.85675 1605.7439 2565151
-1083.4189 803.97784 1605.9857 1973014
-1076.9384 806.2514 1610.5272 1973012
-1061.2948 801.64435 1601.3245 3025700
-1054.1704 803.4472 1604.9258 3223079
-1039.2598 799.29437 1596.6302 2367770
-1039.8206 807.07367 1612.1698 4013106
-1037.6437 812.85284 1623.7139 4736573
-1025.9302 811.1994 1620.4111 3683884
-1018.0181 812.54895 1623.1068 2959903
-1015.346 818.14655 1634.2883 5131072
-1000.0748 813.60205 1625.2106 4209974
-1000.6207 821.96228 1641.9104 3288871
-984.19049 816.40448 1630.8085 4143924
-975.49249 817.21417 1632.4259 4275768
-966.09583 817.44897 1632.8949 4275767
-961.14307 821.48657 1640.9603 6381145
-946.87268 817.56165 1633.1201 3025957
-940.45532 820.40637 1638.8024 3683632
-929.79932 819.57416 1637.1401 3091494
-919.55585 819.09192 1636.1768 3223338
-910.03052 819.24585 1636.4843 1446668
-900.30701 819.22266 1636.438 1512205
-893.08691 821.50189 1640.9908 3025701
-889.98816 827.664 1653.2999 2696737
-872.96362 820.86847 1639.7257 2039063
-870.13794 827.42194 1652.8164 5855315
-861.90356 828.92267 1655.8143 7305069
-846.12408 823.11816 1644.2195 1776406
-841.45007 828.10785 1654.1865 1645073
-831.49597 827.95746 1653.8861 921094
-824.30402 830.58667 1659.1382 1117963
-809.23535 825.2467 1648.4713 1578771
-806.84668 832.86536 1663.6899 2762788
-786.07471 821.46143 1640.91 3485997
-779.47168 824.76416 1647.5073 1643792
-765.95471 820.74219 1639.4734 2564895
-757.25134 821.84106 1641.6683 4801854
-757.42688 832.7301 1663.4198 1249292
-750.37927 835.86041 1669.6727 3025960
-742.58521 838.23181 1674.4098 1183757
-728.07959 832.98883 1663.9365 6184021
-719.14648 834.06476 1666.0858 5525576
-711.34308 836.49915 1670.9486 4538935
-701.06842 836.05524 1670.0619 6184018
-693.0694 838.35132 1674.6483 5789257
-683.64929 838.97003 1675.8844 7762791
-669.6629 833.92072 1665.7981 8618103
-659.25079 833.23798 1664.4342 7499107
-644.58093 827.07111 1652.1157 5854794
-637.74969 830.92725 1659.8184 4933947
-627.59253 830.50275 1658.9706 4408377
-621.13318 835.03601 1668.026 5987922
-611.08252 834.80994 1667.5742 7763562
-604.90759 839.95795 1677.8577 4869442
-596.61548 842.28918 1682.5144 5132096
-585.93829 841.27502 1680.4888 2828573
-573.76691 838.04358 1674.0337 6184015
-564.72314 839.34692 1676.6372 5130816
-554.08221 838.28064 1674.5072 4802109
-529.42877 815.58905 1629.1797 5328453
-533.16693 836.60437 1671.1588 5722698
-526.81122 842.27673 1682.4897 4999230
-515.51807 840.12183 1678.1852 4208944
-504.90823 839.01752 1675.9792 2827805
-496.21411 841.11615 1680.1714 5130045
-485.61115 839.9989 1677.9396 4143664
-476.05637 840.68591 1679.312 4143923
-465.33997 839.30719 1676.5579 854791
-453.37994 835.57623 1669.1051 4999493
-443.09402 834.83307 1667.6206 2631712
-432.99261 834.41156 1666.7786 4145205
-423.85068 835.86255 1669.677 5131075
-413.66187 835.26892 1668.4912 2959906
-400.30292 828.0885 1654.1478 2105114
-393.43231 834.30646 1666.5686 7960944
-384.93896 837.31494 1672.5782 5197637
-376.26004 840.06812 1678.0779 5789777
-364.41879 835.71869 1669.3895 3618094
-353.51523 833.33685 1664.6318 2696481
-343.69592 833.44751 1664.8529 1709843
-330.69086 825.61121 1649.1995 1578256
-322.69064 830.17328 1658.3124 6973026
-315.38583 836.86725 1671.6838 4341049
-304.09579 833.0777 1664.1141 1577742
-295.354 836.24908 1670.4491 2630432
-286.90024 840.48425 1678.9091 2301724
-276.79831 840.02185 1677.9854 986634
-267.18253 841.05524 1680.0497 2038297
-259.84973 849.63348 1697.1852 2236187
-246.55206 838.61389 1675.1729 2367517
-236.19647 837.09644 1672.1416 1381392
-226.01112 836.07581 1670.103 2235931
-217.37802 840.96698 1679.8733 1512207
-206.64615 837.81842 1673.5839 1776666
-198.28532 844.4502 1686.8312 592135
-186.11336 834.69354 1667.3418 1315088
-176.37077 835.34918 1668.6516 1380624
-166.88126 837.35266 1672.6534 1118222
-156.15858 833.03076 1664.0203 2565668
-146.71872 835.43066 1668.8143 1052685
-137.26607 838.0993 1674.1451 2565668
-127.59358 839.7373 1677.4169 1710358
-118.11611 843.04364 1684.0216 2170910
-108.65485 847.08679 1692.098 1513236
-98.443253 845.50775 1688.9437 3618354
-87.888657 840.29169 1678.5244 6381662
-77.899551 839.84088 1677.624 3223855
-68.188377 842.69299 1683.3212 2170911
-58.380093 845.11682 1688.1628 6513248
-49.276436 860.85297 1719.5966 2959913
-38.78812 854.29797 1706.5027 4473407
-28.451107 847.62695 1693.177 6052439
-18.584711 855.34674 1708.5977 3749685
-8.4491148 854.32715 1706.561 1578519
1.6645766 854.45404 1706.8145 3091758
11.772231 853.92511 1705.7578 723210
21.876297 853.74481 1705.3977 3288880
32.115757 857.29279 1712.4849 2236449
42.438278 860.82153 1719.5338 4209982
52.971382 866.42828 1730.7335 4013116
62.781612 860.3103 1718.5126 1644570
73.140877 862.37347 1722.6339 2236451
83.014618 858.90784 1715.7112 4933706
93.220772 859.26257 1716.4198 3552563
103.17957 857.49176 1712.8824 1776150
112.96378 854.71729 1707.3402 920329
122.19897 848.58643 1695.0935 1578003
130.87898 839.8244 1677.5911 196608
142.33594 848.86072 1695.6415 196610
152.64088 850.28796 1698.4924 196612
162.75252 850.52838 1698.9727 459016
172.75833 850.22003 1698.3567 196613
182.99915 851.03839 1699.9915 196612
193.05754 850.96735 1699.8496 196610
201.48146 844.05621 1686.0442 131072
210.86842 841.64185 1681.2214 1117709
219.09534 835.02417 1668.0023 2762277
229.89343 838.35419 1674.6542 459777
239.12317 835.9259 1669.8036 1972502
249.9407 839.02075 1675.9856 985605
256.87772 829.3504 1656.6686 4866360
265.90112 826.88007 1651.7341 2168072
281.1665 843.30688 1684.5474 3022866
290.27304 840.76825 1679.4764 2101509
302.56583 847.32092 1692.5657 2627857
314.75156 853.16284 1704.2352 1313028
323.98239 850.88104 1699.6771 2694936
334.73831 852.6214 1703.1537 1577489
347.73651 859.80408 1717.5015 1775382
358.17648 860.43274 1718.7572 3023898
367.69186 858.86694 1715.6294 7169362
376.20316 855.10321 1708.1111 4735029
387.8353 858.44427 1714.7852 2431761
401.66605 866.35712 1730.5913 3615780
407.3786 856.80151 1711.5037 2365970
415.37231 852.3916 1702.6946 4668723
424.94073 851.34552 1700.6051 4142633
434.3829 850.10095 1698.1189 3681310
446.65903 854.33319 1706.573 2760208
454.80084 850.64539 1699.2064 2891539
461.90585 845.22015 1688.3693 3417628
472.71686 846.6626 1691.2506 4076585
484.02472 848.91663 1695.7531 3550756
494.60986 849.83704 1697.5918 6643027
504.22083 849.08051 1696.0804 4077873
525.56244 867.72113 1733.316 3222053
535.08606 866.50916 1730.895 3289645
542.95978 862.72137 1723.3287 2038804
559.05945 871.90234 1741.6682 2630683
568.82355 871.04883 1739.9633 1511431
577.52386 868.62573 1735.123 2761500
582.33691 860.54291 1718.9772 3090465
597.59076 867.90161 1733.6766 3288615
609.85468 870.74268 1739.3518 4933954
617.84985 867.49554 1732.8656 5525833
628.12067 867.49768 1732.8698 3420199
635.13629 863.07629 1724.0377 4077873
649.479 868.59375 1735.0593 4998463
657.59961 865.74792 1729.3744 3616293
664.41229 861.2937 1720.4771 2958363
671.35413 857.13916 1712.178 2365198
678.98254 853.97174 1705.8511 3943713
693.49573 859.42957 1716.7532 3944222
702.34998 857.81781 1713.5337 3615257
711.94269 857.14111 1712.1819 3286293
725.60962 861.31964 1720.5288 7036494
730.98712 855.67896 1709.2612 3812380
741.2572 855.84131 1709.5856 4075552
755.3183 860.31738 1718.5266 6180671
767.35651 862.40082 1722.6885 5719863
772.43842 856.71429 1711.3295 5588790
783.92291 858.18427 1714.2657 5194032
792.51465 856.49042 1710.8821 6774350
798.62439 852.19073 1702.2935 3616295
807.34778 850.75275 1699.4208 3615523
828.20654 861.98022 1721.8484 3879207
846.49115 870.2879 1738.4435 3089947
853.7821 867.22919 1732.3334 3813158
865.48792 868.67395 1735.2195 2234385
869.02753 861.98505 1721.8579 2037004
871.29547 854.20465 1706.3162 3484194
885.23395 857.9129 1713.7236 1709072
887.28717 850.14948 1698.2157 1248011
906.59985 858.91162 1715.7188 2234645
927.60199 869.06232 1735.9952 525570
946.6806 877.20789 1752.2664 4734782
962.68933 882.36304 1762.5641 1117706
968.08057 877.78033 1753.4099 1906451
984.76819 883.42902 1764.6934 4537655
993.3241 881.7406 1761.3207 2761247
998.82275 877.40167 1752.6536 1315086
1011.2238 879.1532 1756.1521 1051401
1022.576 879.96619 1757.7761 1775122
1043.3032 888.74908 1775.3204 2038293
1058.0295 892.29565 1782.405 4472375
1065.8282 889.98749 1777.7943 6116172
1061.5607 877.74762 1753.3446 4801084
1087.7212 890.66052 1779.1387 3419431
1100.1837 892.21667 1782.2471 2169879
1104.3169 887.05261 1771.9318 1380623
1112.1697 884.94568 1767.7229 2498330
1121.8578 884.32471 1766.4825 525057
1132.4672 884.43457 1766.702 1839888
1131.4873 875.57458 1749.0038 2169366
1146.306 878.98962 1755.8256 2169367
1159.0817 880.79083 1759.4235 3419945
1164.525 877.03778 1751.9265 3947318
1165.0642 869.69012 1737.2493 5987160
1180.6526 873.60669 1745.0728 6777705
1187.4075 870.97577 1739.8173 6975087
1203.5983 875.25177 1748.359 6975088
1232.4463 888.58069 1774.984 7238519
1268.2103 906.62811 1811.0347 7501690
1295.5634 918.4101 1834.5698 7765890
1311.3304 921.85126 1841.4437 7963012
1334.8425 930.63531 1858.9904 8094345
1352.056 934.92023 1867.5497 8226700
1359.6224 932.51898 1862.7531 8226443
1369.1094 931.46295 1860.6436 8029064
1382.9264 933.34625 1864.4056 8094857
1397.3655 935.61621 1868.9398 8094859
1412.3011 938.18042 1874.0619 7963530
1427.2648 940.72284 1879.1406 8029066
1424.7375 931.78693 1861.2906 8160652
1435.7679 931.78693 1861.2906 8226445
1464.9147 943.45447 1884.5972 8160652
1471.4921 940.51996 1878.7354 8160652
1480.8348 939.38385 1876.4659 8029066
1493.2697 940.21149 1878.1191 8029066
1496.6941 935.39563 1868.4993 7897480
1515.9512 940.47284 1878.6411 7963273
1515.3615 933.25305 1864.2194 7831687
1525.2247 932.52893 1862.7728 7831687
1534.9329 931.72089 1861.1588 7765894
1546.8291 932.24323 1862.2021 7765896
1558.8051 932.80566 1863.3258 7897482
1570.0605 932.93237 1863.5787 7831946
1581.39 933.10089 1863.9154 7963275
1594.5979 934.36761 1866.4458 8029068
1605.6465 934.36047 1866.4315 8094861
1617.5023 934.81995 1867.3492 8357520
1632.7928 937.24469 1872.1929 8094861
1665.4485 949.53717 1896.7477 8226191
1646.3771 932.37103 1862.4574 8357775
1667.8959 938.26733 1874.2357 9015191
1672.2031 934.46735 1866.645 5001561
1707.718 948.04242 1893.7618 5856614
1725.7548 951.80042 1901.2687 7041145
1743.5692 955.388 1908.4349 1513505
1749.3019 952.35162 1902.3698 3421244
1746.9651 944.98914 1887.6628 4079174
1770.3096 951.52393 1900.7163 5263190
1773.2423 947.07422 1891.8279 8356230
1769.5995 939.19055 1876.0798 3882305
1802.0203 950.42615 1898.5236 6119780
1816.4082 952.07031 1901.8079 7040111
0 0 0 0
0 0 0 0
0 0 0 0
0 0 0 0
0 0 0 0
0 0 0 0
0 0 0 0
0 0 0 0
0 0 0 0
0 0 0 0
0 0 0 0
0 0 0 0
0 0 0 0
-1374.6248 811.23267 1601.5189 1184272
-1353.4828 804.30902 1587.8503 1710616
-1338.7032 801.09576 1581.5068 855307
-1350.4583 813.82776 1606.6421 1184785
-1341.9899 814.4668 1607.9037 1184529
-1335.293 816.19769 1611.3209 3158575
-1337.0083 823.13269 1625.0117 1250321
-1323.9456 821.00415 1620.8096 1381651
-1314.2522 820.94904 1620.7009 1184016
-1306.6007 822.17798 1623.1271 1118479
-1300.3112 824.28864 1627.2938 1250067
-1286.3719 821.54529 1621.8779 460551
-1278.5809 822.71674 1624.1906 592137
-1265.2954 820.34375 1619.5059 986895
-1253.9836 819.22382 1617.2949 855309
-1238.9099 815.61011 1610.1608 855309
-1228.839 815.25922 1609.4681 1579030
-1217.0646 813.76392 1606.5161 1776409
-1207.5671 813.77954 1606.547 2170908
-1187.4922 806.6106 1592.394 2631459
-1169.5879 800.81293 1580.9485 2039321
-1163.1967 802.86829 1585.0061 2170907
-1145.798 797.29761 1574.0087 2631201
-1139.347 799.31598 1577.9933 2696994
-1133.7379 801.96326 1583.2194 2170907
-1126.7977 803.70514 1586.6583 2039064
-1121.882 806.93262 1593.0299 1644564
-1105.3818 801.81195 1582.9207 1315598
-1104.8297 808.27069 1595.6715 1381391
-1087.5983 802.53351 1584.3452 1775635
-1085.5286 807.98151 1595.1006 1709585
-1068.944 802.62659 1584.5291 2499358
-1061.9741 804.46002 1588.1486 1249547
-1049.6257 802.21564 1583.7177 1841424
-1037.5377 800.13147 1579.6031 2038545
-1031.6792 802.85718 1584.9841 8881785
-1028.7666 807.94647 1595.0315 5262914
-1016.8045 805.95734 1591.1044 4670779
-1014.8753 811.95776 1602.9504 4803135
-1011.3004 816.74249 1612.3964 5592138
-1002.3002 817.19519 1613.2899 7697514
-988.32623 813.56232 1606.1182 6907742
-980.08038 814.61987 1608.2058 3750194
-970.80066 814.83032 1608.6215 3946547
-960.69666 814.34644 1607.666 3552046
-954.79822 817.45331 1613.7997 4341562
-955.74365 826.54181 1631.7419 2104344
-946.09247 826.55823 1631.7744 2499358
-934.58984 824.94092 1628.5814 2038808
-927.76727 827.46393 1633.5623 3025702
-915.53339 825.16278 1629.0194 1775379
-903.27972 822.79468 1624.3445 1972760
-891.26544 820.59589 1620.0037 656644
-883.09497 821.927 1622.6313 262400
-875.34167 823.67975 1626.0918 1380622
-859.66541 817.93329 1614.7471 1117964
-850.34546 818.17316 1615.2208 4933956
-852.06763 829.16388 1636.9185 1382161
-846.19733 832.93439 1644.3619 3158316
-834.76129 831.25018 1641.0372 1644821
-827.31586 833.54706 1645.5717 1118735
-815.76086 831.70886 1641.9426 3948088
-805.91925 831.59418 1641.7163 2237216
-797.51294 832.97583 1644.4438 2434592
-788.1875 833.41974 1645.3203 3486767
-779.56744 834.63019 1647.7098 1579282
-765.92487 830.42572 1639.4094 6185044
-753.90546 827.89569 1634.4147 5132357
-746.11804 830.00763 1638.5841 6316375
-737.91296 831.70447 1641.934 3487276
-734.87921 839.35321 1657.0339 4408123
-720.7179 834.32751 1647.1123 4605498
-705.91901 828.41553 1635.441 5987415
-703.63617 837.23145 1652.8451 7039843
-699.05304 843.52045 1665.2609 5658188
-683.06323 836.02869 1650.4707 6644313
-677.63922 841.43884 1661.1514 6775902
-668.22192 841.97693 1662.2136 6249814
-655.02789 837.70105 1653.7723 5920589
-636.15283 825.91968 1630.5138 7039071
-625.24231 824.27478 1627.2664 5592393
-617.32043 826.58008 1631.8174 6579030
-603.70001 821.20703 1621.2101 8157543
-597.36371 825.72894 1630.1372 5788737
-590.56573 829.75085 1638.0771 7235671
-581.86469 831.18872 1640.9158 6643536
-579.25684 841.52747 1661.3263 5261885
-562.30505 831.0249 1640.5924 4406577
-555.02393 834.69647 1647.8407 4209459
-550.15131 842.18658 1662.6276 6314575
-538.99213 840.15082 1658.6085 6578262
-530.86206 842.84857 1663.9343 3617579
-522.5224 845.30939 1668.7926 4078390
-503.27487 829.87866 1638.3295 5130310
-495.34897 832.87683 1644.2485 4867137
-494.66125 848.40991 1674.9135 2630947
-485.03592 848.93597 1675.952 1709844
-473.49319 846.05798 1670.2703 3485742
-461.32672 841.9187 1662.0986 1973274
-450.91833 840.87726 1660.0427 2171165
-442.68372 843.93359 1666.0764 3750196
-426.21173 831.06726 1640.6759 4473662
-416.28366 830.65802 1639.868 4605501
-404.20395 825.83325 1630.3431 1447183
-395.60287 828.05347 1634.7262 3552300
-387.72375 831.93414 1642.3873 2433822
-377.22028 830.23865 1639.0402 3354406
-367.1474 829.42633 1637.4365 5197639
-362.01791 840.04071 1658.3912 6447703
-346.86368 827.33661 1633.3109 6645082
-337.70389 828.61145 1635.8278 1447440
-329.11636 831.40717 1641.347 3025697
-319.38049 831.38409 1641.3015 4012338
-312.61148 839.32513 1656.9785 7630697
-304.33997 843.61633 1665.4502 3222823
-293.96008 842.15509 1662.5653 1380877
-285.05661 844.96881 1668.1202 2828067
-275.52121 846.04437 1670.2434 2499358
-264.44284 842.2854 1662.8226 3946804
-255.19063 844.27722 1666.7548 2235929
-246.245 847.48444 1673.0864 1643794
-234.69615 841.62573 1661.5203 525570
-224.6902 841.02893 1660.3422 722949
-213.57587 836.03876 1650.4906 1314572
-204.32671 838.22131 1654.7993 657672
-195.47188 842.32306 1662.897 394500
-185.64182 842.43463 1663.1173 591879
-175.59511 841.52069 1661.313 1052173
-166.10355 843.31665 1664.8584 4078907
-155.59229 839.83533 1657.9858 723464
-145.89127 840.55304 1659.4026 723207
-135.63693 837.95612 1654.2758 3157548
-125.90862 838.4574 1655.2654 1249808
-117.42392 848.02466 1674.153 5066059
-107.84013 850.68774 1679.4103 4342336
-97.539268 847.66071 1673.4344 4210493
-87.443382 845.9314 1670.0205 2170909
-77.280144 843.02594 1664.2845 7039848
-67.724159 846.86383 1671.8613 1250065
-57.946609 848.77191 1675.6281 3684149
-48.00705 848.6051 1675.2988 2828840
-38.459003 857.07654 1692.0229 4276284
-28.464342 858.06012 1693.9647 2302494
-18.269108 850.77484 1679.5823 7894900
-8.3696976 856.31543 1690.5203 2170911
1.6479179 855.91656 1689.733 3157551
11.610697 852.1778 1682.3521 920848
21.730856 858.10815 1694.0597 1644059
31.855145 860.4021 1698.5883 2433573
42.184349 865.80023 1709.245 3025965
52.202091 863.95306 1705.5985 6842216
62.491264 866.46869 1710.5648 4736839
72.818176 868.73242 1715.0337 7829110
82.605789 864.79553 1707.2617 5855319
92.419838 861.96454 1701.6727 2697253
101.47824 853.33618 1684.6389 1183756
110.97704 849.62518 1677.3126 2564896
120.71873 848.23096 1674.5602 2762018
130.48759 847.22498 1672.5742 1709847
141.18036 851.93622 1681.875 393733
152.48833 859.49371 1696.7949 131075
162.29965 858.20215 1694.2452 131076
172.26212 857.81378 1693.4784 131076
182.3602 858.10632 1694.0559 65540
192.50247 858.56543 1694.9623 65538
200.46567 849.74231 1677.5438 657417
210.66962 850.80225 1679.6364 3617588
218.08636 841.01807 1660.3207 920588
228.02802 841.39545 1661.0656 2827814
238.48103 843.55017 1665.3195 262400
247.95596 842.21149 1662.6768 2300435
254.30696 830.77002 1640.0891 7695709
266.55014 838.71082 1655.7657 3747100
280.24109 850.48145 1679.0031 3023378
289.57916 848.68762 1675.4618 5590595
299.50613 848.6814 1675.4496 3089949
309.81128 849.71289 1677.4858 2892060
318.01013 845.08289 1668.3455 1840404
328.9498 847.79608 1673.7017 4076593
344.48453 861.84644 1701.4396 2235159
356.02243 865.38263 1708.4207 1905679
365.88629 864.76666 1707.2047 4142640
375.19821 862.91449 1703.5482 4668983
387.97156 868.91168 1715.3877 1774092
396.46255 865.25665 1708.172 2628887
404.62234 861.07867 1699.924 3286815
412.6282 856.78424 1691.4458 3484191
422.06143 855.58685 1689.082 2826003
434.25 859.90106 1697.5991 1642249
440.60278 852.72577 1683.4337 4405035
446.177 844.39453 1666.9865 2365710
456.7215 845.62689 1669.4193 2694933
467.76486 847.711 1673.5337 3550242
478.26416 848.7431 1675.5713 3287584
489.90945 851.72552 1681.4592 4407093
501.43732 854.38904 1686.7174 4933697
521.56238 871.31067 1720.1238 4408124
528.89667 866.62524 1710.8738 4145210
543.60559 873.97235 1725.3784 6973534
549.46759 867.0874 1711.7863 5460299
559.49536 866.90674 1711.4296 1117964
576.40179 877.20068 1731.7517 4143668
581.5954 869.62115 1716.7883 2893341
590.43237 867.65631 1712.9094 4800825
600.17542 867.06683 1711.7456 3814184
607.12402 862.52698 1702.7832 2893081
622.19214 869.48224 1716.514 4209197
629.26044 865.21405 1708.088 5064506
644.27301 871.83142 1721.1517 5327677
649.52075 865.23456 1708.1283 1380105
659.26514 864.73828 1707.1487 3944486
662.08813 855.31573 1688.5468 3221536
677.87256 862.6684 1703.0624 2498839
691.30444 866.85565 1711.3286 4866352
698.72363 863.49103 1704.6864 6576969
705.40472 859.3233 1696.4585 5852477
714.18573 857.7948 1693.441 5391926
728.21338 862.52301 1702.7754 3417882
738.61389 862.8847 1703.4893 3088406
750.57819 865.03882 1707.7418 3878692
758.87524 862.96527 1703.6484 4076069
768.52313 862.46216 1702.6552 2761235
783.16943 867.50879 1712.6182 6643021
791.75085 865.79431 1709.2334 5260342
799.13025 862.82513 1703.3717 4142125
807.17712 860.64185 1699.0615 3023644
827.27069 871.19873 1719.9027 3221540
841.59729 875.49939 1728.3929 4536885
851.5083 875.15833 1727.7197 2760475
855.66748 868.98407 1715.5306 3682091
865.94006 869.09039 1715.7405 1839631
867.21094 860.26477 1698.317 1708046
869.17841 852.32465 1682.6418 787202
878.86652 852.04974 1682.0991 3024420
888.56567 851.7915 1681.5894 590850
915.00159 867.40521 1712.4137 1511435
933.45331 875.19055 1727.7833 4669496
952.18365 883.06531 1743.3295 4670264
956.11035 877.18927 1731.7291 2301719
973.93408 884.05255 1745.2786 4012083
985.56128 885.20618 1747.5559 3025188
994.5462 883.98712 1745.1493 5591370
1017.0619 894.69617 1766.2908 6841952
1020.6452 888.7019 1754.4572 2499358
1032.1198 889.63043 1756.2903 3486253
1047.8093 894.13733 1765.1876 5065029
1054.705 891.12494 1759.2407 2235159
1059.1051 886.08398 1749.2888 5262150
1069.188 885.84875 1748.8245 4077875
1079.2061 885.56494 1748.2643 4801599
1094.2556 889.3761 1755.7881 4407097
1102.9728 888.01703 1753.105 5985872
1119.3998 892.8327 1762.6121 5591886
1126.3064 890.03601 1757.0909 2893603
1130.9224 885.49719 1748.1304 1709585
1141.3524 885.55176 1748.238 2367772
1146.8354 881.80145 1740.8344 1775636
1152.1244 877.97015 1733.2708 3486253
1163.3403 878.68335 1734.6787 5854800
1171.7125 877.25494 1731.8588 5921878
1177.8518 874.19403 1725.816 7435633
1184.9222 871.87109 1721.23 6778475
1194.6139 871.49994 1720.4974 6843759
1207.5731 873.49866 1724.4432 6777967
1264.1793 906.771 1790.1288 7435896
1300.1431 924.8064 1825.7339 8028548
1318.9468 930.4386 1836.8529 8028295
1334.2944 933.56055 1843.0161 7897479
1347.9155 935.43359 1846.7139 8094857
1359.8165 936.09241 1848.0145 8094857
1375.519 939.33673 1854.4193 8226443
1384.281 937.82751 1851.4398 8029065
1396.1633 938.43927 1852.6477 8029066
1407.1697 938.45746 1852.6835 7897480
1412.5618 934.76001 1845.3842 7963273
1419.0219 931.8208 1839.5815 8226445
1431.3823 932.7713 1841.4581 8160909
1446.4961 935.48822 1846.8217 8160395
1455.3148 934.1236 1844.1277 8160909
1464.2156 932.8316 1841.5771 7963273
1476.9382 933.97565 1843.8356 7700101
1486.111 932.87439 1841.6616 7765894
1496.9775 932.84485 1841.6031 7700101
1506.9421 932.25769 1840.4441 7765894
1517.0662 931.77692 1839.4949 7700101
1528.9583 932.3811 1840.6877 7700103
1541.2472 933.2171 1842.3381 7765896
1551.4174 932.76746 1841.4503 7897738
1562.4166 932.81903 1841.5522 7897227
1576.451 934.66949 1845.2053 8094861
1589.3967 935.85321 1847.5424 8292240
1601.4318 936.48834 1848.7963 8489619
1616.7377 939.01471 1853.7836 8555413
1633.7957 942.51764 1860.699 8555413
1624.4413 930.83875 1837.6428 8424340
1637.5283 932.08905 1840.1112 8555155
1654.0255 935.25128 1846.3539 8620435
1675.3201 941.06665 1857.8345 8159628
1687.1846 941.54352 1858.7759 2105902
1735.0847 961.99365 1899.1482 3684932
1723.1594 949.22473 1873.9399 7830146
1715.665 939.04431 1853.842 3356222
1718.9956 934.8808 1845.6224 2565678
1731.6776 935.82349 1847.4836 1776673
1746.8423 938.08752 1851.9532 5000276
1776.543 948.08075 1871.6818 4802898
1777.101 942.49402 1860.6525 3092281
0 0 0 0
0 0 0 0
0 0 0 0
0 0 0 0
0 0 0 0
0 0 0 0
0 0 0 0
0 0 0 0
0 0 0 0
0 0 0 0
0 0 0 0
0 0 0 0
0 0 0 0
-1363.7885 814.25372 1588.8939 789516
-1350.1201 811.69733 1583.9054 855307
-1337.6323 809.8197 1580.2417 1776409
-1331.6582 811.88702 1584.2756 1579030
-1331.5363 817.57697 1595.3787 1644823
-1328.2922 821.41748 1602.873 1381395
-1324.955 825.25537 1610.3621 1381651
-1310.2614 822.02429 1604.057 526342
-1302.6161 823.2002 1606.3516 1184528
-1292.9331 823.09613 1606.1484 1644824
-1298.3658 832.68469 1624.8593 1316117
-1284.589 830.00488 1619.6299 1315860
-1277.4895 831.63159 1622.8042 328965
-1258.54 825.51031 1610.8594 921615
-1248.3486 825.0838 1610.0272 1381653
-1233.5768 821.60022 1603.2295 2039582
-1225.2205 822.36859 1604.7288 4473665
-1195.2573 808.53302 1577.7307 3947319
0 0 0 0
-1170.7188 804.52069 1569.9012 2565407
-1157.8929 802.08075 1565.1403 2697505
-1138.5386 795.0426 1551.4064 4079415
-1129.5251 795.16968 1551.6543 3026470
-1123.6061 797.49512 1556.192 3421228
-1121.7782 802.78687 1566.5181 4013621
-1109.2618 800.4541 1561.9659 1381646
-1107.5062 805.91223 1572.6168 1183756
-1094.4808 803.19281 1567.3103 1710357
-1084.3894 802.59833 1566.1503 2763044
-1077.875 804.66394 1570.1808 3289388
-1069.5983 805.43842 1571.6921 1184013
-1055.7058 801.96063 1564.9058 1775635
-1046.782 802.22888 1565.4293 2236184
-1041.9877 805.69507 1572.193 2367512
-1026.9078 801.19904 1563.4197 3222819
-1015.1057 799.20172 1559.5221 4472887
-1002.5599 796.57666 1554.3998 5920846
-1008.8968 809.04523 1578.7303 3355433
-1006.801 814.92175 1590.1975 5065538
-1003.651 820.04791 1600.2003 5788747
-991.34137 817.71643 1595.6509 3749163
-977.94257 814.43298 1589.2438 3814447
-977.99475 822.39661 1604.7836 4275510
-966.32416 820.56207 1601.2039 4933698
-957.7583 821.35388 1602.7489 2236446
-946.71777 820.01801 1600.142 2762530
-941.8443 824.05078 1608.0115 2565410
-929.00867 821.1286 1602.3092 4605507
-924.20844 825.32147 1610.4911 2697253
-918.021 828.35046 1616.4015 1052685
-908.09497 828.03406 1615.7842 2303008
-898.5578 828.0694 1615.8531 1447699
-884.05774 823.4826 1606.9027 2040091
-873.94226 822.92462 1605.8138 2961194
-865.01343 823.48389 1606.9053 1316114
-853.44714 821.51697 1603.067 3025959
-840.6861 818.34271 1596.873 3619116
-834.10858 821.1839 1602.4171 5527112
-829.34851 825.90039 1611.6207 4935231
-820.427 826.5343 1612.8577 8422010
-807.22394 822.81897 1605.6078 4473915
-800.94049 826.15247 1612.1125 4408376
-790.47375 825.19946 1610.2528 6184270
-782.72369 827.09363 1613.9491 5855561
-772.44177 826.32629 1612.4517 6776921
-763.66681 827.17194 1614.1019 5132098
-756.38513 829.67706 1618.9904 4934463
-742.88953 825.34296 1610.533 5065277
-735.72491 828.02124 1615.7593 4144432
-723.06207 824.50061 1608.8892 6250576
-726.50574 839.49738 1638.1531 4276786
-717.15656 839.91766 1638.9733 4407861
-698.74048 829.58478 1618.8101 6974049
-693.42651 834.73633 1628.8625 2828064
-688.72943 840.78644 1640.6685 6380887
-675.3653 836.27759 1631.8702 2499616
-667.58313 838.65027 1636.5001 4802107
-649.36127 827.78467 1615.2975 6315087
-643.82245 833.00372 1625.4817 8618353
-633.66296 832.31213 1624.1321 6512979
-618.85492 825.39911 1610.6425 5525572
-609.0871 825.09729 1610.0536 5854277
-605.00806 832.61475 1624.7227 3945766
-595.40588 832.65149 1624.7944 3616801
-583.78192 829.81561 1619.2606 4537901
-576.66968 833.40521 1626.2653 6775120
-569.50916 837.04602 1633.3698 5985095
-560.01556 837.32422 1633.9126 4932921
-552.16309 840.10925 1639.347 3879978
-542.86761 840.75916 1640.6154 3946285
-534.49127 842.88226 1644.7582 3091491
-521.43842 837.57245 1634.397 5000260
-512.40088 838.63336 1636.4672 5000259
-499.98215 834.0946 1627.6105 7038814
-493.60547 839.65527 1638.4612 4604984
-488.40167 847.47412 1653.7186 3815215
-475.47128 841.93164 1642.9032 3223079
-469.24728 848.28076 1655.2926 3223339
-457.43994 844.59235 1648.0951 3881525
-446.07407 841.57568 1642.2087 3947318
-439.4151 847.50287 1653.7747 3421231
-426.41364 841.18854 1641.4532 1776149
-415.93442 839.67126 1638.4924 5065798
-404.20923 835.50586 1630.3644 3618609
-395.59946 837.73395 1634.712 8290167
-385.16739 836.11792 1631.5587 5329226
-372.8252 830.16541 1619.9432 4013877
-365.34641 835.01379 1629.4042 2170904
-350.98413 823.96594 1607.8458 6775901
-344.78134 831.99109 1623.5057 5525834
-335.41431 832.62201 1624.7369 4407353
-328.70187 840.07489 1639.28 2762015
-319.07571 840.30817 1639.7352 3091237
-309.41345 840.45795 1640.0276 2959394
-300.09854 841.59155 1642.2396 2498845
-290.36212 841.57959 1642.2162 985864
-280.21475 840.33423 1639.7861 2499103
-272.15128 845.47339 1649.8145 2762789
-261.63721 843.09882 1645.1808 2302238
-252.99858 846.81763 1652.4375 3749941
-242.59459 844.68921 1648.2842 855050
-231.87059 841.22113 1641.5168 1052686
-221.97993 840.6051 1640.3147 789514
-211.8893 839.14069 1637.4572 1249552
-202.17844 839.11182 1637.4008 526345
-191.8602 836.43219 1632.1719 526344
-183.33199 841.68616 1642.4242 2236962
-173.96962 843.48486 1645.9342 2829098
-164.13637 843.07867 1645.1415 65792
-154.32045 842.7157 1644.4332 4473666
-144.29878 841.10455 1641.2893 1052173
-134.95277 843.48358 1645.9316 328707
-125.15775 843.20813 1645.394 2499359
-115.11711 841.09149 1641.2639 2104601
-105.24998 839.96906 1639.0736 1972760
-96.229813 846.06488 1650.9688 3814963
-86.576683 847.3457 1653.4679 1578001
-76.702789 846.51697 1651.8508 5921111
-67.005608 847.6814 1654.1229 3552306
-57.02203 845.00067 1648.8921 7697264
-47.014393 840.78113 1640.6582 986637
-37.868938 853.79999 1666.0626 4144957
-28.054451 855.59808 1669.5712 3552050
-18.229088 858.84296 1675.9031 5263181
-8.3435555 863.62781 1685.24 3684149
1.6379071 860.66986 1679.4681 1579030
11.593984 860.9068 1679.9304 4736839
21.62417 863.8855 1685.7429 1250066
31.53113 861.61438 1681.3112 3223599
41.627354 864.36383 1686.6764 2762789
51.528419 862.78101 1683.5875 2630944
60.790493 852.74811 1664.0099 5131077
70.919975 855.98511 1670.3265 4210745
80.847816 856.29364 1670.9286 7105896
90.837669 857.12006 1672.5411 3158316
102.02543 867.97498 1693.7228 3684147
110.78243 858.05798 1674.3713 920585
120.26015 854.89478 1668.1989 3486000
130.13034 854.79034 1667.995 526088
140.72237 859.10736 1676.4191 262661
151.59193 864.43762 1686.8203 65540
161.69148 864.98926 1687.8966 65540
171.68404 864.93732 1687.7954 131333
182.0797 866.81024 1691.4502 4
192.85233 870.18878 1698.0427 1183763
202.51912 868.48981 1694.7275 854797
210.05792 858.25677 1674.7594 2170914
218.90517 854.05212 1666.5546 789262
226.97702 847.3158 1653.4095 328196
236.90665 847.78516 1654.3256 525317
246.22195 846.10632 1651.0494 5261127
255.11824 843.17078 1645.3213 854278
266.68149 848.94135 1656.5817 2957079
277.24161 851.22217 1661.0323 3549471
286.98712 850.93127 1660.4646 3549471
297.40967 852.60052 1663.7219 4274223
306.93439 851.67139 1661.9088 1839372
318.30063 855.75092 1669.8695 1906451
326.45898 851.22015 1661.0283 2299925
337.45624 854.14014 1666.7263 2432283
355.08282 873.19647 1703.9119 4405815
365.66565 874.35638 1706.1752 3090726
373.70557 869.53705 1696.771 6643802
379.01999 858.79468 1675.809 3024675
389.38684 859.75659 1677.6859 6380378
403.33621 868.38385 1694.5208 2893353
410.68851 862.7334 1683.4948 4800830
418.33942 857.96326 1674.1865 2300181
429.89056 861.22797 1680.5571 721665
437.37347 856.37909 1671.0952 1773580
446.30566 854.51984 1667.4672 1773064
455.1279 852.53503 1663.5942 2431762
461.02591 845.27319 1649.4237 2300176
470.66528 845.02985 1648.949 4668724
484.54114 852.24799 1663.0341 2563862
496.62839 856.09521 1670.5413 4603701
508.06812 858.69745 1675.6193 6973021
526.82043 873.32245 1704.1576 5065538
536.54614 872.71478 1702.972 6051917
551.98602 881.25256 1719.6321 6972246
557.8255 874.4314 1706.3217 5722436
567.39886 873.60199 1704.7031 3222047
576.27222 871.7428 1701.0752 4406322
586.02112 871.24908 1700.1118 3551271
596.60449 871.99182 1701.5612 2301717
604.11761 868.297 1694.3512 3551013
608.68372 860.55646 1679.2467 5130298
619.67346 862.00061 1682.0648 5722433
628.76782 860.80426 1679.7302 6445904
645.71252 870.22498 1698.1134 4406322
658.12488 873.34204 1704.1959 4011051
662.4845 865.84033 1689.5575 6116938
669.82825 862.40411 1682.8522 5787458
678.82495 861.16565 1680.4355 5525053
685.71057 857.32349 1672.9382 5524797
701.979 865.15491 1688.22 2760467
708.53876 860.96875 1680.0513 4800823
717.65271 859.95929 1678.0815 5392703
734.08228 867.6239 1693.0378 3286814
738.25452 860.78998 1679.7025 2695191
743.35437 855.20514 1668.8046 4273965
763.85114 867.24805 1692.3044 6247240
776.45966 870.13885 1697.9454 4010020
783.53357 866.83258 1691.4937 4404778
794.03052 867.34918 1692.5017 3944997
811.19055 875.04022 1707.5096 3352863
821.39044 875.12634 1707.6777 4405808
832.56622 876.23737 1709.8457 2103058
841.3208 874.8042 1707.0491 2366746
846.84052 870.08142 1697.8334 1051143
849.36902 862.43243 1682.9075 262401
856.26117 859.34015 1676.8734 1380366
867.44446 860.57605 1679.285 787459
882.67603 865.75464 1689.3903 2301467
883.38257 856.73022 1671.7805 197120
907.97876 870.81787 1699.2704 656642
923.48126 875.9707 1709.3254 5064771
917.42096 860.78015 1679.6832 4077875
950.75629 882.4823 1722.0319 4867390
966.49445 887.56348 1731.9469 4735806
982.18713 892.49658 1741.5731 2762272
993.52075 893.40723 1743.35 3946291
995.87836 886.31067 1729.5022 4998979
1014.8033 893.95294 1744.415 4801344
1017.9257 887.66089 1732.1371 3353896
1028.8755 888.25214 1733.2908 4866877
1048.1102 895.91364 1748.241 3550761
1048.9297 887.83777 1732.4822 4866363
1056.1921 885.31934 1727.5677 5393221
1073.5402 891.22198 1739.0859 4406326
1092.6234 898.43909 1753.1691 2695454
1099.199 895.3324 1747.1068 1313802
1108.1442 894.19586 1744.8889 4209463
1118.6417 894.32129 1745.1338 3748655
1129.5555 894.77429 1746.0177 4143670
1115.3824 875.52692 1708.4592 2762274
1138.6525 885.7525 1728.4131 2827294
1136.5908 876.26617 1709.902 2892830
1149.6764 878.52216 1714.3041 3287328
1163.139 881.02429 1719.1866 4010794
1168.1501 877.1369 1711.601 6116685
1177.162 876.29462 1709.9574 5394506
1199.384 885.21661 1727.3673 5526864
1195.4702 874.86102 1707.16 6974568
1215.5404 882.0838 1721.2542 7698554
1288.2003 927.03168 1808.9631 7567483
1302.9128 929.88092 1814.5229 7830915
1321.4677 935.4032 1825.299 8094344
1341.998 942.22302 1838.6067 8555152
1355.5327 944.06067 1842.1927 8489102
1362.4924 941.32648 1836.8573 8423309
1374.2251 941.90717 1837.9904 8160137
1381.8658 939.69604 1833.6757 8094087
1394.6832 941.01202 1836.2438 7831685
1403.1759 939.41241 1833.1223 7766150
1415.4897 940.37598 1835.0026 7963273
1423.2924 938.35065 1831.0504 8094859
1433.5836 937.98438 1830.3357 8226189
1443.7753 937.55878 1829.5052 8226445
1451.6498 935.646 1825.7728 8292238
1462.0537 935.37988 1825.2534 8226445
1470.0193 933.56915 1821.7201 8160652
1478.2229 931.93488 1818.531 7963273
1487.949 931.2771 1817.2476 7831688
1501.6261 933.08392 1820.7733 7700101
1512.613 933.20526 1821.01 7765897
1524.4573 933.84998 1822.2681 7831689
1535.4824 933.98749 1822.5364 7765896
1546.4484 934.08734 1822.7312 7897226
1558.833 935.03674 1824.5837 7897482
1569.573 934.99329 1824.499 7831689
1584.3367 937.33093 1829.0605 7897482
1600.5698 940.50031 1835.2451 7963275
1637.8463 955.90857 1865.3121 8160654
1607.3138 931.79968 1818.2673 8226447
1624.3336 935.39551 1825.2841 8160655
1635.1505 935.39551 1825.2841 8160654
1643.0229 933.72223 1822.0187 8423314
1664.5299 939.76849 1833.8171 9212058
1692.7174 949.48364 1852.7748 3948102
1696.5892 945.52222 1845.0447 920593
1710.5131 947.17767 1848.2751 920599
1725.3887 949.33582 1852.4865 3618368
1713.2971 936.72284 1827.8739 8881804
1720.6929 934.85559 1824.2303 3816255
1735.9525 937.25769 1828.9176 2894900
1738.7937 932.96655 1820.5442 3750211
0 0 0 0
0 0 0 0
0 0 0 0
0 0 0 0
0 0 0 0
0 0 0 0
0 0 0 0
0 0 0 0
0 0 0 0
0 0 0 0
0 0 0 0
0 0 0 0
0 0 0 0
-1346.5627 813.2663 1568.825 921100
-1344.838 817.87152 1577.7086 789514
-1338.7375 819.86139 1581.5474 2763304
-1338.2539 825.34351 1592.1226 1184272
-1322.246 821.26123 1584.2476 1907995
-1320.6204 826.11737 1593.6152 1184785
-1313.8182 827.78186 1596.8263 2894890
-1304.4958 827.87122 1596.9987 5855832
-1292.3759 826.17346 1593.7235 855820
-1292.9706 832.63861 1606.1951 197636
-1281.083 831.10175 1603.2305 1908511
-1276.2408 834.14685 1609.1045 4408644
-1266.0634 833.7243 1608.2894 1447960
-1258.7816 835.21686 1611.1686 131842
-1242.2473 830.5459 1602.1582 2566182
-1219.5769 821.66907 1585.0344 2171166
-1183.6742 803.67004 1550.3136 3092778
-1175.6854 804.49042 1551.896 2829092
-1169.4102 806.50531 1555.7828 2960933
-1158.3282 805.211 1553.286 1644817
-1149.0292 805.14514 1553.1591 1973525
-1136.9501 803.1145 1549.2417 3486505
-1132.6691 806.604 1555.9731 4736060
-1127.8492 809.76392 1562.0687 5592139
-1114.7944 807.01477 1556.7655 2894882
-1109.4265 809.83075 1562.1978 2763556
-1093.3364 804.80164 1552.4963 2170908
-1085.4098 805.74719 1554.3204 1118218
-1079.8016 808.44482 1559.5242 1776150
-1073.8517 810.93097 1564.3201 1315599
-1059.7014 807.21387 1557.1497 2039064
-1045.3905 803.30792 1549.615 986378
-1033.6681 801.3396 1545.8179 1775633
-1028.9155 804.7876 1552.4694 1512205
-1008.7285 796.11658 1535.7424 2762266
-1007.8262 802.64612 1548.3384 4604982
-998.89844 802.84558 1548.723 5789001
-1000.8511 811.87463 1566.1405 4472628
-999.38263 818.27161 1578.4805 4406578
-995.23553 822.5755 1586.783 4078127
-988.15631 824.51495 1590.5243 3881006
-973.06403 819.74133 1581.3157 4077875
-970.72418 825.72241 1592.8534 3420201
-966.66809 830.34662 1601.7738 4209976
-951.86414 825.73889 1592.8853 6710622
-935.50415 819.6756 1581.1888 2499613
-930.67706 823.69672 1588.9457 2631712
-924.495 826.58856 1594.5243 3421487
-917.94794 829.21039 1599.5818 3750452
-910.53198 831.09387 1603.2152 4474174
-895.71326 826.18884 1593.7532 4013879
-886.63013 826.52618 1594.4039 4079158
-878.3349 827.6131 1596.5006 3025959
-862.12958 821.18927 1584.1088 2829350
-854.66193 823.03821 1587.6755 2434334
-842.39911 820.2594 1582.3151 7631978
-836.05109 823.24207 1588.0687 5329734
-825.22491 821.83301 1585.3506 3487529
-813.33276 819.31757 1580.4983 6382165
-808.54474 823.9834 1589.4987 6580054
-798.11127 822.93805 1587.4823 4934715
-796.12842 830.68524 1602.427 3815721
-790.50372 834.77362 1610.3136 3617829
-777.32697 830.88965 1602.8212 4671544
-768.55811 831.67938 1604.3446 4539444
-758.91101 831.52661 1604.0499 5855821
-751.25458 833.57874 1608.0087 4934718
-740.18164 831.84412 1604.6625 4408374
-730.84467 832.04059 1605.0415 5526599
-726.73035 838.26648 1617.0515 2631708
-714.03687 834.63068 1610.0377 5000257
-707.98792 838.76837 1618.0195 7039839
-695.19702 834.92249 1610.6008 6776668
-682.88849 831.55707 1604.1086 4736061
-678.87207 838.33649 1617.1865 4012337
-673.71698 843.88379 1627.8875 5197125
-661.44904 840.55341 1621.4631 3552814
-648.30609 835.99652 1612.6727 5592140
-636.34119 832.84509 1606.5934 8289908
-625.53308 831.13501 1603.2946 5789516
-617.77246 833.48364 1607.8252 4144946
-606.83661 831.55493 1604.1046 3223076
-599.44598 834.50018 1609.786 3682855
-588.46033 832.45502 1605.8408 4143405
-578.22736 831.42493 1603.8538 1972751
-575.91443 841.93878 1624.1355 5196351
-564.4176 839.1557 1618.7668 5525060
-557.01184 842.46411 1625.1488 2433303
-549.20703 845.27478 1630.5707 3551527
-535.87775 839.53107 1619.491 4341043
-530.24066 845.84875 1631.6781 5657674
-520.99078 846.53094 1632.9939 6908254
-505.46085 836.84149 1614.3026 5000513
-496.42938 837.74475 1616.045 4408377
-490.76727 844.48132 1629.04 6776670
-484.69794 850.77338 1641.1779 5395278
-472.06137 845.56 1631.1208 2829350
-463.5188 847.61499 1635.0851 3092010
-453.60495 847.19672 1634.2782 2500130
-445.78864 850.76312 1641.158 4605506
-437.70026 853.95776 1647.3207 2895144
-427.37906 852.84265 1645.1696 3750453
-416.03793 849.59265 1638.9001 2105630
-400.91925 838.2887 1617.0944 7171433
-391.12933 837.84601 1616.2404 2105115
-382.00467 838.84198 1618.1615 7697005
-370.24622 833.9566 1608.7375 3223077
-363.05353 839.36902 1619.1782 1709838
-351.15454 833.89911 1608.6266 4341299
-341.55231 833.73022 1608.3008 3222818
-335.55832 842.61224 1625.4346 3156512
-326.00214 842.80994 1625.816 3616808
-312.64127 832.88397 1606.6685 1183241
-308.5802 847.88751 1635.6108 3617067
-298.3558 846.38 1632.7029 2433307
-289.9075 849.97882 1639.645 4209976
-279.77209 848.70923 1637.1959 592136
-270.16998 849.02423 1637.8036 3815733
-260.53522 849.25635 1638.2513 5263180
-251.12157 850.25513 1640.178 3289389
-240.86392 848.36157 1636.5254 723463
-231.12988 848.23083 1636.2731 3617841
-221.61325 848.92133 1637.6051 2565153
-212.13123 849.81378 1639.3267 1052428
-199.66583 838.26666 1617.0519 723722
-192.36113 848.31403 1636.4335 2894635
-182.34306 846.82678 1633.5647 263171
-172.74268 847.22156 1634.326 1579031
-163.99625 852.10004 1643.7369 2565926
-152.91986 844.72412 1629.5085 2499875
-143.72633 847.45581 1634.7781 1184529
-134.00674 847.25647 1634.3934 2434338
-124.16765 846.21149 1632.3777 3289132
-114.80155 848.48578 1636.7649 5920594
-104.81017 846.13196 1632.2242 4933954
-95.68782 851.02856 1641.67 4604991
-86.007957 851.51385 1642.6062 2039323
-75.490868 842.77643 1625.7513 3025962
-66.303078 848.49371 1636.7802 5789268
-56.88163 852.66785 1644.8322 6644577
-46.99535 850.15955 1639.9937 3618355
-37.55962 856.61902 1652.4542 1776409
-27.846132 859.06561 1657.174 4078907
-18.096184 862.44061 1663.6844 3289391
-8.2707796 865.99475 1670.5405 3684148
1.6310723 866.98981 1672.46 2829097
11.635066 873.94818 1685.8831 4407872
21.421339 865.67871 1669.9309 3815735
31.058445 858.51227 1656.1064 4144443
41.490906 871.49353 1681.1478 5526352
51.179993 866.85681 1672.2035 4539455
60.703671 861.37732 1661.6333 2762275
70.713165 863.35889 1665.4558 5196872
80.559357 863.10547 1664.9669 2696995
90.536186 864.1543 1666.9901 6381657
100.63604 866.05542 1670.6575 2368285
110.43399 865.25055 1669.1049 2828067
120.27419 864.88184 1668.3937 2301470
128.09615 851.15869 1641.921 2564900
137.66431 850.15698 1639.9886 262917
150.21509 866.492 1671.4998 526090
160.08183 866.28137 1671.0934 1512985
170.72438 870.04901 1678.3613 263173
181.6104 874.57416 1687.0906 1118739
191.70535 875.01648 1687.9438 1118483
200.95824 871.76196 1681.6656 1644312
209.07832 864.13318 1666.9493 1381397
218.19449 861.12372 1661.1439 7500400
226.12801 853.90814 1647.225 395014
234.40353 848.52802 1636.8463 4210493
242.99719 844.68115 1629.4257 4933187
253.35854 847.03821 1633.9724 2234391
261.34409 841.57129 1623.4265 1773581
