# .PCD v0.7 - Point Cloud Data file format
VERSION 0.7
FIELDS x y z rgb
SIZE 4 4 4 4
TYPE F F F U
COUNT 1 1 1 1
WIDTH 1288
HEIGHT 1
VIEWPOINT 0 0 0 1 0 0 0
POINTS 1288
DATA ascii
2372.9165 677.94684 4163.8022 2368550
2349.3469 664.30499 4080.0168 460039
2352.7854 658.50006 4044.3645 1249814
2396.5037 663.97217 4077.9727 789008
2420.9688 664.05396 4078.4751 986644
2454.0728 666.48029 4093.3772 723728
2478.1912 666.44269 4093.1462 197639
2515.6741 669.96497 4114.7793 986899
2521.4614 665.05969 4084.6521 2697774
2505.6521 654.60547 4020.4443 2763567
2521.6367 652.57611 4007.981 2697518
2566.28 657.93213 4040.8762 2237479
2654.8079 674.336 4141.6255 1118742
2690.7698 677.20966 4159.2744 1579295
2675.6946 667.30267 4098.4282 1908259
2731.5374 675.10138 4146.3262 2368553
2761.3899 676.3949 4154.2705 2105382
2785.0464 676.16113 4152.835 2499883
2813.9263 677.1886 4159.1455 1644573
2808.947 670.12054 4115.7349 0
2842.636 672.3197 4129.2417 920850
2859.8433 670.61652 4118.7808 591885
2885.1946 670.83569 4120.127 920851
2868.4343 661.34192 4061.8184 1710879
2915.5911 666.62024 4094.2366 3026482
2917.498 661.55084 4063.1016 2237223
2940.6973 661.35303 4061.8867 1776159
2972.606 663.1012 4072.6238 1512987
2980.3057 659.46454 4050.2878 2499626
2979.2717 653.96881 4016.5342 1381145
2983.4031 649.68494 3990.2236 5328982
3019.1204 652.29279 4006.2407 1118229
3050.4138 653.91162 4016.1831 1447195
3095.2163 658.37885 4043.6201 2039332
3066.8672 647.3371 3975.8037 1776160
3150.7749 659.97754 4053.4387 2105125
3091.5278 642.6676 3947.1248 4211013
3091.2429 637.78265 3917.1226 2697774
3104.1501 635.67212 3904.1602 2171430
3128.6492 635.94897 3905.8606 1118741
3122.3689 630.01135 3869.3928 2039591
3116.1074 624.16406 3833.48 2698032
3124.3301 621.28162 3815.7766 1382684
3127.0979 617.36371 3791.7139 4803662
3237.9656 634.69086 3898.1333 9737367
3211.7849 625.0993 3839.2244 6250597
3193.1941 617.10944 3790.1523 3618367
3213.8569 616.76434 3788.0327 3026227
3227.7871 615.14093 3778.062 2368554
3349.9397 634.02252 3894.0286 5526363
3324.7678 624.95319 3838.3269 6447462
3298.9939 615.89484 3782.6921 2434089
3332.6633 617.98132 3795.5073 3289399
3380.2927 622.61121 3823.9429 5000019
3352.332 613.34924 3767.0581 3026228
3406.6865 619.17078 3802.8125 3026226
3410.0498 615.70892 3781.5505 4473416
3450.7195 618.98431 3801.6672 1381401
3459.7378 616.57642 3786.8784 1315607
3466.1814 613.74359 3769.48 1907489
3471.4727 610.74445 3751.0598 2170404
3468.772 606.38629 3724.293 2565418
3506.4919 609.10468 3740.9885 2104867
3495.1746 603.32422 3705.4863 2236453
3530.479 605.6134 3719.5459 2039331
3472.4307 591.95984 3635.689 2039074
0 0 0 0
0 0 0 0
0 0 0 0
0 0 0 0
0 0 0 0
-4558.9912 849.37469 5033.4692 3090716
-4555.2222 854.2619 5062.4312 2959131
-4606.5386 869.61292 5153.4023 2498067
-4493.5898 853.95215 5060.5957 2498065
-4473.7368 855.89148 5072.0884 2563858
-4394.2036 846.36224 5015.6172 2563602
-4376.2368 848.64215 5029.1279 2958616
-4383.585 855.89594 5072.1147 3155995
-4307.4087 846.82928 5018.3848 3221788
-4280.1348 847.31744 5021.2778 3353374
-4259.7656 849.18896 5032.3687 3484960
-4185.4062 840.24805 4979.3838 2827030
-4138.3867 836.70776 4958.4038 2958359
-4158.8291 846.85382 5018.5303 1971211
-4096.3843 840.14655 4978.7822 2103307
-4037.2175 834.01898 4942.4697 4077097
-4160.3398 865.73474 5130.4204 3024409
-4154.0249 870.78436 5160.3447 2892823
-4258.6519 899.33759 5329.5537 2695444
-4185.8779 890.5741 5277.6206 2761237
-4075.2139 873.5567 5176.7739 2958616
-3985.2825 860.75903 5100.9336 3287582
-3968.3691 863.65704 5118.1074 3221788
-3952.2898 866.78259 5136.6299 2892823
-3823.5972 845.06757 5007.9448 3089433
-3759.9561 837.50256 4963.1138 2958103
-3709.6135 832.80377 4935.2686 2760724
-3703.8726 838.12292 4966.79 2958357
-3575.8101 815.62622 4833.4727 2695441
-3600.7463 827.94641 4906.4834 3221529
-3566.5637 826.76288 4899.4692 3682080
-3519.8218 822.62457 4874.9458 3550238
-3559.6248 838.81177 4970.8726 3221529
-3490.4385 829.37207 4914.9316 3813666
-3491.7864 836.67419 4958.2046 3418653
-3458.4036 835.70776 4952.4775 3550494
-3441.7673 838.80603 4970.8384 3089686
-3417.3523 840.04572 4978.1851 2562831
-3376.9233 837.33624 4962.1284 2497294
-3394.7234 849.14441 5032.1045 2694159
-3390.9277 855.71204 5071.0249 3286297
-3329.0828 847.61731 5023.0547 3944226
-3314.1355 851.42468 5045.6177 4207399
-3271.6218 848.15509 5026.2417 3352603
-3224.2378 843.55109 4998.958 3089173
-3186.8889 841.51147 4986.8711 3089687
-3144.2905 838.03473 4966.2671 1642758
-3129.2725 841.91241 4989.2471 2563601
-3091.0203 839.55359 4975.2681 3879205
-3054.5513 837.63818 4963.9175 3287581
-3032.406 839.65173 4975.8501 2235150
-3008.5942 841.23883 4985.2554 2958360
-2987.3525 843.58319 4999.1484 3023896
-2982.0427 850.51855 5040.2476 2497809
-2926.4961 843.12097 4996.4092 2892566
-2895.0107 842.57513 4993.1743 3352861
-2859.3533 840.7912 4982.6025 3155483
-2837.0271 842.93097 4995.2832 2892308
-2788.2534 837.17505 4961.1729 2892564
-2773.0994 841.49823 4986.7925 2958100
-2761.3557 846.96057 5019.1631 2760208
-2706.1675 839.07159 4972.4121 2760207
-2707.7825 848.81512 5030.1533 4536106
-2622.9058 831.36102 4926.7188 2628365
-2586.7505 829.13068 4913.501 2694415
-2545.0022 825.03619 4889.2373 3023380
-2469.769 809.86749 4799.3462 3615517
-2500.3345 829.44214 4915.3472 2957587
-2446.9792 821.31104 4867.1611 3220758
-2440.616 828.94641 4912.4092 2826001
-2399.7546 824.90759 4888.4751 3549467
-2388.1562 830.95215 4924.2954 2562829
-2353.5796 829.05194 4913.0347 2826002
-2325.0918 829.27588 4914.3618 2826001
-2284.1211 824.99683 4889.0039 2826002
-2266.9463 829.31305 4914.582 2299915
-2230.459 826.58459 4898.4131 2037000
-2190.6033 822.51953 4874.3228 1247233
-2161.5732 822.46478 4873.9985 1773827
-2156.7922 831.76013 4929.084 1708038
-2087.303 816.01361 4835.7686 1905414
-2067.5474 819.54242 4856.6802 1905669
-2043.7837 821.55945 4868.6338 1904900
-1981.7437 808.02771 4788.4434 2430986
-1960.6882 811.05646 4806.3921 2233862
-1922.0175 806.7804 4781.0518 2365447
-1890.9147 805.60065 4774.0601 2694412
-1856.6437 803.01465 4758.7358 2694413
-1836.6638 806.62543 4780.1328 2497034
-1807.567 806.28253 4778.1011 2365191
-1777.4767 805.47852 4773.3364 2562569
-1745.3324 803.70264 4762.8125 2694156
-1713.5582 802.04169 4752.9692 2825485
-1693.2512 805.78204 4775.1353 3088914
-1672.3113 809.34332 4796.2397 1904642
-1611.0806 793.19116 4700.5205 2102021
-1591.7469 797.46106 4725.8242 1970178
-1546.5889 788.71417 4673.9893 3023120
-1503.3783 780.65942 4626.2563 2957327
-1474.6301 779.95496 4622.0815 2759948
-1440.577 776.36481 4600.8062 2562569
-1417.6531 778.74969 4614.939 2693384
-1395.8628 781.86328 4633.3906 2693384
-1364.3213 779.5304 4619.5654 2561798
-1334.8695 778.32043 4612.395 2693129
-1314.7559 782.61841 4637.8652 2496007
-1280.3857 778.43243 4613.0591 2430212
-1255.37 779.875 4621.6079 2628106
-1233.4868 783.37152 4642.3286 2693899
-1203.7571 781.93048 4633.7891 2299654
-1176.9128 782.34045 4636.2183 1904641
-1141.7186 777.08655 4605.0835 1904384
-1122.522 782.73053 4638.5303 1773056
-1097.5741 784.54694 4649.2939 1641728
-1063.9438 780.09088 4622.8872 1707265
-1042.2823 784.40662 4648.4629 1971205
-1000.5806 773.46552 4583.6245 2234378
-992.24707 788.42755 4672.291 1445380
-968.96069 792.02625 4693.6172 2036741
-931.11615 783.58612 4643.6006 3088914
-901.17737 781.48767 4631.165 3549721
-870.54626 778.63831 4614.2788 3155734
-850.90875 785.75568 4656.4575 2103565
-823.74298 786.16553 4658.8862 656385
-790.44983 780.55304 4625.626 196608
-763.68091 781.21136 4629.5273 196608
-736.31403 781.28424 4629.9595 131072
-715.8208 788.93854 4675.3193 196608
-688.72357 789.63763 4679.4619 393216
-662.86438 791.87433 4692.7168 1379588
-626.74994 781.51917 4631.3516 3155223
-591.92499 771.89722 4574.3311 2891536
-571.30841 780.76923 4626.9072 2167812
-547.6106 786.11267 4658.5728 2760207
-520.6416 787.07825 4664.2949 2628622
-494.80884 789.96606 4681.4082 4141860
-467.20486 790.20117 4682.8018 2826001
-434.62613 781.52069 4631.3604 3220500
-407.59473 782.31726 4636.0811 3088657
-381.4227 784.99768 4651.9653 3286035
-355.7215 789.1402 4676.5142 3154705
-326.71744 786.03662 4658.1221 1772800
-302.22025 794.20361 4706.5205 3023120
-271.29953 785.43481 4654.5557 2891534
-246.56841 794.6286 4709.0391 3680535
-217.72229 791.2149 4688.8091 3943706
-190.0226 791.57812 4690.9614 3285776
-160.97627 785.49481 4654.9116 3219984
-131.87178 776.55286 4601.9204 2890764
-105.54227 783.54968 4643.3843 3023119
-77.988808 783.19049 4641.2554 2364934
-49.984726 775.44891 4595.3784 2430727
-22.751671 775.45361 4595.4062 3417621
4.4793148 775.04333 4592.9751 3023120
31.821449 778.0553 4610.8242 3352085
58.79369 773.4184 4583.3457 3286035
85.700203 771.12061 4569.7285 2891534
112.28111 767.70001 4549.458 2825741
139.91946 771.43433 4571.5874 3154706
166.52364 769.17999 4558.2285 3351828
194.73941 773.96021 4586.5562 3615256
221.43384 772.26349 4576.5015 3088912
248.15608 771.02356 4569.1533 3220500
278.37741 779.82965 4621.3394 3351829
305.14029 778.23779 4611.9058 4206624
334.65939 783.35938 4642.2563 3877913
366.73782 793.23853 4700.8013 4272671
384.1796 772.29932 4576.7139 4075292
412.65167 774.83325 4591.73 4206876
443.0192 780.39264 4624.6753 4140828
467.96149 776.30414 4600.4468 3548691
498.26056 781.06305 4628.6484 3219472
528.9978 785.97632 4657.7651 2891533
563.5166 795.74237 4715.6392 3221275
593.50568 798.49121 4731.9292 4274741
616.93762 792.56812 4696.8286 7370355
638.71362 785.12109 4652.6968 7174006
684.88562 807.03748 4782.5747 7501689
719.36334 813.97955 4823.7144 7238517
749.23065 815.3736 4831.9756 7238518
786.83868 824.77899 4887.7129 6777708
817.00342 825.99115 4894.8965 3618874
850.36169 830.23828 4920.0654 1907998
878.35999 829.14417 4913.5815 1184020
911.88885 833.17352 4937.4595 1118482
942.33679 834.22479 4943.6895 1315861
982.1192 843.22711 4997.0376 1973791
1012.707 844.03918 5001.8501 3815996
1038.0707 840.57465 4981.3193 4934732
1055.6984 831.21088 4925.8286 7895673
1064.7273 815.76288 4834.2827 6579556
1087.7017 811.52905 4809.1929 986895
1088.012 791.03363 4687.7349 592137
1121.8301 795.31403 4713.1006 1775897
1133.3228 783.94336 4645.7173 723466
1135.5959 766.88605 4544.6343 525830
1156.056 762.61639 4519.332 262661
1181.1088 761.50116 4512.7227 65540
1202.5717 758.17206 4492.9941 131077
1225.791 756.07056 4480.5405 131080
1243.9774 751.01965 4450.6084 8
1269.0469 750.24768 4446.0337 7
1285.7008 744.63312 4412.7612 9
1315.6581 746.79364 4425.5649 65546
1333.173 741.94519 4396.8325 131083
1371.1815 748.46936 4435.4951 11
1394.3734 746.81226 4425.6753 65546
1421.4312 747.24872 4428.2617 6
1456.8363 751.97809 4456.2881 65797
1467.6346 744.06384 4409.3877 921362
1497.4393 745.89374 4420.2319 2434343
1508.4226 738.44678 4376.1006 2763311
1533.2812 737.92932 4373.0342 1645343
1552.7981 734.901 4355.0879 8093573
1583.5535 737.20361 4368.7334 3750465
1595.3168 730.73285 4330.3872 3158326
1637.0077 737.95831 4373.2061 3355448
1664.8497 738.81287 4378.27 1776673
1692.0526 739.36176 4381.5229 3421498
1710.7386 736.22888 4362.957 2039844
1723.583 730.71271 4330.2676 4013635
1735.8795 725.12939 4297.1807 2697774
1765.8655 726.99023 4308.208 2171431
1796.7133 729.14777 4320.9937 2171431
1812.4149 725.18439 4297.5063 1052949
1863.5201 735.30029 4357.4541 2763568
1867.8363 726.93005 4307.8516 2105638
1876.2679 720.36572 4268.9507 1447708
1895.7509 718.16248 4255.894 3816257
1897.6044 709.42639 4204.123 592142
1942.0673 716.63989 4246.8711 987157
1995.1693 726.81598 4307.1753 658191
1998.1691 718.71387 4259.1616 921106
2044.6647 726.26361 4303.9019 131332
2056.7715 721.56287 4276.0449 1381401
2085.3464 722.68372 4282.6875 1184022
2100.4502 719.16522 4261.8364 1578780
2133.2722 721.72485 4277.0049 2763311
2142.3799 716.29541 4244.8296 3026740
2146.2534 709.26239 4203.1514 2303017
2185.0662 713.80444 4230.0679 2500139
2191.6279 707.82739 4194.6475 2303017
2217.3455 708.10181 4196.2734 4803150
2229.8484 704.19684 4173.1323 2895411
2289.8274 715.2063 4238.3755 6185062
2273.9219 702.5321 4163.2671 3421499
2288.572 699.46899 4145.1147 3486777
2285.9846 691.25836 4096.458 3289140
2298.4009 687.70966 4075.428 526090
2302.6597 681.81927 4040.5212 328709
2307.2947 676.16046 4006.9863 131331
2346.4958 680.64343 4033.5527 1710363
2343.821 673.01166 3988.3262 1381655
2388.3342 678.94666 4023.4976 131588
2445.8511 688.42432 4079.6631 592395
2434.4146 678.49847 4020.8416 855055
2466.8918 680.88562 4034.9883 460553
2475.2576 676.63586 4009.8037 1118740
2481.2061 671.81244 3981.2195 1973791
2513.4729 674.13867 3995.0049 1512985
2517.8772 669.01825 3964.6611 1710619
2546.3621 670.33179 3972.4448 3552823
2626.2666 685.03339 4059.5681 3552824
2674.8179 691.36426 4097.0854 2236709
2675.4751 685.31329 4061.2271 2170916
2657.324 674.59552 3997.7124 2763054
2676.3127 673.41229 3990.7004 2170660
2718.5537 678.04919 4018.1792 3619132
2711.6584 670.45673 3973.1855 2171429
2753.3689 674.90918 3999.5713 1973538
2783.5171 676.47577 4008.855 986640
2827.2974 681.30078 4037.4482 131844
2822.2942 674.38794 3996.4822 1052177
2824.1003 669.20367 3965.76 1315863
2829.3721 664.91949 3940.3716 2368296
2939.9189 685.24323 4060.8115 3157812
2929.7537 677.32947 4013.9138 1118229
2960.7732 678.98804 4023.7427 328711
2935.3977 667.79041 3957.3848 1184022
2957.7937 667.55206 3955.9722 5855069
2947.6582 660.03296 3911.4133 1052436
2996.0139 665.62628 3944.5601 1907489
2937.1328 647.49261 3837.0981 1512476
3011.3628 658.75659 3903.8494 920338
3060.9541 664.49994 3937.885 1183510
3050.2449 657.16479 3894.4165 657935
3028.1978 647.5155 3837.2339 1381658
3019.3396 640.80927 3797.4919 2236967
3054.312 643.43573 3813.0566 2894898
3069.4575 641.8775 3803.8225 2960947
3088.9568 641.24579 3800.0791 1381659
3087.7285 636.3515 3771.075 2960947
3106.6924 635.65906 3766.9714 591884
3120.6001 633.94928 3756.8391 131334
3180.085 641.45709 3801.3313 987156
3144.0159 629.72076 3731.7805 2500142
3205.0835 637.46814 3777.6921 3816256
3314.6643 654.68994 3879.75 6776429
3312.8477 649.82361 3850.9116 3223606
3296.4753 642.18823 3805.6641 3684158
3293.1147 637.17432 3775.9509 6907503
3267.6885 627.98737 3721.5085 5000019
3294.2615 628.84991 3726.6201 3421242
3053.9648 579.0968 3431.7788 1842722
3281.1077 618.05212 3662.6313 6381670
3336.5596 624.367 3700.054 2762798
3368.2229 626.17706 3710.7803 5526617
3324.5308 614.04535 3638.8867 2829104
3336.6306 612.30841 3628.5933 2894640
3408.0667 621.41284 3682.5471 2894640
3385.8167 613.4278 3635.2271 4210500
3413.7002 614.56921 3641.9915 3420984
3400.8457 608.40833 3605.4814 2434089
3438.0027 611.21558 3622.1172 1447194
3469.3608 612.96344 3632.4751 4078914
0 0 0 0
0 0 0 0
0 0 0 0
0 0 0 0
0 0 0 0
-4280.1885 825.43689 4725.6504 3024667
-4424.936 858.97174 4917.6382 3419682
-4394.5801 858.73468 4916.2812 3090460
-4406.25 866.76147 4962.2349 2958616
-4330.4663 857.57739 4909.6558 3616545
-4285.4126 854.39575 4891.4409 2827030
-4261.3745 855.3894 4897.1294 2695444
-4228.7832 854.66791 4892.9985 3221788
-4172.9077 849.198 4861.6836 3287581
-4121.332 844.53326 4834.9775 3221788
-4098.0693 845.64563 4841.3457 3024409
-4079.5803 847.76556 4853.4824 2892823
-4055.4736 848.73993 4859.061 3024153
-4052.4802 854.17853 4890.1973 2694931
-3999.3149 849.04419 4860.8027 2826773
-4013.312 858.19714 4913.2036 2760724
-3972.8508 855.75354 4899.2139 2892309
-3992.446 866.30536 4959.6235 2826517
-3916.4202 856.11139 4901.2627 2694931
-3988.9148 878.47351 5029.2866 2234892
-4024.3333 892.94562 5112.1396 2958615
-3858.9727 862.74915 4939.2642 2827029
-3837.3259 864.46692 4949.0981 3353374
-3491.8159 792.68951 4538.1709 3090202
-3749.4326 857.77869 4910.8081 3418652
-3667.3208 845.55652 4840.8359 3024150
-3581.0862 832.18365 4764.2759 2432013
-3551.863 831.95203 4762.9492 2300172
-3542.8442 836.48706 4788.9126 2300173
-3512.1113 835.927 4785.7065 2365966
-3495.6309 838.77777 4802.0273 2629138
-3480.5876 842.02307 4820.6064 3155738
-3438.3157 838.6803 4801.4692 3155482
-3441.5979 846.48633 4846.1587 3221529
-3403.219 844.09045 4832.4424 3089689
-3423.1208 856.23169 4901.9517 3155482
-3474.3591 876.48639 5017.9102 3023895
-3363.02 855.72272 4899.0376 3155223
-3345.2173 858.60504 4915.5391 3221017
-3278.3357 848.83038 4859.5791 2826260
-3265.8298 853.08655 4883.9453 2234381
-3261.7678 859.64398 4921.4868 2826258
-3218.7512 855.96069 4900.3999 3286296
-3203.7288 859.72241 4921.936 2365708
-3173.2585 859.36987 4919.918 2629392
-3126.9639 854.68561 4893.1001 3484701
-3083.6006 850.72235 4870.4102 4801077
-3105.8472 864.95599 4951.8984 3551267
-3059.8694 860.27997 4925.1279 4735798
-2999.9768 851.56409 4875.229 2366225
-2961.8804 848.92578 4860.125 2563858
-2944.7019 852.2901 4879.3857 2695444
-2924.6985 854.89532 4894.3008 2958616
-2931.0542 865.33484 4954.0669 4274475
-2854.1501 851.15601 4872.8931 4932661
-2830.7937 852.8194 4882.416 2695443
-2751.668 837.5423 4794.9541 3155736
-2788.4873 857.60553 4909.8169 3221785
-2717.9292 844.71954 4836.0439 3352345
-2738.1538 860.0744 4923.9507 3023380
-2669.2351 847.45782 4851.7207 2168070
-2596.5256 833.34985 4770.9521 2430986
-2617.0305 849.17755 4861.5664 2891537
-2517.123 825.85114 4728.022 3089173
-2492.6414 827.0249 4734.7417 2760208
-2516.3213 844.38666 4834.1382 2760207
-2440.9929 828.54211 4743.4277 2760208
-2414.5366 829.10999 4746.6792 2825744
-2357.3381 819.0108 4688.8608 2760208
-2334.6594 820.80682 4699.1431 2694414
-2356.1589 838.36554 4799.6675 2628622
-2277.7249 820.36078 4696.5894 3023123
-2258.9329 823.65735 4715.4624 2168328
-2232.9575 824.3844 4719.625 2694672
-2171.1213 811.7226 4647.1357 2234634
-2170.2183 821.80939 4704.8828 2497552
-2153.3687 826.0415 4729.1118 1971208
-2116.1982 822.4873 4708.7637 2365965
-2118.4241 834.35461 4776.7046 2431759
-2111.0974 842.7301 4824.6543 2365967
-2060.3501 833.76428 4773.3252 2497551
-2028.7987 832.42535 4765.6592 2234379
-1982.2494 824.80786 4722.0488 1971463
-1941.6804 819.49622 4691.6396 1905414
-1901.4832 814.18939 4661.2578 1575936
-1869.9263 812.48041 4651.4741 1444352
-1827.4382 805.8996 4613.7988 1641729
-1781.2642 797.46875 4565.5317 2431244
-1781.5507 809.8988 4636.6943 2299655
-1746.9982 806.63245 4617.9941 2628363
-1731.6074 812.25018 4650.1562 2167812
-1712.1012 816.08807 4672.1279 2102276
-1651.2247 800.00848 4580.0718 2102019
-1624.854 800.38861 4582.248 2299398
-1605.718 804.40601 4605.248 2233861
-1569.4081 799.81018 4578.9365 2628363
-1543.5605 800.47827 4582.7612 2365191
-1519.2516 801.98242 4591.3726 2891534
-1478.146 794.51312 4548.6108 2825741
-1450.5292 794.15137 4546.5396 2365190
-1417.9697 791.01862 4528.6045 2364933
-1386.2533 788.24445 4512.7222 2561799
-1367.7076 792.99731 4539.9331 2364420
-1341.2922 793.2868 4541.5898 2430213
-1309.3361 790.2439 4524.1689 2364421
-1292.4636 796.36768 4559.228 2430984
-1262.2947 794.38538 4547.8794 2364934
-1225.0911 787.79291 4510.1372 1838849
-1190.5215 782.63794 4480.625 2430984
-1173.8533 789.28436 4518.6763 2036228
-1152.3926 792.94354 4539.625 2825741
-1117.9055 787.60022 4509.0342 2759948
-1090.9972 787.46552 4508.2627 2628361
-1055.6337 781.06775 4471.6357 2957841
-1031.2272 782.65656 4480.7314 2694413
-1007.5134 784.8689 4493.3975 2300168
-988.4267 790.90387 4527.9478 3287062
-971.17346 798.78363 4573.0596 3812637
-915.84229 774.89789 4436.313 2497034
-899.23199 783.33051 4484.5898 2694154
-871.20593 782.02942 4477.1411 2562569
-844.74548 782.09607 4477.5229 2891793
-824.9939 788.57983 4514.6426 2103308
-801.66461 791.96387 4534.0161 327680
-772.08246 789.19122 4518.1426 131074
-746.6687 790.63306 4526.3975 5
-718.79028 789.4754 4519.7695 196612
-688.70447 785.70978 4498.2114 196610
-662.5 786.24725 4501.2886 262144
-635.0802 785.32697 4496.02 393216
-599.40338 773.66864 4429.2754 2760467
-575.22192 776.45917 4445.2515 2562828
-558.35699 789.86786 4522.0161 2430984
-534.51019 794.25378 4547.126 3154964
-505.99368 791.79822 4533.0679 3089171
-480.93192 794.77643 4550.1182 3023378
-452.9375 792.97412 4539.7998 4076066
-417.05795 776.26764 4444.1548 2891535
-394.43829 783.65308 4486.4365 3023120
-367.54007 782.99127 4482.6479 2694155
-341.69672 784.64868 4492.1367 2365191
-316.77917 788.89185 4516.4287 2562313
-292.05325 794.43933 4548.1885 2825485
-265.45038 795.4903 4554.2051 2759949
-240.78029 803.22662 4598.4956 1641217
-209.18567 786.88971 4504.9668 2628106
-182.28682 786.02106 4499.9937 2956300
-156.04817 788.18933 4512.4067 3285521
-128.69405 784.4549 4491.0273 3022605
-100.23733 770.30011 4409.9907 2824969
-74.413773 773.5329 4428.4985 4009500
-48.293743 775.5274 4439.917 3549204
-22.199608 783.21002 4483.8999 3417620
4.3301392 775.54437 4440.0142 3286292
30.583141 774.03931 4431.3975 3220499
57.817379 787.28613 4507.2358 2825741
83.41758 776.94171 4448.0142 3483671
109.18986 772.78296 4424.2051 2891534
136.1825 777.19946 4449.4893 3417878
162.63036 777.57825 4451.6582 3286291
191.3976 787.39319 4507.8486 3746843
218.6328 789.27301 4518.6108 2759948
244.7019 786.99225 4505.5537 3220756
268.94257 779.85828 4464.7114 2628105
294.35486 777.09546 4448.894 3351315
319.59265 774.36407 4433.2568 3614487
353.91437 792.38574 4536.4316 3088398
379.49582 789.6756 4520.916 3811863
398.35898 774.26501 4432.6899 3417362
424.61337 774.23828 4432.5366 3285776
455.63065 782.39331 4479.2246 3351571
487.50156 791.03558 4528.7017 3153936
514.69141 791.5766 4531.7993 3220500
540.57605 790.15619 4523.667 3088915
570.28577 794.1969 4546.8008 3024152
582.93646 775.18793 4437.9736 3486507
624.07745 794.07111 4546.0801 6119515
663.8623 809.73712 4635.7686 7370100
693.51532 812.29095 4650.3896 8159617
728.16943 820.28339 4696.1465 5264213
753.32733 817.38373 4679.5454 1184789
773.47516 809.44684 4634.1069 1645083
797.54718 806.02008 4614.4888 2500393
836.19635 817.06427 4677.7168 2434599
875.56891 828.08374 4740.8037 3355956
905.90631 830.13867 4752.5679 2039840
937.05811 832.79333 4767.7661 1381910
979.28906 844.85077 4836.7954 1579032
985.9715 826.42627 4731.3145 1907741
1006.767 820.52301 4697.5181 5856090
1026.7583 814.29956 4661.8887 7369072
1044.6566 806.78577 4618.8721 8685446
1069.7943 805.104 4609.2441 4737609
1097.7478 805.57227 4611.9248 1776411
1119.3009 801.43506 4588.2393 986895
1126.6899 787.5929 4508.9922 657417
1149.27 784.7652 4492.8037 460296
1168.937 780.12146 4466.2178 328456
1191.1075 777.31702 4450.1626 262407
1220.6006 779.30927 4461.5684 6
1238.3385 773.87097 4430.4336 131593
1260.8182 771.5603 4417.2051 7
1283.6794 769.57227 4405.8237 9
1309.012 769.1156 4403.209 10
1332.0789 767.37146 4393.2241 9
1359.0046 767.87469 4396.105 9
1362.9993 755.646 4326.0952 855319
1380.4774 751.20599 4300.6763 7
1414.8699 755.96436 4327.918 198413
1453.0613 762.54688 4365.603 5
1483.9417 765.12952 4380.3887 66052
1497.288 758.73804 4343.7974 263431
1526.5806 760.50671 4353.9233 3947842
1514.5153 741.95557 4247.7173 5198166
1543.9476 744.00818 4259.4683 6974577
1564.0427 741.5675 4245.4956 5790046
1590.2141 742.03967 4248.1987 2763566
1626.2251 747.01685 4276.6934 3026739
1657.726 749.80139 4292.6348 2829361
1672.7673 745.16962 4266.1177 2895154
1686.7599 740.21533 4237.7544 4145220
1684.8743 728.54071 4170.917 4737358
1687.3931 719.08063 4116.7578 2565929
1747.6527 734.14575 4203.0059 5263699
1757.058 727.72504 4166.2471 1842462
1797.0167 733.9613 4201.9497 2763565
1833.032 738.43842 4227.5815 2434600
1833.428 728.63898 4171.4795 1841951
1855.8794 727.74896 4166.3843 2631724
1884.5167 729.27618 4175.1274 1710877
1923.7526 734.81213 4206.8208 1645086
1936.4509 730.19958 4180.4141 1776672
1959.903 729.7074 4177.5962 657934
1980.9755 728.3526 4169.8398 1
2015.3093 731.84698 4189.8452 1249815
2031.8571 728.87592 4172.8359 1249814
2048.9683 726.17603 4157.3789 1710366
2084.5715 730.0163 4179.3647 2170661
2108.0156 729.55817 4176.7417 2499882
2125.6562 727.12543 4162.8145 3157813
2131.7566 720.84631 4126.8662 2105126
2151.0981 719.13629 4117.0762 2368296
2164.7629 715.58801 4096.7622 2302503
2191.5676 716.41394 4101.4907 2763054
2217.196 716.84131 4103.9375 1973794
2246.387 718.39874 4112.854 4802893
2253.6628 712.98962 4081.8862 3157556
2271.8645 711.11517 4071.155 2434089
2257.8855 699.31317 4003.5881 5723739
2250.5698 689.79877 3949.1182 3749949
2302.429 698.43073 3998.5361 789262
2309.6165 693.47394 3970.1584 1381656
2339.6006 695.39288 3981.1445 2434343
2335.9902 687.38794 3935.3162 1250069
2353.8364 685.79266 3926.1831 1513241
2389.4631 689.3584 3946.5969 2499881
2429.1951 694.02777 3973.3291 3092789
2439.3176 690.22925 3951.5825 592397
2457.9556 688.88959 3943.9131 7368821
2478.6545 688.14734 3939.6636 5066066
2501.4392 687.99261 3938.7778 6184290
2503.28 682.13361 3905.2349 6842221
2545.2229 687.20959 3934.2947 1447450
2690.3032 719.78754 4120.8047 5000016
2618.3962 694.24701 3974.5842 3749949
2612.5146 686.51196 3930.3008 3092019
2620.8264 682.61029 3907.9636 1710366
2632.4912 679.64264 3890.9739 3223861
2673.7786 684.30792 3917.6829 2566444
2661.2725 675.2439 3865.791 3947841
2687.5195 676.0835 3870.5979 2895153
2720.1438 678.49963 3884.4302 2500140
2775.3345 686.45679 3929.9851 4868684
2770.832 679.63977 3890.9578 1513241
2755.3328 670.26025 3837.2595 1644315
2827.5334 682.19342 3905.5774 1447193
2850.303 682.10345 3905.0623 526092
2941.6931 698.30432 3997.8125 2
2905.7969 684.27222 3917.4783 65795
2902.303 678.03229 3881.7546 526090
2917.0608 676.12091 3870.812 1183765
2918.2651 671.12256 3842.196 1381144
2902.5962 662.35107 3791.9792 1644315
2955.958 669.34576 3832.0239 1118228
2951.0627 663.14264 3796.5107 789007
2984.1682 665.508 3810.0527 460042
2956.9849 654.49365 3746.9954 3
3002.5854 659.6333 3776.4199 131332
3009.9832 656.36621 3757.7158 65540
3019.2659 653.55518 3741.6226 197127
2978.4458 640.01892 3664.127 1315611
3015.3167 643.25214 3682.6375 394509
3038.0798 643.45111 3683.7764 197386
3001.679 631.20581 3613.6719 65799
3019.2954 630.41266 3609.1309 65797
3061.7952 634.78955 3634.1887 1447197
3128.2583 644.03888 3687.1414 1710368
3116.6216 637.19238 3647.9448 1315864
3106.0864 630.66388 3610.5691 2236713
3153.4443 635.89893 3640.5398 592143
3208.6526 642.63507 3679.1047 3486779
3213.2314 639.20868 3659.4883 3026485
3229.3411 638.10663 3653.1792 1710882
3257.0837 639.30267 3660.0264 461579
3332.0764 649.69568 3719.5266 8620173
3252.1487 629.94397 3606.4475 4868177
3339.7341 642.68567 3679.3943 4934483
3259.7581 623.22638 3567.9893 4473674
3313.5203 629.42224 3603.4607 4013378
3345.0996 631.35199 3614.5085 3486778
3370.0327 632.0108 3618.2803 3026226
3352.0999 624.6731 3576.2717 2697261
3392.7285 628.27203 3596.8757 3684156
3415.4568 628.53198 3598.3638 4934225
3423.3809 626.08118 3584.333 657678
0 0 0 0
0 0 0 0
0 0 0 0
0 0 0 0
0 0 0 0
-4213.9521 840.23492 4652.52 3485473
-4186.5107 840.26111 4652.665 2959385
-4240.665 856.77313 4744.0947 2892823
-4200.7754 854.37817 4730.8335 3221788
-4247.4473 869.67474 4815.5332 3024409
-4220.5317 870.00909 4817.3848 2892823
-4208.1621 873.36707 4835.978 2958616
-4151.521 867.51971 4803.6006 2629651
-4090.5669 860.68433 4765.7515 3090202
-4035.6301 855.02869 4734.4355 2695700
-4012.2812 856.03314 4739.9976 2826773
-3938.0605 846.12177 4685.1162 3550497
-3937.9329 852.10205 4718.23 3221532
-3931.4944 856.79248 4744.2017 3155226
-3890.7104 854.01166 4728.8042 2958870
-3883.1526 858.53662 4753.8594 3090456
-3827.0718 852.32111 4719.4434 4077094
-3823.6184 857.82104 4749.897 3353628
-3759.0671 849.59369 4704.3408 3090457
-3760.8594 856.34973 4741.7505 3024409
-3775.3142 866.11261 4795.8091 2892823
-3684.4197 851.67157 4715.8467 2827030
-3823.9912 890.69031 4931.8999 3024153
0 0 0 0
-3665.5181 867.03229 4800.9014 3418908
-3508.5759 836.40155 4631.2939 3747358
-3175.8389 763.05011 4225.1348 3550237
0 0 0 0
-3171.3 774.16699 4286.6909 3484444
0 0 0 0
-3563.7217 884.12842 4895.5654 2563088
-3394.1672 848.97485 4700.9146 2234379
-3337.0503 841.59601 4660.0562 2234381
-3307.3152 841.05725 4657.0732 2497809
-3301.8281 846.7276 4688.4712 2300688
-3358.9465 868.68518 4810.0537 2695446
-3266.2417 851.93994 4717.3325 2168847
-3277.8833 862.35736 4775.0156 525056
-3211.6279 852.28436 4719.2397 1116160
-3258.1936 872.2373 4829.7222 1971210
-3230.3237 872.44037 4830.8467 2037004
-3169.4951 863.66614 4782.2622 1774088
-3141.6409 863.79987 4783.0029 1773832
-3128.6284 868.05396 4806.5586 3353120
-3064.0115 857.93677 4750.5381 3024410
-3085.751 872.03638 4828.6099 3222303
-3043.8257 868.23981 4807.5874 2958618
-2967.5117 854.46948 4731.3389 3419681
-2917.4722 848.07416 4695.9272 3485218
-2937.6775 862.17169 4773.9873 3485216
-2832.6978 839.4458 4648.1504 3287838
-2839.0081 849.57739 4704.2505 3090458
-2808.0969 848.66077 4699.1753 3156251
-2787.6169 850.90997 4711.6294 3155995
-2742.0281 845.46265 4681.4668 3616800
-2722.437 848.00195 4695.5273 3813409
-2673.4795 841.35211 4658.7061 2957843
-2658.0103 845.21216 4680.0796 2760209
-2640.1741 848.39319 4697.6934 2693902
-2589.4507 840.9613 4656.542 3023380
-2628.939 862.98242 4778.4766 2826257
-2536.9858 841.86603 4661.5513 3023380
-2501.5547 839.24719 4647.0508 2957587
-2463.7427 835.76245 4627.7554 2760722
-2460.3472 844.00574 4673.3994 2168330
-2417.8096 838.85632 4644.8862 1444864
-2384.126 836.6955 4632.9214 1444608
-2333.6882 828.53607 4587.7417 2234123
-2294.6899 824.29364 4564.2505 2497036
-2263.614 822.82971 4556.1445 2825744
-2228.6995 819.91815 4540.0229 2957331
-2219.6045 826.55054 4576.7471 2957587
-2175.1047 819.99945 4540.4731 2891794
-2150.8276 821.00378 4546.0337 2892050
-2120.6211 819.74133 4539.0435 2497806
-2118.0393 829.26227 4591.7622 2629137
-2069.7817 820.91498 4545.5425 2694931
-2048.825 823.31854 4558.8511 2563088
-2016.2367 821.04968 4546.2881 2760977
-1999.0884 825.09192 4568.6709 2629392
-1977.3737 827.33472 4581.0894 3024405
-1945.1532 825.18304 4569.1753 3418392
-1911.7488 822.46136 4554.1045 2365706
-1896.1466 827.42999 4581.6172 2168583
-1850.3506 819.17603 4535.9131 2628366
-1817.1534 816.33838 4520.2007 2826000
-1764.4054 804.5014 4454.6577 2497033
-1745.6759 808.0517 4474.3159 1970689
-1733.4969 814.79041 4511.6294 2430984
-1702.8063 812.90283 4501.1777 2299398
-1679.0034 814.29578 4508.8906 2562827
-1653.2002 814.74792 4511.394 2628363
-1615.5222 809.26648 4481.0425 2694156
-1583.1531 806.30554 4464.6475 2496777
-1561.8239 808.96234 4479.3584 3220243
-1531.9401 807.20349 4469.6191 2694156
-1510.5459 809.93463 4484.7422 3088914
-1472.8756 803.88025 4451.2183 2694155
-1459.9817 811.37445 4492.7148 3549208
-1412.7847 799.72925 4428.2334 2496776
-1386.079 799.46216 4426.7544 2891277
-1349.1299 793.1626 4391.873 2627592
-1333.0864 799.14752 4425.0122 2561799
-1307.7684 799.70129 4428.0786 3022350
-1284.7638 801.72125 4439.2637 2496262
-1263.8157 805.13599 4458.1714 2562570
-1243.7363 809.26172 4481.0161 2102020
-1214.1116 807.22101 4469.7163 2430983
-1177.9668 800.65759 4433.374 3088914
-1137.1241 790.52899 4377.29 3023121
-1122.9468 798.89783 4423.6294 2957327
-1099.676 801.04272 4435.5063 2167812
-1062.317 792.77905 4389.749 2825741
-1029.3754 787.47986 4360.4062 2233862
-999.73413 784.4975 4343.8926 1773312
-991.4339 798.54657 4421.6846 1904898
-978.71344 809.7016 4483.4517 2299397
-933.81641 794.11621 4397.1528 2365190
-905.23956 791.91302 4384.9536 3615257
-890.54865 802.0863 4441.2847 2496776
-853.39905 792.03546 4385.6313 2430983
-826.10181 790.78418 4378.7031 2825999
-806.36224 796.92114 4412.6841 2695189
-782.64282 799.4043 4426.4341 656897
-755.29578 798.22583 4419.9087 0
-726.91315 795.82898 4406.6367 65792
-699.92401 794.83594 4401.1382 131072
-670.4342 790.81628 4378.8809 131072
-645.35046 791.87939 4384.7676 262400
-611.43359 781.73834 4328.6147 591105
-595.0238 794.07269 4396.9121 525056
-567.40936 791.89923 4384.877 1576450
-541.19995 791.57196 4383.0649 2036228
-512.21228 786.94342 4357.436 2628620
-491.87427 795.81781 4406.5752 3089171
-466.88184 797.7348 4417.1895 2694414
-432.27234 782.47119 4332.6724 2299657
-407.85745 784.8988 4346.1147 2694413
-384.84283 790.52997 4377.2954 2628363
-358.26321 789.12286 4369.5039 2759691
-333.14102 790.95679 4379.6587 2299397
-307.40002 791.50726 4382.707 2168069
-281.73236 792.36566 4387.46 1904899
-256.70932 795.39587 4404.2388 1641728
-230.87411 796.31073 4409.3042 2826258
-204.73604 796.28119 4409.1406 2892049
-177.86496 792.97504 4390.834 2891791
-150.75148 787.26984 4359.2437 2891019
-124.91766 787.26984 4359.2437 3219726
-99.497902 790.55963 4377.4595 2890762
-73.541153 790.3985 4376.5674 3351312
-47.953388 796.18823 4408.626 3483154
-21.753922 793.52515 4393.8799 2891018
4.3004575 796.36035 4409.5791 2825485
30.261797 791.89172 4384.8354 2956811
56.491043 795.32373 4403.8394 3548949
82.487862 794.34851 4398.4395 3219982
108.22917 791.97192 4385.2798 3614742
133.01166 784.85797 4345.8887 2891789
161.5583 798.6601 4422.3135 5325876
187.11598 795.89581 4407.0068 2825742
211.06718 787.81238 4362.2476 2299398
235.8253 784.17627 4342.1138 2890764
264.76352 793.7879 4395.3354 2891020
289.45605 790.08893 4374.8535 3351569
315.63928 790.7326 4378.4175 3943705
342.19125 792.13202 4386.166 3088397
366.26517 788.00238 4363.2998 3153936
391.90292 787.56012 4360.8511 2759948
417.75983 787.58575 4360.9927 1707009
435.6178 773.4068 4282.4814 2496266
461.87259 774.87628 4290.6182 1838596
484.13809 769.84888 4262.7808 2101766
522.18921 789.17657 4369.8018 2233866
543.87476 783.11353 4336.2295 2497038
571.23669 785.40216 4348.9019 2694417
599.03668 788.0694 4363.6709 2827033
633.849 799.35919 4426.1846 5262921
667.11841 807.88342 4473.3843 6580069
702.74219 818.49817 4532.1602 7502202
740.09509 830.27118 4597.3491 7764860
774.50458 838.02338 4640.2744 7172466
804.5531 840.68713 4655.0239 6382948
831.94183 840.48712 4653.9165 5263952
862.05225 842.96143 4667.6172 5395539
888.86383 842.15649 4663.1597 5000524
910.50897 836.65253 4632.6836 5263696
938.32019 836.97095 4634.4468 5658711
970.69696 841.22784 4658.0176 6185055
980.0127 825.81659 4572.6836 6251363
1009.9175 828.11755 4585.4243 6054240
1034.175 825.78876 4572.5288 6317156
1058.684 823.77429 4561.3745 5988190
1083.6681 822.22076 4552.7725 6909036
1089.8047 806.78967 4467.3281 2895149
1124.0958 812.43927 4498.6108 394759
1149.2559 811.38043 4492.748 65795
1161.9464 801.76544 4439.5083 1513244
1175.1562 792.92657 4390.5659 526351
1199.6293 791.90582 4384.9136 1052185
1225.1602 791.61169 4383.2852 9
1244.6305 787.4953 4360.4922 855319
1263.458 783.14795 4336.4199 855063
1279.6757 777.38843 4304.5283 855062
1292.1029 769.59644 4261.3828 9
1337.204 781.1911 4325.5845 9
1351.0842 774.45349 4288.2773 9
1374.5859 773.37805 4282.3223 8
1398.4669 772.55109 4277.7432 131591
1418.2996 769.55688 4261.1641 131594
1457.993 777.25543 4303.792 5
1483.2963 777.1496 4303.2061 1974052
1491.3344 768.15448 4253.3984 855056
1509.9462 764.81409 4234.9023 1908002
1522.1509 758.39069 4199.335 3618363
1537.7147 753.82074 4174.0303 1973794
1575.6536 760.19049 4209.3008 3553084
1599.6021 759.71704 4206.6792 1381912
1624.0358 759.48517 4205.395 3158325
1625.4247 748.64618 4145.3779 3092533
1680.8925 762.66693 4223.0132 2303016
1673.7388 748.28009 4143.3511 1250328
1678.9171 739.74292 4096.0791 1776928
1708.5142 742.05475 4108.8799 1381916
1734.0128 742.54657 4111.6035 1250073
1746.7704 737.64441 4084.4592 131589
1784.9684 743.47253 4116.7305 920850
1803.4491 741.04169 4103.2705 723727
1824.9438 739.89746 4096.9351 329225
1845.1458 738.26605 4087.9016 1381914
1853.3358 731.93311 4052.835 2
1897.373 739.73816 4096.0527 658192
1923.6573 740.51196 4100.3374 1908002
1946.4622 739.94379 4097.1914 2105126
1969.2269 739.37457 4094.0393 1973540
2014.2036 747.0575 4136.5811 920849
2039.0906 747.19403 4137.3369 1315609
2068.7429 749.0528 4147.6294 2039332
2028.292 725.7829 4018.7803 3552570
2028.2751 717.3537 3972.1064 920850
2050.5601 716.91516 3969.678 1841951
2084.8113 720.62262 3990.2068 1973540
2125.9768 726.61011 4023.3606 1644574
2109.77 713.07373 3948.4075 2434090
2144.7339 716.93958 3969.8132 2434089
2150.5015 711.06769 3937.2998 2434345
2167.7773 709.08636 3926.3286 5066320
2219.2405 718.211 3976.8533 4671565
2222.7983 711.80328 3941.3728 8816780
2254.55 714.4635 3956.1025 263173
2278.0969 714.49548 3956.2798 6249569
2284.8379 709.30963 3927.5649 4407876
2275.6174 699.32324 3872.2688 2105378
2336.0146 710.71692 3935.3572 1776413
2356.4048 709.8338 3930.4673 1973792
2386.8342 711.96259 3942.2546 2039585
2350.0872 694.20636 3843.9358 2829100
2349.1526 687.26849 3805.5195 1710362
2415.6658 700.00739 3876.0569 1381143
2441.3645 700.79053 3880.3933 2500136
2439.4832 693.71625 3841.2217 2631980
2433.5928 685.64313 3796.5193 4671820
2477.2285 691.54358 3829.1914 5657176
2539.4805 702.48682 3889.7859 2499626
2518.4023 690.3891 3822.7988 3157813
2545.2539 691.52942 3829.1128 2894897
2548.2566 686.22717 3799.7534 855056
2552.2031 681.26978 3772.3037 3881535
2596.2861 687.01923 3804.1392 4145220
2603.2002 682.91888 3781.4351 2960946
2616.446 680.53534 3768.2371 4868429
2681.8923 691.6546 3829.8062 4013119
2691.4065 688.28351 3811.1399 2105123
2696.8281 683.93066 3787.0374 2828846
2708.165 681.13733 3771.5703 657678
2754.0142 686.99902 3804.0273 394504
2835.7998 701.65723 3885.1921 2565675
2894.0867 710.31183 3933.1143 1447193
2893.6052 704.51965 3901.042 329222
2887.9355 697.56598 3862.5386 1052433
2875.5962 689.12341 3815.7905 394503
2887.8286 686.65515 3802.1233 262406
2875.2307 678.3667 3756.2288 131074
2883.1626 675.01215 3737.6538 131076
2917.0669 677.7431 3752.7756 65541
2922.7466 673.92462 3731.6323 4
2943.063 673.51318 3729.354 131334
2945.5139 669.0498 3704.6396 328713
2969.3909 669.48322 3707.0396 657678
2988.5767 668.86041 3703.5911 131590
3011.0872 668.98529 3704.2825 65539
2997.543 661.15601 3660.9302 65540
2985.7117 653.81427 3620.2778 65541
2996.4219 651.47827 3607.3433 723471
3008.002 649.3631 3595.6311 1184024
3064.561 656.91943 3637.4717 1052438
3070.2808 653.54846 3618.8059 1381659
3087.5774 652.67133 3613.9492 592145
3083.1047 647.23627 3583.8545 1052696
3134.7947 653.58514 3619.0093 2171177
3133.98 648.97534 3593.4839 1250332
3133.7441 644.54669 3568.9619 3355451
3077.8955 628.81573 3481.8569 7171187
3106.6694 630.46759 3491.0037 1578781
3149.8457 635.00116 3516.1064 789518
3209.3579 642.74664 3558.9946 2697002
3217.5527 640.18066 3544.7864 2894125
3199.001 632.36096 3501.4873 3617594
3202.0679 628.88788 3482.2561 3683386
3295.4238 643.07855 3560.8323 3222836
3304.5195 640.75043 3547.9412 3157300
3324.49 640.54706 3546.8152 985875
3371.8638 645.59308 3574.7559 131333
3364.4424 640.15021 3544.6177 460041
3358.259 635.00897 3516.1499 1183510
0 0 0 0
0 0 0 0
0 0 0 0
0 0 0 0
0 0 0 0
-4016.1951 827.08142 4434.1816 2629907
-4105.7319 851.08905 4562.8921 3353887
-4156.6943 867.36554 4650.1548 2892823
-4117.6729 864.95758 4637.2451 3024666
-4134.9814 874.42926 4688.0249 3419426
-4181.2251 890.18964 4772.52 3287582
-4090.5693 876.81989 4700.8418 2103307
-4036.04 871.06372 4669.9814 3090202
-4025.5002 874.78748 4689.9453 2432271
-3970.5022 868.83441 4658.0298 2563857
-3938.4287 867.84973 4652.7505 2103306
-3961.2129 879.02448 4712.6606 2300686
-3892.0525 869.80969 4663.2583 2629651
-3845.6245 865.57983 4640.5811 3484447
-3825.6914 867.29559 4649.7793 2827540
-3778.0999 862.72034 4625.2505 3156249
-3708.8958 853.10712 4573.7114 3221786
-3732.3816 864.82953 4636.5581 3221528
-3701.6631 864.07281 4632.5015 2958615
-3649.813 858.33533 4601.7412 3024408
-3582.5996 848.87134 4551.0024 3024152
0 0 0 0
0 0 0 0
0 0 0 0
0 0 0 0
0 0 0 0
0 0 0 0
0 0 0 0
0 0 0 0
0 0 0 0
-3349.6772 858.29541 4601.5273 2827288
-3351.4485 865.79773 4641.749 2169102
-3318.3293 864.33624 4633.9136 2629653
-3311.2065 869.67798 4662.5522 2761237
-3244.635 859.36444 4607.2588 2892825
-3252.9092 868.86737 4658.2065 3550755
-3237.4456 872.13837 4675.7427 2958874
-3189.4487 866.62598 4646.1895 2761238
-3221.2944 882.90106 4733.4438 2366739
-3160.4829 873.84308 4684.8823 2365710
-3175.9424 885.8999 4749.5215 3550239
-3114.1562 876.4325 4698.7646 3089689
-3092.241 878.11664 4707.7939 3089688
-3018.4385 864.96265 4637.272 3418909
-3015.0605 871.93323 4674.6431 3484703
-2985.6614 871.43817 4671.9888 2958616
-2951.073 869.40491 4661.0884 3287581
-2933.7241 872.46027 4677.4688 3682340
-2868.6377 861.24182 4617.3237 3945255
-2807.1895 850.91003 4561.9326 2827028
-2799.3777 856.79364 4593.4761 3550237
-2748.8315 849.58478 4554.8276 2827027
-2733.6328 853.26611 4574.564 3023892
-2721.292 857.92224 4599.5269 3023379
-2650.7585 844.14099 4525.6421 2826256
-2655.3284 854.23926 4579.7817 2694414
-2625.3083 853.30353 4574.7646 2365449
-2595.7166 852.48871 4570.3965 2497036
-2574.9114 854.573 4581.5708 2628622
-2577.1228 864.42181 4634.3726 2694674
-2549.6543 864.42041 4634.3652 3287068
-2509.4429 860.05157 4610.9429 1839622
-2457.7188 851.5976 4565.6187 3089175
-2419.9805 847.85529 4545.5552 3484445
-2395.5833 848.75531 4550.3809 2628879
-2381.5186 853.3786 4575.167 2891794
-2355.0554 853.61426 4576.4307 3418395
-2280.6814 836.28729 4483.5366 3089173
-2261.7256 839.11237 4498.6826 2957587
-2230.8828 837.54211 4490.2637 2694415
-2201.5935 836.52417 4484.8066 2957587
-2164.886 832.62823 4463.9194 2562831
-2116.9238 824.25378 4419.022 1905415
-2098.7205 827.40167 4435.8989 2628882
-2075.5317 828.63904 4442.5327 1642244
-2027.1681 819.72827 4394.7598 3287324
-2045.1656 837.76935 4491.4819 2300427
-2003.3812 831.47449 4457.7339 2300426
-1968.262 827.8147 4438.1128 2234634
-1999.088 852.16675 4568.6704 2562828
-1929.6313 833.85229 4470.4819 2431243
-1913.9226 838.57739 4495.8145 2036485
-1902.7307 845.44293 4532.6221 2168071
-1846.0723 832.01349 4460.6235 2760208
-1849.0386 845.45673 4532.6963 2628621
-1777.892 824.90942 4422.5371 2760206
-1751.0966 824.63324 4421.0562 2694413
-1727.4817 825.8692 4427.6826 2562827
-1686.7809 818.84888 4390.0449 2891792
-1654.8993 815.95697 4374.541 3878430
-1641.2534 822.10736 4407.5146 3286550
-1600.4553 814.63617 4367.4595 2562827
-1576.7178 815.74573 4373.4087 2562569
-1540.1967 810.16827 4343.5063 2628362
-1533.7025 820.46429 4398.7056 2496520
-1506.0358 819.59399 4394.04 2562570
-1465.7026 811.67877 4351.6045 2628363
-1453.8768 819.54956 4393.8018 2496776
-1420.925 815.58148 4372.5278 2694156
-1394.176 815.09247 4369.9062 2628362
-1359.7163 809.99158 4342.5591 2430984
-1338.0331 812.4519 4355.749 1970435
-1301.72 805.95081 4320.8955 3483414
-1297.4248 819.41046 4393.0557 3023120
-1264.0646 814.68878 4367.7417 2891534
-1234.8223 812.47919 4355.8955 3088914
-1227.3491 824.80463 4421.9751 2365191
-1195.2585 820.76349 4400.3096 2299141
-1154.4655 810.43292 4344.9248 2891280
-1131.2296 812.23737 4354.5991 2694158
-1103.7628 811.01727 4348.0581 2167815
-1081.6011 813.72998 4362.6016 1904641
-1050.1896 809.44635 4339.6357 2562570
-1017.5938 804.01178 4310.4995 3023121
-985.56433 798.75629 4282.3242 2628362
-965.23004 802.95209 4304.8184 3352085
-946.14117 808.43976 4334.2393 3286291
-920.09546 808.12341 4332.5435 3351825
-890.64362 804.71149 4314.2515 4010009
-868.24664 807.66052 4330.0615 4075546
-829.89246 795.49341 4264.8306 3614996
-812.24329 803.03198 4305.2471 2365190
-791.25403 807.65027 4330.0068 2694414
-746.64551 787.66144 4222.8418 1840136
-737.2453 804.71667 4314.2793 1643273
-710.00525 802.82538 4304.1392 460032
-687.73865 806.62616 4324.5161 657155
-657.00372 800.40454 4291.1606 65536
-639.5376 810.4978 4345.2729 788484
-600.5437 793.01074 4251.5205 1116933
-585.05151 806.38483 4323.2222 1050624
-556.16119 801.67139 4297.9521 2300171
-530.2674 801.03198 4294.5244 2496777
-500.26309 793.80579 4255.7832 2694413
-468.5611 782.97534 4197.7188 3154707
-449.14627 792.61377 4249.3926 2825999
-426.95807 798.21228 4279.4072 3023378
-403.79578 802.58179 4302.8335 2825742
-379.59332 805.33356 4317.5864 3088914
-349.27539 794.57104 4259.8857 2759948
-326.73654 801.20679 4295.4619 2758921
-298.50742 793.83173 4255.9219 2825741
-277.39011 805.75348 4319.8374 2167814
-253.04173 809.75964 4341.3154 2891534
-226.67932 807.49811 4329.1909 2365191
-200.0985 803.78204 4309.2681 3154706
-175.62189 808.6676 4335.4609 2298886
-148.45995 800.7439 4292.98 2694155
-122.87608 799.8147 4287.998 2298371
-95.496826 783.66772 4201.4302 1904130
-72.625145 806.16693 4322.0542 2890764
-46.426407 796.1297 4268.2422 3615000
-21.179304 797.91583 4277.8179 2036484
4.2520361 813.23163 4359.9297 3483675
30.190287 815.94458 4374.4741 655616
55.860626 812.25513 4354.6943 1246977
81.430817 809.90131 4342.0752 2365451
106.17443 802.43103 4302.0249 2891537
132.42342 807.02783 4326.6694 2628363
155.49338 793.90198 4256.2988 1181953
179.47034 788.42487 4226.9346 2233866
203.94044 786.19055 4214.9556 1904900
228.6606 785.30243 4210.1943 2102282
254.49507 788.03961 4224.8691 4536616
284.59836 802.32086 4301.4341 4207650
311.61646 806.27142 4322.6143 3615255
335.09573 801.16113 4295.2168 3548948
361.98645 804.35272 4312.3276 3548691
386.87262 802.96301 4304.877 3088397
403.50064 785.66547 4212.1411 3285521
426.85532 782.71814 4196.3394 3417365
460.02374 797.09985 4273.4434 3219985
478.89026 786.49237 4216.5742 3220499
503.18445 785.40894 4210.7656 3286550
527.51483 784.48175 4205.7944 3154450
557.04553 791.02271 4240.8623 3022864
579.72888 787.69531 4223.0234 2760207
608.50293 792.57648 4249.1924 3155996
644.65613 806.29907 4322.7627 3354923
678.99615 816.79163 4379.0156 5922907
719.04608 833.1275 4466.5962 8028545
756.95917 845.91534 4535.1548 7567737
788.72131 851.18811 4563.4233 6252137
806.90735 841.9458 4513.873 6580845
833.58679 841.87427 4513.4897 6580845
866.64905 848.05316 4546.6162 6646894
880.98273 836.08527 4482.4536 6646635
913.00482 841.11365 4509.4116 6843758
931.03979 833.33661 4467.7173 7106929
981.367 854.09412 4579.0029 7436153
988.66772 837.29559 4488.9424 7699324
1006.3727 829.95782 4449.603 7633529
1042.54 837.83191 4491.8179 7436151
1066.4001 835.66962 4480.2251 6778220
1086.0488 830.39227 4451.9321 6843244
1092.2748 815.3457 4371.2637 6184801
1128.8403 823.11908 4412.9385 526345
1153.0961 821.76764 4405.6934 328713
1166.6266 813.00183 4358.6978 262666
1185.8872 808.52252 4334.6831 789527
1214.5017 810.47528 4345.1523 328973
1212.7985 792.53497 4248.9702 1842214
1224.4073 783.8468 4202.3906 592146
1248.4603 783.31281 4199.5273 263178
1267.7521 779.87061 4181.0732 2829108
1306.9309 788.55963 4227.6572 6
1338.2086 792.24426 4247.4111 1381663
1349.7272 784.31091 4204.8784 1578786
1376.4081 785.3161 4210.2681 394767
1381.554 774.21747 4150.7651 1842212
1424.0081 784.04877 4203.4731 789523
1460.9725 790.57129 4238.4424 1842211
1454.6798 773.86151 4148.8569 2434603
1481.0043 774.77045 4153.73 2237224
1502.6439 773.23889 4145.519 7303283
1507.8108 763.41632 4092.8579 5263702
1565.8602 780.2558 4183.1382 4868943
1581.2179 775.62891 4158.3325 4408393
1601.5433 773.54346 4147.1519 3881791
1617.0525 769.22992 4124.0259 1841952
1638.0768 767.62933 4115.4448 1052692
1650.1597 761.94702 4084.9807 3
1645.3363 748.73566 4014.1514 197640
1657.9209 743.70978 3987.2063 262920
1691.7168 748.2063 4011.3135 131332
1751.7925 764.0401 4096.2021 3
1749.514 752.61725 4034.9614 592398
1772.3883 752.17682 4032.6001 855569
1790.2605 749.65344 4019.072 789778
1818.2721 751.38654 4028.3633 1184536
1845.9644 752.9444 4036.7153 65796
1864.8009 750.89648 4025.7361 65794
1885.4127 749.60608 4018.8176 3158070
1926.0895 756.22589 4054.3081 986643
1962.326 760.96069 4079.6926 1578781
1961.9689 751.56238 4029.3062 2499883
1969.8838 745.52081 3996.9158 657681
1995.015 746.0611 3999.8125 855061
2005.2589 741.08673 3973.1436 1512735
2006.2377 732.84338 3928.949 3420732
2021.963 730.11407 3914.3167 3486525
2034.5724 726.33435 3894.0525 2434091
2072.4568 731.56128 3922.0752 1579035
2117.052 739.01483 3962.0354 3092020
2130.6309 735.59656 3943.7092 2434090
2145.5708 732.71716 3928.2722 3289399
2121.4424 716.70099 3842.4058 3749692
2178.698 728.22742 3904.2017 3486776
2223.9128 735.52936 3943.3491 6645097
2190.2659 716.8681 3843.3015 2697263
2269.0549 735.01233 3940.5771 5329493
2238.3064 717.66589 3847.5789 2829358
2263.0083 718.26898 3850.8123 5066063
2296.4272 721.59924 3868.6665 3420983
2326.1038 723.69934 3879.9255 4802894
2332.2292 718.50275 3852.0654 3684668
2363.3013 721.01788 3865.5496 3750461
