# .PCD v0.7 - Point Cloud Data file format
VERSION 0.7
FIELDS x y z rgb
SIZE 4 4 4 4
TYPE F F F U
COUNT 1 1 1 1
WIDTH 1281
HEIGHT 1
VIEWPOINT 0 0 0 1 0 0 0
POINTS 1281
DATA ascii
790.47369 709.19958 5097.9624 7436924
852.07739 736.32721 5292.9648 7371388
898.59735 748.9566 5383.749 7371388
908.5567 731.29242 5256.7734 7305338
950.65375 739.80945 5317.9961 7568511
980.57806 738.61084 5309.3804 7700096
1011.6183 738.30115 5307.1543 8029058
1035.6846 733.07391 5269.5791 8752780
1065.5049 732.10626 5262.623 7897213
1084.261 723.80762 5202.9697 8225921
1114.2935 723.28741 5199.2305 7304305
1170.8303 739.53619 5316.0322 7369070
1169.464 719.3183 5170.6992 2828839
1163.4667 697.35706 5012.8345 2827810
1178.9523 689.04517 4953.0859 2301466
1207.6027 688.64453 4950.2061 2038294
1220.7882 679.65302 4885.5718 2563865
1189.0935 646.67065 4648.4839 2234897
1209.2361 642.73462 4620.1904 3221534
1225.8383 637.13269 4579.9219 2037516
1247.9229 634.56122 4561.437 2760981
1238.9309 616.63159 4432.5532 3484957
1243.7936 606.19904 4357.5601 5326903
1254.2317 598.85284 4304.7534 4669228
1276.2579 597.22217 4293.0317 4536615
1325.6907 608.22949 4372.1558 4931374
1308.1497 588.67609 4231.5996 4470567
1316.5579 581.31598 4178.6924 4404774
1338.4215 580.05902 4169.6572 3746844
1361.2012 579.23755 4163.752 3746843
1365.0392 570.52838 4101.1479 3944222
1369.374 562.32806 4042.2009 4865323
1374.0607 554.55164 3986.3015 4010015
1381.1479 547.99054 3939.1384 3154706
1394.8757 544.23859 3912.1677 3088913
1411.6901 541.79382 3894.594 3154707
1433.9319 541.47717 3892.3181 2825742
1451.1405 539.30011 3876.6687 3023123
1492.5115 546.03052 3925.0493 2826000
1511.8517 544.61829 3914.8975 2694674
1539.9336 546.35016 3927.3467 2497555
1538.49 537.71118 3865.2466 1971725
1606.7784 553.33978 3977.5903 1577484
1646.8158 558.92804 4017.761 1315084
1676.2209 560.79999 4031.2168 1315858
1819.0452 600.0318 4313.228 2763306
2027.8306 659.63275 4741.6597 5263697
2081.199 667.73999 4799.937 4210754
2065.7886 653.85876 4700.1543 4408133
2104.4614 657.23761 4724.4424 723982
2137.5334 658.80139 4735.6836 1052946
2158.229 656.55963 4719.5688 789775
2187.0398 656.81244 4721.3862 460810
2222.1687 658.93225 4736.624 2171430
2249.2588 658.64514 4734.5605 1776672
2300.9514 665.48077 4783.6973 2171430
2329.3308 665.48944 4783.7593 4276806
2327.8469 657.06854 4723.2271 2171175
2393.6995 667.62854 4799.1362 2960694
2423.0854 667.8891 4801.0088 4342346
2447.575 666.80963 4793.2495 6052965
2460.2778 662.58063 4762.8501 3355195
2438.5566 649.28192 4667.2544 1513246
2454.189 646.1156 4644.4941 329226
2471.3472 643.41687 4625.0942 1710880
2533.2141 652.28955 4688.874 2303017
2612.5364 665.41553 4783.228 329223
2584.4417 651.19421 4681.0005 1250329
2633.4402 656.49359 4719.0942 3816256
2596.3901 640.45593 4603.8101 1908003
2637.9995 643.95306 4628.9487 2105381
2658.3171 642.23425 4616.5933 1973282
2669.7437 638.42426 4589.2061 591885
2697.5198 638.5614 4590.1919 3092020
2699.9705 632.76068 4548.4941 2236711
2707.7803 628.31812 4516.5596 4079172
2769.7087 636.39734 4574.6357 2434091
2824.9221 642.79205 4620.603 2302761
2814.8071 634.34161 4559.8584 1447452
2809.3711 627.09631 4507.7769 723726
2767.3352 611.89478 4398.5029 987155
2841.6492 622.46338 4474.4736 3158582
2934.5964 636.88049 4578.1089 329224
2965.7222 637.7395 4584.2837 262920
2945.551 627.65234 4511.7739 3
3019.4917 637.62018 4583.4258 3
3053.2576 639.00214 4593.3599 789521
3086.7634 640.30579 4602.731 328969
3059.5286 629.09717 4522.1597 986643
3160.2854 644.17224 4630.5244 1447707
3232.6548 653.25128 4695.7871 1644572
3214.7063 644.07959 4629.8584 3552823
3245.2285 644.69244 4634.2637 986642
3285.2305 647.16241 4652.0186 2565674
3291.9255 643.08472 4622.7065 2236709
3319.7217 643.16235 4623.2646 1907744
3352.3298 644.16339 4630.4609 4013122
3357.4824 639.91534 4599.9243 3092017
3381.0339 639.21417 4594.8843 1315606
3398.4363 637.37097 4581.6348 1973793
3343.0986 622.02295 4471.3076 1249815
3429.144 633.01526 4550.3242 789006
3386.1716 620.20538 4458.2427 525834
3415.2559 620.68951 4461.7227 1052436
3476.4575 626.95837 4506.7852 2
3534.1985 632.51227 4546.7085 1184277
3551.1626 630.73956 4533.9658 2565931
3538.1782 623.71417 4483.4648 3026736
3553.7256 621.78558 4469.6016 1710876
3632.6572 630.89362 4535.0732 4671562
3759.0996 648.05865 4658.4609 4934735
3626.6619 620.66846 4461.5713 3553084
3630.4167 616.81421 4433.8657 4539722
3716.3027 626.86926 4506.145 3618621
3671.4185 614.87982 4419.9604 2894898
3747.4846 623.17316 4479.5757 3618877
3744.843 618.35352 4444.9307 3486521
3767.7329 617.78754 4440.8623 2171430
3756.5974 611.68903 4397.0239 2500396
3811.2673 616.31592 4430.2837 5000530
3796.3281 609.70001 4382.7266 3026740
3837.4038 612.10907 4400.0435 2763568
3902.5107 618.29297 4444.4956 2434603
4024.6204 633.36462 4552.8354 1710626
3919.7571 612.75415 4404.6807 1381661
3923.2466 609.24243 4379.4375 2302763
3952.7864 609.79572 4383.4146 1908005
3944.9575 604.61456 4346.1704 1644833
4032.5696 614.03326 4413.875 2368556
4153.4248 628.35974 4516.8589 526351
4121.9707 619.60797 4453.9482 197385
4121.4907 615.59375 4425.0928 328971
4120.5752 611.56586 4396.1387 65798
4065.7009 599.63031 4310.3423 723731
4054.5828 594.25696 4271.7168 921110
4087.6775 595.39014 4279.8623 723472
0 0 0 0
0 0 0 0
0 0 0 0
0 0 0 0
0 0 0 0
-3960.4182 634.20416 4372.5996 3024924
-3965.3826 639.18134 4406.915 2959131
-3934.3308 638.38049 4401.3936 2892569
-3925.8262 641.25189 4421.1909 2629651
-3886.1033 639.02832 4405.8604 2629651
-3874.8665 641.49066 4422.8369 2695187
-3843.8372 640.68744 4417.2993 2629138
-3820.5364 641.17029 4420.6284 2431759
-3780.4602 638.82507 4404.459 2694931
-3759.4514 639.69171 4410.4341 2760724
-3696.5681 633.39532 4367.0229 2760981
-3657.7661 631.16559 4351.6499 2628882
-3625.3203 630.00867 4343.6733 2431759
-3591.1018 628.52502 4333.4443 2892309
-3571.031 629.51404 4340.2627 2958103
-3548.6243 630.1026 4344.3208 3155483
0 0 0 0
-3542.3926 638.25714 4400.5435 2892564
-3528.5344 640.47534 4415.8369 2892564
-3510.8945 642.03516 4426.5913 2827027
-3495.3569 644.00568 4440.1772 2498063
-3457.8557 641.92883 4425.8579 3155736
-3433.9453 642.36243 4428.8477 2432011
-3443.6973 649.14819 4475.6328 3221527
-3385.8235 643.19269 4434.5718 3748127
-3329.7822 637.49481 4395.2876 3682078
-3296.1775 636.03656 4385.2334 3353369
-3305.0955 642.82562 4432.041 3616284
-3260.2407 639.18103 4406.9131 4077091
-3238.6851 640.0824 4413.1279 3616286
-3214.3911 640.45282 4415.6816 4076836
-3173.2495 637.44501 4394.9438 3024151
-3161.8943 640.42041 4415.458 2761234
-3115.3176 636.25201 4386.7188 2695442
-3148.886 648.51959 4471.2988 2892822
-3114.4314 646.86694 4459.9048 3748387
-3076.3403 644.42432 4443.0635 3419165
-3040.2036 642.35242 4428.7788 2892821
-3020.4871 643.74396 4438.373 2498065
-2991.4614 643.15857 4434.3364 2300687
-2975.7395 645.44836 4450.124 3221788
-3004.8838 657.59784 4533.8901 3090201
-2970.6611 655.974 4522.6943 3155995
-2926.7827 652.16895 4496.46 2892824
-2864.333 644.1178 4440.9502 3550755
-2854.6111 647.88446 4466.9199 3616548
-2826.1865 647.43713 4463.8359 3221790
-2765.1814 639.44714 4408.748 2827032
-2776.1536 648.10815 4468.4624 2761239
-2794.05 658.56818 4540.5801 2629653
-2800.0637 666.40344 4594.6016 2761239
-2755.1072 662.14282 4565.2261 3748134
-2755.7024 668.85388 4611.4961 2366481
-2697.5522 661.2981 4559.4019 1905673
-2681.6277 664.04559 4578.3452 2629138
-2658.929 665.15472 4585.9917 3089689
-2598.9146 656.85541 4528.7715 3089943
-2535.2126 647.44122 4463.8643 2431500
-2490.2078 642.65381 4430.8564 3089171
-2459.4324 641.47559 4422.7334 3352086
-2474.6611 652.40021 4498.0542 3090200
-2437.8975 649.7066 4479.4829 3287322
-2459.186 662.59509 4568.3442 2760979
-2372.4692 646.34595 4456.3125 2497806
-2371.3713 653.31927 4504.3911 2366219
-2372.5088 661.07422 4557.8584 2958357
-2319.4878 653.74329 4507.3145 2892309
-2317.2583 660.72382 4555.4424 2760979
-2329.4006 672.01508 4633.2915 2497805
-2234.5164 652.33105 4497.5776 2892564
-2207.7656 652.30237 4497.3799 2366219
-2204.9209 659.42249 4546.4702 2826001
-2170.1501 657.05261 4530.1309 3088917
-2117.5896 649.16962 4475.7808 2826259
-2105.1416 653.53967 4505.9106 2365708
-2088.2808 656.6344 4527.2476 2431243
-2080.6721 662.75684 4569.4595 2497036
-2051.7446 662.16046 4565.3477 2628622
-2010.1167 657.39459 4532.4888 3089430
-2001.8291 663.55096 4574.9346 1576192
-1971.8635 662.5921 4568.3237 2168071
-1948.4028 663.82275 4576.8086 2497036
-1920.965 663.71405 4576.0591 2168072
-1910.4767 669.5423 4616.2427 2628622
-1870.4335 665.03168 4585.1436 3154709
-1814.4028 654.61993 4513.3584 2562829
-1803.9211 660.57617 4554.4243 2497035
-1757.4232 653.32428 4504.4253 2036485
-1737.0616 655.71472 4520.9067 1707521
-1713.1016 656.80042 4528.3921 1575936
-1700.9521 662.52087 4567.8325 1970694
-1650.1644 653.13348 4503.1099 1904643
-1630.951 656.13989 4523.8379 2299655
-1596.8645 653.16321 4503.3149 2496777
-1554.4384 646.61627 4458.1763 2430727
-1549.9382 655.89227 4522.1309 1970436
-1521.0804 655.00574 4516.0186 2168071
-1479.671 648.58569 4471.7549 2036485
-1466.9915 654.75439 4514.2856 1575937
-1444.6029 656.73834 4527.9644 2167556
-1414.2825 655.12323 4516.8286 2365190
-1386.0529 654.43292 4512.0693 2430982
-1351.8589 650.84406 4487.3252 2562569
-1322.8438 649.65448 4479.1235 2759434
-1302.2988 652.66107 4499.853 2890764
-1272.0178 650.81213 4487.105 2890764
-1241.0186 648.50873 4471.2241 2824970
-1214.8948 648.70831 4472.6001 2694155
-1189.7566 649.45465 4477.7461 2759947
-1153.4852 644.01917 4440.2705 2759949
-1128.9723 645.04828 4447.3657 2628363
-1106.4961 647.31799 4463.0146 2891535
-1084.7491 650.13605 4482.4438 2365191
-1056.1591 648.89124 4473.8613 2562569
-1033.004 651.00745 4488.4517 2694156
-1014.8281 656.45636 4526.02 2694155
-987.97662 656.43689 4525.8857 2496520
-961.30121 656.53662 4526.5732 2299398
-938.72217 659.51996 4547.1426 2759435
-912.71191 660.19781 4551.8159 2693899
-891.14313 664.22742 4579.5986 2759949
-860.1402 661.25745 4559.1221 2497033
-834.87769 662.65112 4568.7305 2431241
-799.29395 655.67145 4520.6084 2431243
-768.41846 652.20392 4496.7012 2168072
-747.87244 657.5694 4533.6943 1773829
-725.57452 661.73718 4562.4292 1905929
-694.26227 657.68799 4534.5117 2103309
-677.25049 667.40533 4601.5093 393728
-653.73279 671.25775 4628.0698 1116162
-628.14771 673.23187 4641.6807 3221019
-604.69641 677.77832 4673.0269 2825999
-573.78613 673.99951 4646.9736 2825485
-548.05554 676.2309 4662.3579 3286293
-520.77356 676.68323 4665.4766 3023121
-496.03809 680.68073 4693.0381 2957072
-466.06958 677.54565 4671.4229 2826001
-441.63858 682.57312 4706.085 1773829
-413.61871 682.3576 4704.5996 1708294
-392.10327 693.61713 4782.2295 2037001
-356.15302 679.10693 4682.1875 2629139
-336.47049 695.78479 4797.1748 2037258
-313.08081 707.16742 4875.6538 2826002
-282.59796 703.21411 4848.3975 1248771
-249.87314 692.15564 4772.1533 2299658
-219.03096 684.15509 4716.9927 2431244
-193.87947 694.18921 4786.1738 2365450
-162.92418 683.32056 4711.2388 3286295
-133.4987 675.69965 4658.6953 2891535
-106.58347 680.12299 4689.1924 2496777
-78.974167 681.67542 4699.896 2957328
-51.298191 684.03046 4716.1328 3023121
-23.352863 684.13232 4716.8354 4207654
4.5480347 676.38763 4663.4385 3352602
32.18029 676.29773 4662.8188 3944739
59.856899 676.79242 4666.2295 2497805
88.216728 682.25842 4703.9155 2761239
118.13783 694.27466 4786.7632 2235409
146.10497 692.37799 4773.686 1973779
172.7643 685.90442 4729.0532 1843745
0 0 0 0
0 0 0 0
0 0 0 0
0 0 0 0
319.93066 701.336 4835.4482 2759953
346.93002 698.00317 4812.4697 3483933
364.80688 678.21692 4676.0508 4339753
412.38605 712.54584 4912.7358 4208166
439.18292 708.80634 4886.9531 2892049
463.18231 701.29388 4835.1577 3155223
484.61075 690.99097 4764.123 3088916
515.66229 694.78827 4790.3042 2957074
550.01959 702.41101 4842.8599 2826001
573.77692 696.41217 4801.5 2694671
601.29376 695.32751 4794.022 3089173
627.01959 692.36322 4773.5845 2628624
662.58844 700.05438 4826.6123 2892825
708.56396 717.64917 4947.9214 2762011
717.69733 698.01379 4812.543 3158314
770.62463 720.8443 4969.9507 6646891
825.80096 744.0202 5129.7397 7568766
864.16284 750.93896 5177.4419 7700096
892.94739 749.34607 5166.46 7568766
923.40863 749.21936 5165.5859 7502718
959.9256 753.85638 5197.5566 7831938
986.2981 750.48602 5174.3193 8292233
1013.7463 748.11273 5157.9565 8358282
1034.1737 740.84906 5107.876 8292488
1062.8615 739.74756 5100.2812 7765886
1104.468 747.44977 5153.3853 7765372
1117.8281 736.13611 5075.3818 6843757
1171.5028 751.26843 5179.7134 6382691
1146.8215 716.66241 4941.1182 3158320
1187.0859 723.35449 4987.2573 920588
1208.8412 718.71686 4955.2827 657161
1186.8905 688.93005 4749.9141 656904
1197.6731 679.08325 4682.0239 2169113
1207.6166 669.21735 4614.0024 1906452
1234.6572 669.05322 4612.8706 985092
1249.3258 662.33704 4566.5654 2103312
1248.2614 647.74158 4465.9351 4406064
1249.3496 634.84613 4377.0254 4471596
1252.158 623.33148 4297.6362 3944995
1258.1029 613.80609 4231.9624 4405031
1286.1821 615.24103 4241.856 4405032
1311.1062 615.14056 4241.1631 3549724
1299.0273 598.00952 4123.0513 3944481
1309.2042 591.56738 4078.635 3483418
1342.8821 595.78528 4107.7158 3812637
1352.688 589.4505 4064.0398 4865323
1354.0623 579.72742 3997.0027 4865321
1371.1871 576.96619 3977.9651 4733224
1383.5897 572.34479 3946.1023 3220499
1376.3917 559.90375 3860.3262 3088913
1404.4415 561.97351 3874.5964 2364934
1420.6796 559.32642 3856.3455 2694156
1447.0131 560.6748 3865.6423 2957587
1471.6509 561.33441 3870.1897 3154967
1492.8359 560.67688 3865.6567 2958102
1519.2874 561.98737 3874.6919 2629140
1545.7758 563.27228 3883.551 2432019
1564.2001 561.62415 3872.1873 1905678
1604.9419 567.92078 3915.6006 1248779
1642.9741 573.0929 3951.26 657672
1774.2793 610.19739 4207.0815 3158064
1825.9556 619.26758 4269.6172 3882045
2012.7367 673.284 4642.04 5395543
2044.3619 674.64209 4651.4038 3882047
2078.196 676.68335 4665.4775 5527130
2093.5825 672.74304 4638.3105 3355961
2119.0303 672.09613 4633.8501 1250328
2147.1599 672.30542 4635.2935 395020
2174.9939 672.41797 4636.0693 263431
2183.7556 666.70502 4596.6807 460555
2238.2273 674.91614 4653.2935 1513500
2273.771 677.28937 4669.6558 1974050
2288.845 673.58154 4644.0918 1316122
2337.7659 679.8042 4686.9946 986901
2339.6733 672.37012 4635.7393 3092279
2330.4812 661.95581 4563.9365 2434349
2366.4167 664.45166 4581.1445 2368556
2396.2273 665.19055 4586.2388 3158072
2406.2271 660.4751 4553.7275 1513501
2439.3796 662.14886 4565.2676 461069
2465.7593 661.96759 4564.0181 1052950
2545.1084 675.85638 4659.7759 2368810
2555.1528 671.24066 4627.9521 2368810
2546.645 661.901 4563.5586 1447965
2612.4473 671.86859 4632.2817 789520
2586.103 658.17725 4537.8848 3
2622.6699 660.61414 4554.686 460300
2617.4907 652.59314 4499.3848 855061
2630.6125 649.25079 4476.3403 2039076
2626.4832 641.75995 4424.6938 2303016
2673.2002 646.71832 4458.8799 723727
2751.2732 659.09125 4544.1865 5329237
2796.7393 663.48871 4574.5054 2237223
2815.4126 661.50653 4560.8394 1381401
2815.3918 655.21155 4517.4375 3684413
2791.1658 643.45502 4436.3804 921105
2865.5671 654.4425 4512.1353 1973794
2911.0759 658.68933 4541.4155 2828847
2915.6833 653.68842 4506.936 2500395
2928.9258 650.69666 4486.3091 1842722
2950.6648 649.62933 4478.9502 1579294
2981.385 650.54071 4485.2339 1052947
2971.5642 642.66815 4430.9556 1052690
3023.1331 648.09406 4468.3652 2697518
3051.4177 648.47748 4471.0088 921362
3074.2456 647.70465 4465.6802 1841696
3114.1118 650.50403 4484.981 4736844
3192.323 661.19824 4558.7134 2697261
3142.5591 645.42896 4449.9902 1249815
3201.3625 652.03448 4495.5327 1710366
3243.4854 655.16162 4517.0933 723471
3220.7229 645.23834 4448.6763 986899
3215.801 639.02155 4405.8135 2894640
3338.9211 658.14355 4537.6523 920849
3278.2915 641.02985 4419.6602 131334
3278.6519 636.01886 4385.1113 2
3285.9453 632.42108 4360.3057 460301
3345.8481 638.92572 4405.1528 6
3373.5505 639.22827 4407.2388 65542
3407.4666 640.69446 4417.3477 7
3425.6958 639.21118 4407.1211 6
3443.2053 637.61719 4396.1309 4
3469.7119 637.70062 4396.7065 1315863
3560.835 649.57025 4478.543 1052948
3590.6619 650.16534 4482.6455 2829358
3538.668 636.04498 4385.291 1645341
3579.2749 638.65344 4403.2754 2960686
3602.7397 638.18756 4400.0635 3092273
3677.6172 646.77014 4459.2373 3420982
3642.7109 636.06073 4385.3999 2105635
3677.2349 637.54053 4395.6025 3026740
3581.647 616.60004 4251.2256 3618364
3690.0256 630.82074 4349.272 3289913
3672.2515 623.42755 4298.2988 1908258
3673.0225 619.26294 4269.5854 1645343
3832.625 641.75067 4424.6299 5855839
3775.272 627.85175 4328.8018 3092533
3813.7935 629.97729 4343.457 3224377
3799.8328 623.46332 4298.5454 3290170
3809.1628 620.83215 4280.4043 4474446
3769.759 610.3454 4208.1025 723728
3897.8171 626.9314 4322.4565 2039591
3888.4797 621.34619 4283.9487 2039591
3921.0476 622.48608 4291.8076 1644835
4005.0427 631.72302 4355.4932 1513249
4041.7759 633.43469 4367.2944 2039592
4053.71 631.26276 4352.3193 3092280
4046.8611 626.21173 4317.4946 3289659
4058.8621 624.12268 4303.0918 921109
3970.8125 606.7713 4183.4604 855317
4017.0784 610.03235 4205.9438 1184281
0 0 0 0
0 0 0 0
0 0 0 0
0 0 0 0
0 0 0 0
-3884.1531 647.4054 4288.3975 2827545
-3853.1472 646.46716 4282.1826 2827545
-3770.6677 636.82324 4218.3013 3616548
-3874.3337 658.6983 4363.2012 3155995
-3776.3828 646.35883 4281.4648 3419167
-3770.8064 649.77014 4304.061 2958616
-3732.1421 647.48737 4288.9404 2629651
-3668.9419 640.88751 4245.2231 2893078
-3642.3818 640.64087 4243.5894 3682338
-3660.1016 648.23322 4293.8809 3221786
-3577.5168 638.04266 4226.3789 3221786
-3547.3423 637.1217 4220.2783 3089432
-3538.1882 639.98975 4239.2764 2892310
-3512.9609 639.97076 4239.1504 2629139
-3504.4946 643.02686 4259.394 2629392
-3521.3523 650.80762 4310.9336 3353115
0 0 0 0
-3484.1946 653.42139 4328.2471 3221529
-3489.3628 659.2439 4366.8154 2365963
-3470.1863 660.51959 4375.2656 2497034
-3457.3401 663.0285 4391.8843 2102533
-3416.7869 660.22162 4373.2915 2299654
-3386.0098 659.27533 4367.0234 2366218
-3368.0884 660.83691 4377.3672 2695183
-3302.3049 652.95898 4325.1841 2826769
-3263.4626 650.32648 4307.7466 3221527
-3222.8799 647.30286 4287.7183 3287320
-3207.2751 649.28784 4300.8667 3287320
-3194.9475 651.97339 4318.6558 3155734
-3151.3491 648.26947 4294.1211 3221271
-3114.3357 645.87103 4278.2339 3353628
-3134.9846 655.48962 4341.9473 3748385
-3103.5376 654.28461 4333.9653 3814177
-3074.6218 653.5976 4329.4146 3419419
-3058.9219 655.73212 4343.5532 3945505
-3037.9592 656.76501 4350.3955 3880482
-3001.0884 654.34717 4334.3794 4011812
-3042.8762 669.18604 4432.6719 3813921
-2965.1057 657.76123 4356.9941 3616800
-2953.7629 661.0011 4378.4551 2892567
-2912.8152 657.61462 4356.0229 3222044
-2921.9614 665.57819 4408.7734 3616548
-2883.8828 662.8313 4390.5781 2169872
-2849.4045 660.86938 4377.5825 2827803
-2836.4731 663.91479 4397.7554 3287585
-2828.9678 668.29858 4426.7935 3024669
-2785.8953 664.28357 4400.1978 1972236
-2771.2986 667.04675 4418.501 3090460
-2713.2627 659.30713 4367.2339 3419681
-2698.2107 661.96387 4384.8325 2629653
-2699.979 668.83911 4430.3735 3090203
-2658.8027 665.10657 4405.6494 3419169
-2697.0105 681.35504 4513.2793 3353377
-2643.7864 674.59894 4468.5269 3287582
-2598.2673 669.69208 4436.0239 3024408
-2557.9771 666.04639 4411.875 3155736
-2538.4507 667.78772 4423.4097 2629392
-2447.8652 650.67694 4310.0679 3221272
-2469.5596 663.36548 4394.1167 3747103
-2430.2083 659.75189 4370.1802 3483931
-2383.5022 654.04224 4332.3599 2562829
-2377.0039 659.36157 4367.5947 3023380
-2346.1091 657.95612 4358.2852 3747102
-2304.6982 653.53735 4329.0151 2891536
-2308.0374 661.85156 4384.0884 3023122
-2279.9885 661.25189 4380.1162 2695186
-2245.979 658.88971 4364.4692 3024150
-2237.2209 663.96674 4398.0991 2629138
-2268.7717 681.26727 4512.6978 2102795
-2193.4253 666.49866 4414.8706 919041
-2180.1431 670.45996 4441.1104 787457
-2142.4758 666.92743 4417.7109 2431761
-2123.165 669.09222 4432.0503 2168588
-2077.4885 662.89838 4391.0225 1576451
-2059.8027 665.5921 4408.8657 1576452
-2036.8582 666.63397 4415.7671 1773830
-2020.1581 669.77338 4436.562 1642243
-1963.7954 659.672 4369.6514 1839622
-1974.6174 672.1709 4452.4434 1708036
-1927.5649 665.04065 4405.2129 1839622
-1896.4005 663.27148 4393.4941 2299656
-1878.8762 666.29028 4413.4902 3220759
-1830.891 658.43964 4361.4878 3352343
-1832.3738 668.40894 4427.5244 3023121
-1788.2676 661.79651 4383.7236 2825742
-1759.7661 660.84924 4377.4487 2628621
-1763.0557 671.99072 4451.25 2562828
-1736.6104 671.96509 4451.0801 2234121
-1717.4581 674.8042 4469.8862 1510146
-1675.0837 668.46515 4427.8965 1708037
-1636.8383 663.59814 4395.6577 1444865
-1619.7621 667.29492 4420.145 2037512
-1570.9771 657.83545 4357.4858 1642242
-1558.8267 663.65662 4396.0449 1904899
-1528.8895 661.97437 4384.9019 2431243
-1508.3125 664.35675 4400.6826 2299400
-1493.551 669.42957 4434.2852 2628622
-1456.726 664.6178 4402.4121 3286552
-1433.894 666.13129 4412.437 2497036
-1406.4016 665.49554 4408.2261 3023377
-1380.2775 665.49554 4408.2261 2628619
-1338.0656 657.58917 4355.8545 2759948
-1317.5509 660.24463 4373.4443 2430983
-1292.6749 660.77728 4376.9722 2299397
-1262.2513 658.43787 4361.4761 2430983
-1238.9479 659.79248 4370.4492 2693898
-1212.7423 659.62634 4369.3486 3022607
-1177.444 654.39948 4334.7261 2299397
-1162.6783 660.60553 4375.835 2233606
-1123.7246 653.03821 4325.709 2102020
-1108.2582 659.08557 4365.7666 2694155
-1075.774 655.05957 4339.0986 2694412
-1063.3647 663.35968 4394.0781 2167811
-1032.1166 660.0293 4372.0176 2036226
-1007.4224 660.82648 4377.2983 2102019
-986.26019 664.04395 4398.6108 2167813
-967.99158 669.43713 4434.335 1706752
-929.60358 660.8291 4377.3154 1838593
-909.46057 665.06897 4405.4004 1772801
-880.04144 662.57562 4388.8843 2233095
-865.11646 671.17511 4445.8472 2299144
-836.72424 669.53857 4435.0068 1575937
-810.87897 669.89996 4437.4009 2628879
-790.48303 674.93854 4470.7764 1115904
-757.29419 669.02472 4431.603 1970950
-734.22559 671.94781 4450.9658 2037000
-705.92639 670.12347 4438.8813 2760723
-683.0741 673.52863 4461.437 2695445
-666.93695 684.09601 4531.4351 1511687
-637.87854 681.7403 4515.8311 984833
-608.38995 678.69836 4495.6812 2958617
-597.36151 696.91437 4616.3438 2957844
-560.6391 685.46436 4540.499 2102275
-531.47412 682.56561 4521.2979 2299399
-505.12466 683.16718 4525.2822 2430730
-480.83627 686.77985 4549.2129 2891794
-452.61676 684.87347 4536.585 2562832
-429.19214 690.43976 4573.4561 1839623
-403.7074 693.21899 4591.8657 3615776
-375.85565 692.04181 4584.0679 2958103
-349.07767 692.81219 4589.1709 2892310
-324.15411 697.70422 4621.5757 2563345
-298.05908 700.74506 4641.7183 3024151
-268.77835 696.15314 4611.3013 2892310
-243.25365 701.35107 4645.7324 2957332
-215.77052 701.50879 4646.7769 3418138
-188.33859 701.90326 4649.3896 2694674
-161.16615 703.5658 4660.4023 983808
-131.89024 694.83435 4602.5654 1838854
-104.74379 695.6933 4608.2554 1904901
-77.081139 692.52045 4587.2383 2233608
-49.708046 689.9093 4569.9419 1773057
-22.19742 676.85303 4483.458 2825744
4.4795489 693.42279 4593.2153 2431243
31.320309 685.11884 4538.2104 3615260
58.970936 694.01874 4597.1631 1904902
86.698997 697.91724 4622.9868 1774344
113.29131 692.99622 4590.3896 2103568
141.08807 695.92181 4609.769 2762268
169.72279 701.36115 4645.7988 2696732
196.61618 699.09039 4630.7578 4143922
0 0 0 0
0 0 0 0
278.78857 698.6991 4628.1655 2958362
307.7359 702.16693 4651.1362 2957846
337.05768 705.84869 4675.5244 2892053
366.37817 708.96875 4696.1914 3286553
394.6358 709.73663 4701.2778 2497037
419.39209 704.52155 4666.7334 3089173
458.00427 721.78778 4781.1045 2233608
480.94458 713.78302 4728.0811 2891536
506.48181 710.3017 4705.021 2101766
528.00671 701.85034 4649.0391 2562572
556.29834 702.78577 4655.2354 2562059
578.89294 696.77551 4615.4238 3417625
611.23956 702.51599 4653.4487 2956818
640.74713 704.63873 4667.5098 2628369
681.76379 718.71869 4760.7749 3023383
720.94543 729.82202 4834.3232 2761238
755.24341 735.32178 4870.7534 3486504
780.98804 732.39539 4851.3691 5856344
824.21216 745.48682 4938.0864 7633531
858.26636 749.67078 4965.8008 7699839
890.99689 752.45947 4984.2729 7699840
925.88763 756.83508 5013.2568 7634046
949.28101 751.83252 4980.1201 7436667
977.85437 751.1106 4975.3379 7831425
1005.7179 749.90167 4967.3301 7699838
1045.6704 757.5191 5017.7876 7700093
1067.3237 751.82526 4980.0718 7634300
1098.5432 752.995 4987.8203 7830909
1127.7754 752.77698 4986.376 7370358
1168.9016 760.30646 5036.251 6975086
1190.8806 755.31683 5003.2002 5921883
1184.1198 732.78418 4853.9443 4276288
1157.9784 699.61133 4634.208 1183759
1184.8936 699.28784 4632.0654 1578001
1195.8004 689.74536 4568.856 1775380
1232.2821 695.05048 4603.9971 1183498
1240.1003 684.30872 4532.8442 2630427
1227.0676 662.76062 4390.1099 3814186
1244.9218 658.44342 4361.5127 3484961
1236.3961 640.63324 4243.5386 4208425
1277.2883 648.62836 4296.498 3418652
1272.9047 633.76843 4198.0664 2760468
1288.0095 628.99542 4166.4502 3287071
1280.4619 613.54779 4064.1255 2629140
1285.0127 604.3606 4003.2698 2760470
1302.5516 601.50439 3984.3501 5391929
1311.457 594.83386 3940.1648 4076068
1333.3875 594.20111 3935.9736 4470567
1361.9298 596.48602 3951.1086 3483672
1371.3864 590.47589 3911.2976 3812380
1369.5408 579.88007 3841.1113 3417879
1385.9325 577.22638 3823.5334 3154707
1407.051 576.59515 3819.3521 2825741
1428.4282 576.08813 3815.9937 3549722
1453.4775 577.05481 3822.397 3286552
1470.9346 575.02386 3808.9438 2957586
1501.6488 578.15851 3829.7078 2694416
1524.1648 578.09039 3829.2563 2102796
1548.8678 578.84155 3834.2322 1840141
1574.4276 579.8866 3841.1545 1051398
1631.8906 592.4848 3924.6047 1249037
1669.7368 597.70691 3959.1958 2104349
1686.6252 595.38599 3943.8223 1973535
1886.5083 656.84357 4350.9155 2434088
2026.4596 696.05817 4610.6719 6513511
2004.2094 679.25671 4499.3799 2302760
2024.9008 677.25897 4486.147 2960946
2053.8845 678.05066 4491.3906 921361
2079.2781 677.65192 4488.7495 2763568
2081.7434 669.88519 4437.3032 3289913
2128.9844 676.54089 4481.3901 3816256
2179.2085 683.96893 4530.5933 3487290
2218.3538 687.78113 4555.8452 3881792
2250.5117 689.36145 4566.313 2171430
2274.7844 688.51746 4560.7227 4342599
2275.998 680.79596 4509.5757 2434603
2323.0876 686.81683 4549.4575 1250329
2365.4126 691.30701 4579.2007 1184537
2350.978 679.29517 4499.6343 1776675
2349.2349 671.17871 4445.8711 1908258
2390.4434 675.3775 4473.6841 3092533
2408.783 673.09387 4458.5571 2303017
2387.3777 659.87427 4370.9907 1316122
2448.4678 669.49548 4434.7217 1118742
2493.5156 674.57251 4468.3516 2237480
2480.4434 663.98468 4398.2183 1974053
2537.7615 672.26385 4453.0591 197639
2553.459 669.46057 4434.4902 262919
2602.7683 675.43689 4474.0771 260
2587.4646 664.69427 4402.9185 920852
2620.3879 666.43146 4414.4258 657681
2625.0723 661.02344 4378.603 723988
2751.9949 686.20099 4545.3784 2500653
2699.4773 666.58136 4415.4185 5856356
2706.7417 661.95856 4384.7974 4211532
2754.9568 667.34344 4420.4663 4014153
2731.845 655.51178 4342.0938 4014665
2775.9236 659.87292 4370.9819 3619906
2776.0044 653.79138 4330.6978 4606285
2863.3042 668.17438 4425.9707 3487290
2878.3169 665.58069 4408.79 2434603
2908.1323 666.42584 4414.3882 5658460
2973.5007 675.33051 4473.3726 987154
2986.4482 672.27753 4453.1494 1118741
2992.0327 667.63489 4422.397 3289912
2986.5183 660.61786 4375.9165 2303015
2994.2903 656.63531 4349.5361 855309
3008.9365 654.21539 4333.5063 2105123
3047.4116 656.97351 4351.7764 3815742
3063.469 654.89301 4337.9951 1710110
3095.9272 656.3241 4347.4746 1776672
3137.0374 659.55048 4368.8462 1710880
3188.5193 664.88696 4404.1948 3289912
3194.803 660.78827 4377.0454 3092532
3179.8044 652.38922 4321.4102 1974052
3210.3723 653.39832 4328.0942 1973539
3193.0559 644.72296 4270.6289 2170918
3215.4988 644.14886 4266.8262 1776160
3289.5068 653.83301 4330.9736 1184022
3324.5608 655.68445 4343.2378 1447194
3368.0825 659.16473 4366.291 262918
3346.9041 650.026 4305.7563 394760
3413.5181 657.94745 4358.2275 395017
3441.2202 658.30597 4360.6025 4
3472.4766 659.33405 4367.4126 460299
3480.1492 655.9021 4344.6792 855312
3467.9751 648.8075 4297.6851 1447705
3562.5361 661.6394 4382.6831 1316118
3561.8357 656.7215 4350.1069 3421495
3544.3462 648.80096 4297.6416 5658459
3514.4138 638.73199 4230.9448 2500394
3498.1821 631.27814 4181.5708 2961203
3534.9395 633.42419 4195.7861 2894644
3565.3511 634.41107 4202.3232 3881795
3580.4578 632.67987 4190.856 4144967
3664.5935 643.08624 4259.7876 1381661
3650.7666 636.27661 4214.6807 4210504
3734.4258 646.43457 4281.9668 3223609
3797.033 652.83594 4324.3691 4605518
3834.4902 654.85626 4337.752 3552828
3710.8477 629.5202 4169.9263 3158326
3694.989 622.68329 4124.6387 1184280
3745.7676 627.09204 4153.8423 2236969
3773.5967 627.6264 4157.3818 2500139
3824.2139 631.91931 4185.8179 2368556
3884.0427 637.66925 4223.9053 2499886
3891.6108 634.8205 4205.0352 2237225
3897.4089 631.72107 4184.5049 1907748
3945.8164 635.52362 4209.6929 2894643
3922.3098 627.76855 4158.3232 2302763
3925.1772 624.30505 4135.3813 789524
3937.1421 622.32251 4122.249 329224
0 0 0 0
0 0 0 0
0 0 0 0
0 0 0 0
0 0 0 0
-3790.4897 656.59479 4184.9858 2564373
-3789.7693 660.79358 4211.748 2038029
-3731.3301 654.91736 4174.2939 3287583
-3712.1663 655.90222 4180.5713 3616290
-3711.0825 660.11633 4207.4312 3287581
-3676.3489 658.36139 4196.2456 2892823
-3637.4639 655.83411 4180.1372 2892822
-3599.0381 653.35553 4164.3394 3813924
-3581.0813 654.58423 4172.1709 3879973
-3556.2568 654.56592 4172.0542 2958614
-3488.3169 646.55603 4121.001 3090200
-3457.0356 645.2757 4112.8403 3023894
-3464.3108 651.22504 4150.7603 2760978
-3446.4878 652.50781 4158.936 3418394
-3421.7866 652.49738 4158.8696 3023636
-3379.6843 649.14453 4137.4995 2497804
0 0 0 0
-3431.0396 668.71161 4262.2153 3682079
-3382.4355 664.12781 4232.9995 3353371
-3427.1321 677.93164 4320.9819 3616798
-3334.9014 664.65344 4236.3496 4077092
-3315.2588 665.75049 4243.3418 3813920
-3283.5054 664.41364 4234.8213 2827282
-3286.1531 670.0708 4270.8789 2893075
-3229.293 663.58771 4229.5566 2629904
-3180.8989 658.75641 4198.7632 1774852
-3173.1902 662.34106 4221.6113 3156248
-3143.3315 661.32269 4215.1201 2827027
-3086.873 654.64685 4172.5698 2629392
-3082.9561 659.09583 4200.9268 4142891
-3073.5676 662.43811 4222.2295 1248259
-3045.7532 661.83124 4218.3618 1379842
-3030.8069 664.03375 4232.3999 1971722
-3034.7825 670.45325 4273.3164 3221789
-3041.6489 677.62482 4319.0264 1971722
-2973.8633 668.14581 4258.6094 2037513
-3004.3879 680.78131 4339.145 3024409
-2927.0137 668.97443 4263.8906 2826517
-2932.6245 676.09344 4309.2656 3024153
-2946.5198 685.26422 4367.7183 2827032
-2891.0967 678.33356 4323.5435 3024670
-2901.3933 686.83643 4377.7393 3749162
-2837.8945 677.86591 4320.563 4341558
-2816.8513 678.96539 4327.5708 3486249
-2802.2625 681.65509 4344.7144 3354663
-2802.2493 687.97314 4384.9839 2499354
-2746.8555 680.68579 4338.5361 3091232
-2697.8843 674.86737 4301.4507 2433045
-2609.3286 658.94153 4199.9434 3354146
-2650.3164 675.73798 4307 3682854
-2610.4297 672.04041 4283.4326 3748391
-2556.1555 664.52997 4235.5625 2695701
-2582.4216 678.01642 4321.522 4340012
-2548.2722 675.75195 4307.0889 3748132
-2524.907 676.33038 4310.7759 3484701
-2509.6885 679.12518 4328.5894 2497550
-2449.2458 669.61359 4267.9644 2628622
-2406.2285 664.71722 4236.7563 2365450
-2410.4812 672.91357 4288.998 2562573
-2402.7727 677.90997 4320.8438 2168072
-2368.9392 675.56366 4305.8892 2430986
-2331.676 672.17767 4284.3076 2364937
-2298.4399 669.89093 4269.7319 2694414
-2248.8047 662.72034 4224.0283 3615258
-2214.7961 660.04523 4206.978 2958354
-2199.9365 663.08099 4226.3271 2695185
-2177.7942 663.96625 4231.9697 2760978
-2144.3572 661.38861 4215.5405 2694930
-2103.3823 656.39777 4183.73 4207912
-2116.7307 668.44269 4260.5015 2431501
-2109.3955 674.16785 4296.9922 2563601
-2046.0291 661.90643 4218.8408 3286297
-2057.4495 673.83502 4294.8711 2497551
-2028.3721 672.63287 4287.209 2694930
-2018.6642 677.90491 4320.8115 1839623
-1978.4917 672.95038 4289.2324 1839624
-1965.5281 677.242 4316.5864 1050624
-1933.8671 675.11945 4303.0576 2695445
-1914.0297 677.12299 4315.8276 1576964
-1895.4208 679.62134 4331.7515 2563345
-1846.1377 671.0387 4277.0479 2102794
-1828.0535 673.71521 4294.1074 3221016
-1794.0184 670.5058 4273.6514 2957587
-1777.2876 673.7644 4294.4209 2365450
-1742.4244 670.14392 4271.3447 2430728
-1748.3416 682.33228 4349.0303 2759949
-1731.964 686.05389 4372.7515 1970947
-1702.7815 684.7395 4364.3735 2496779
-1688.0741 689.29517 4393.4106 3023380
-1627.8524 675.11755 4303.0454 3023379
-1590.2556 670.02112 4270.562 2957586
-1548.9968 663.19208 4227.0352 2957585
-1550.3289 674.6731 4300.2129 2167812
-1532.4761 678.04956 4321.7334 2760207
-1471.0264 661.92328 4218.9482 2760206
-1450.9362 664.17188 4233.2803 3023380
-1424.8173 663.69141 4230.2178 3417879
-1399.0786 663.3739 4228.1943 2891791
-1400.2598 676.04169 4308.936 2497035
-1357.2213 667.43445 4254.0752 2431240
-1327.9298 665.38965 4241.042 2431241
-1304.3551 666.18567 4246.1157 2496777
-1289.3877 671.49554 4279.96 2036226
-1256.9093 667.71613 4255.8706 2365191
-1223.5314 663.29425 4227.6865 2430983
-1198.0951 663.08282 4226.3389 2628362
-1173.9249 663.578 4229.4951 2957327
-1129.749 652.53949 4159.1382 2365191
-1116.1621 659.0708 4200.7671 2233862
-1105.7876 667.84027 4256.6616 2430986
-1081.4905 668.41425 4260.3203 1904899
-1057.1597 668.99445 4264.0181 2167815
-1038.3402 673.17609 4290.6709 2299655
-1011.8577 672.47485 4286.2017 2365190
-983.89703 670.72986 4275.0796 2233605
-956.94067 669.5954 4267.8486 2430983
-927.67877 666.74225 4249.6636 2562569
-906.24939 669.51642 4267.3452 2497034
-880.40582 669.09515 4264.6602 2562826
-868.79462 679.78497 4332.7944 2497035
-843.08228 679.75653 4332.6133 2366476
-814.00781 676.9303 4314.5996 2958103
-801.99323 688.56799 4388.7754 3023896
-781.81042 693.73773 4421.7261 3484446
-745.18762 684.17206 4360.7568 2563600
-712.18298 677.36041 4317.3408 2892564
-691.63068 682.32581 4348.9893 2563599
-666.01263 682.48468 4350.002 2563600
-641.28503 683.60547 4357.1455 2629395
-622.52673 691.45056 4407.1484 1116672
-602.38464 698.37842 4451.3052 2629653
-573.90826 695.83594 4435.0996 2300175
-546.94189 694.96802 4429.5679 1970953
-519.53174 693.42029 4419.7031 1708039
-491.11102 690.28784 4399.7378 590592
-470.32233 698.13293 4449.7402 2761241
-438.32037 689.27655 4393.292 2498838
-422.60382 706.52844 4503.2515 2300686
-389.77219 695.56348 4433.3633 3748129
-364.80746 698.06702 4449.3203 3747873
-335.28406 691.55786 4407.8325 2562829
-314.67499 703.8891 4486.4287 2760208
-284.91544 696.13879 4437.0303 3484189
-265.04926 713.44293 4547.3228 3089689
-236.18202 707.69342 4510.6768 2694932
-212.80756 719.03522 4582.9668 6182732
-185.49902 718.45856 4579.291 4735287
-159.27802 722.61816 4605.8037 2235667
-128.4731 703.40094 4483.3174 1050884
-101.17701 698.38281 4451.333 853250
-75.283508 702.92096 4480.2583 524800
-48.47377 699.18842 4456.4678 787712
-21.931662 695.00122 4429.7798 2826775
4.3375344 697.79669 4447.5972 3154966
30.561041 694.75269 4428.1953 3812638
56.632908 692.66656 4414.8989 3287064
84.597755 707.73535 4510.9438 3484700
111.85043 711.0401 4532.0078 3155736
138.20621 708.46747 4515.6104 2958359
167.17944 717.97046 4576.1802 3221788
194.53749 718.85223 4581.8003 2958361
220.55972 715.1864 4558.4355 2827030
242.44896 700.38135 4464.0713 3944741
273.51379 712.38794 4540.5986 2365966
299.97968 711.33826 4533.9082 2694931
333.4686 725.74579 4625.7383 1971208
356.25467 716.44061 4566.4292 2300429
386.15402 721.74451 4600.2349 2760465
408.55481 713.25775 4546.1426 3220758
433.38504 709.80005 4524.104 2760208
462.57816 713.47455 4547.5244 3023379
480.85178 700.82953 4466.9277 2825744
515.76569 712.49146 4541.2583 2956817
537.09674 705.16345 4494.5513 2891024
563.96289 705.45178 4496.3892 2562316
596.75983 712.7981 4543.2129 1969924
628.87268 718.72833 4581.0107 3154453
650.90839 713.12732 4545.311 3286036
686.10535 721.81769 4600.7017 3614231
716.42596 724.90973 4620.4097 3483414
752.80127 733.67505 4676.2778 4011301
781.67981 734.77106 4683.2632 6382175
808.4079 733.83972 4677.3271 8028289
843.28699 740.12396 4717.3818 8226440
886.30231 752.91681 4798.9204 8160904
912.45056 751.03088 4786.8999 8095111
951.70959 759.72479 4842.313 8029319
980.5069 759.80292 4842.8105 8160903
1009.0696 759.69995 4842.1543 7897474
1031.4515 755.07794 4812.6948 7765886
1073.6776 764.84076 4874.9209 7765886
1099.8849 762.97992 4863.0601 7963009
1123.4236 759.41022 4840.3076 7501685
1159.7019 764.41553 4872.2104 7304563
1179.8894 758.82904 4836.6035 6316898
1191.0077 747.81317 4766.3911 7698036
1179.4355 723.39087 4610.7285 657672
1191.8257 714.43866 4553.6694 2433568
1218.4546 714.22937 4552.3354 2039065
1216.6677 697.73328 4447.1929 1775378
1224.2556 687.19885 4380.0488 2169621
1223.0406 672.26331 4284.853 3682344
1251.0997 673.69897 4294.0039 3814185
1221.4766 644.63556 4108.7603 2168591
1238.2891 640.73572 4083.9033 2431765
1247.5022 633.12854 4035.417 1379334
1257.5931 626.24469 3991.5413 2102798
1270.0864 620.78925 3956.7695 3616035
1291.106 619.62347 3949.3389 3418654
1295.6661 610.74072 3892.7224 6444616
1310.8573 607.09229 3869.4678 3944225
1339.9849 609.9126 3887.4438 3022866
1341.4164 600.24432 3825.8208 2759948
1354.4568 596.00586 3798.8057 2430984
1361.2992 589.22327 3755.575 2891535
1387.351 590.8396 3765.8772 3812893
1408.1937 590.22156 3761.9377 3483929
1441.4537 594.74615 3790.7766 2957586
1448.0109 588.28326 3749.5835 1970950
1481.5077 592.7951 3778.3411 2168331
1509.4592 594.98682 3792.3105 2168589
1537.3397 597.08661 3805.6943 2366226
1582.5046 605.74182 3860.8604 2104082
1613.0748 608.64331 3879.3538 4012595
1616.748 601.45721 3833.5513 1381645
1616.4261 593.00452 3779.676 7434859
1677.2826 606.92023 3868.3716 2369057
1864.8363 665.68756 4242.9409 4474180
1928.5358 679.26727 4329.4951 6645610
1985.3945 690.11273 4398.6216 4474185
2020.4363 693.19177 4418.2466 2960946
2012.4246 681.60992 4344.4263 1513500
2054.3491 687.02032 4378.9111 2171431
2068.0457 682.97351 4353.1177 2171431
2062.5005 672.75012 4287.9561 1579037
2071.9653 667.61194 4255.2065 1710878
2149.1545 684.15662 4360.6582 4671564
2195.8669 690.72137 4402.501 4013635
2219.4028 689.92737 4397.4399 1842467
2256.9873 693.46826 4420.0088 1645089
2296.1882 697.41888 4445.189 4342602
2318.5989 696.23804 4437.6626 1644832
2318.6929 688.4574 4388.0708 2039845
2358.229 692.4306 4413.395 2105638
2358.4719 684.90582 4365.4336 66051
2380.3535 683.75995 4358.1304 395018
2430.1489 690.57092 4401.542 2368555
2466.5457 693.47021 4420.0215 2303532
2478.5127 689.51239 4394.7949 2171429
2464.9001 678.59473 4325.208 2434603
2490.0815 678.4718 4324.4248 5790045
2534.9956 683.67334 4357.5781 2501169
2540.9509 678.3689 4323.769 2237483
2606.8567 689.01593 4391.6304 2369584
2620.0481 685.65717 4370.2227 1579039
2632.4109 682.14954 4347.8657 1250591
2651.5073 680.43787 4336.9561 2895672
2651.9739 674.02411 4296.0762 3026742
2671.8062 672.60748 4287.0469 4935511
2648.1355 660.3692 4209.043 2961464
2726.613 673.59442 4293.3374 3750723
2787.0435 682.1579 4347.9189 3422014
2804.9082 680.24152 4335.7046 5198680
2827.9241 679.59784 4331.6021 5461851
2823.7129 672.48157 4286.2441 5066322
2867.937 676.92432 4314.5615 4737614
2888.6606 675.79077 4307.3364 7632505
2940.8147 681.96564 4346.6938 5329749
2938.3218 675.47095 4305.2979 6646121
2910.2878 663.26709 4227.5132 3554885
2929.2708 661.89545 4218.771 3290940
2955.7561 662.22797 4220.8901 3356474
2992.1167 664.74878 4236.9575 1645085
3013.9729 664.03217 4232.3896 1710623
3024.6816 660.8916 4212.3726 2039844
3088.9165 669.4021 4266.6167 2039844
3051.6074 655.94751 4180.8599 987154
3091.2261 659.11212 4201.0303 1974050
3158.2053 668.01337 4257.7651 2368810
3191.2593 669.65466 4268.2261 1052692
3183.5913 662.79218 4224.4863 2895154
3210.6667 663.21368 4227.1729 1315868
3203.5461 656.61945 4185.1431 1644831
3226.866 656.31799 4183.2217 723471
3241.4954 654.26709 4170.1494 4671053
0 0 0 0
3337.3948 663.50641 4229.0386 2237223
3389.6111 668.86456 4263.1904 855569
3364.9167 659.07928 4200.8213 2237224
3438.2563 668.49829 4260.856 1776672
3466.6104 669.09729 4264.6738 2368810
3524.8721 675.41833 4304.9629 3355705
3451.8074 656.66528 4185.4351 1250328
3438.5588 649.47791 4139.6245 789774
3339.1282 626.22955 3991.4446 1974050
3484.1033 648.82245 4135.4463 1512733
3499.8518 647.2027 4125.1226 3618624
3525.7734 647.47357 4126.8491 3223865
3579.218 652.76031 4160.5454 5855584
3653.9963 661.83881 4218.4097 3553086
3706.512 666.78888 4249.9604 2895153
3705.8977 662.17877 4220.5767 2631981
3694.9099 655.78937 4179.8521 1842465
3592.8372 633.42651 4037.3167 4803151
3702.7539 648.48663 4133.3062 6053474
3743.1345 651.25049 4150.9224 4342600
3731.7473 645.03027 4111.2759 2895154
3748.3003 643.68884 4102.7261 2829107
3764.8896 642.37097 4094.3262 3421244
3734.3743 633.08429 4035.1353 2500142
3807.7961 641.42407 4088.2908 4473676
3866.5427 647.2019 4125.1177 2105384
3822.8093 635.86139 4052.8357 1973798
3837.2949 634.28564 4042.7925 4539980
3882.1504 637.71844 4064.6721 3158072
0 0 0 0
0 0 0 0
0 0 0 0
0 0 0 0
0 0 0 0
0 0 0 0
-3683.4377 666.51276 4093.5767 1708809
-3703.2324 674.53717 4142.8608 2037261
-3631.5078 665.88727 4089.7351 2695189
-3587.2017 662.18256 4066.9814 2695444
-3544.2407 658.67767 4045.4553 2761237
-3537.1052 661.82831 4064.8059 3024153
-3512.9978 661.82483 4064.7844 3089946
-3478.8376 659.91443 4053.051 2563345
-3503.9185 669.29309 4110.6528 2826517
-3408.894 655.70099 4027.1731 2892310
-3352.4602 649.39233 3988.427 3023896
-3358.3298 655.14844 4023.7793 3089689
-3392.8174 666.60956 4094.1711 3089688
-3338.4656 660.65521 4057.6008 2892564
-3318.1008 661.38904 4062.1077 2497550
0 0 0 0
-3317.6545 671.0368 4121.3623 2892562
-3332.5972 679.05829 4170.6284 2629390
-3313.0405 680.11749 4177.1338 2103302
-3279.7671 678.35547 4166.312 2498060
-3244.022 676.05164 4152.1626 2958868
-3198.8188 671.72656 4125.5986 2827282
-3201.8833 677.54877 4161.3574 2958871
-3140.1797 669.64935 4112.8408 2235148
-3109.9082 668.38177 4105.0557 1511171
-3120.3408 675.91132 4151.3003 2432270
-3053.0925 666.59998 4094.1123 3090458
-3032.9727 667.51172 4099.7119 2366222
-3025.1746 671.17194 4122.1924 2695444
-3005.7476 672.29071 4129.0635 2958874
-2969.9404 669.73407 4113.3613 1379843
-2939.0566 668.25458 4104.2744 1643015
-2939.6152 673.95905 4139.3101 2037773
-2920.875 675.29779 4147.5322 3222303
-2922.2986 681.36047 4184.7681 2629395
-2947.3918 693.09308 4256.8271 2103309
-2952.8738 700.37677 4301.562 1577482
-2922.4758 699.203 4294.353 2893082
-2895.4409 698.82025 4292.0024 2760984
-2866.7014 698.01575 4287.061 3353634
-2825.8201 694.21399 4263.7114 3353634
-2756.5674 683.31073 4196.7461 3288611
-2746.79 687.08624 4219.9346 3617576
-2738.7871 691.37909 4246.3003 4473142
-2668.9749 680.00372 4176.4351 3157025
-2646.1521 680.49939 4179.4795 3354404
-2547.8701 661.41559 4062.271 3025182
-2621.7185 687.07831 4219.8857 2959131
-2560.1052 677.3927 4160.3989 2959128
-2529.4932 675.80121 4150.6245 4208939
-2493.0415 672.60315 4130.9824 3419167
-2484.698 677.00006 4157.9873 3090201
-2424.9373 667.33521 4098.6279 2958357
-2415.1616 671.36981 4123.4077 2958613
-2398.3679 673.51599 4136.5889 2892305
-2404.1902 682.12311 4189.4521 2497548
-2370.6086 679.61353 4174.0386 2431241
-2342.3101 678.58148 4167.7002 2431240
-2313.8147 677.46991 4160.873 2891792
-2293.8635 678.86285 4169.4282 3549722
-2271.5781 679.58789 4173.8813 2628620
-2250.1177 680.57849 4179.9653 2431242
-2200.3516 672.93433 4133.0166 2628879
-2192.0574 677.94421 4163.7861 2628879
-2140.1536 669.42737 4111.4775 2629138
-2134.9966 675.50488 4148.8042 2629137
-2124.9377 680.15503 4177.3643 2300174
-2084.7878 675.16956 4146.7446 2760724
-2066.5945 677.26074 4159.5884 2958357
-2039.4287 676.42651 4154.4648 2431757
-2012.5093 675.65466 4149.7241 3483674
-1997.7983 679.01312 4170.3511 2563598
-1970.408 678.09216 4164.6948 2827030
-1956.3778 681.80402 4187.4922 2300944
-1940.3922 684.92096 4206.6357 2235153
-1921.2087 686.97552 4219.2544 393472
-1879.7747 681.02313 4182.6963 2366740
-1881.189 690.6427 4241.7773 2103566
-1850.3108 688.50659 4228.6582 1971723
-1827.8433 689.4845 4234.6641 1971210
-1799.5325 688.25476 4227.1113 1839622
-1768.8936 686.08734 4213.7993 2299401
-1733.2852 681.90271 4188.0986 2233607
-1727.8567 689.6424 4235.6338 2102021
-1693.8241 686.02509 4213.417 1904899
-1683.4049 692.00635 4250.1528 2365447
-1644.5377 686.29742 4215.0898 2760206
-1611.6179 682.9328 4194.4248 2628621
-1576.6827 678.59515 4167.7842 2496777
-1569.668 686.32758 4215.2749 2628106
-1547.245 687.46399 4222.2544 2628363
-1521.9893 687.3584 4221.606 2891535
-1498.6796 688.14282 4226.4238 3023377
-1449.8079 677.01733 4158.0933 3286550
-1421.8064 675.4212 4148.2905 2168068
-1393.0538 673.40601 4135.9136 2694157
-1350.9766 664.76202 4082.824 2365448
-1341.743 672.25854 4128.8662 3088657
-1328.6156 678.04639 4164.4136 3286293
-1297.0275 674.45374 4142.3481 3483672
-1272.8058 674.62689 4143.4121 3549463
-1241.6152 671.04053 4121.3853 2825741
-1217.4767 671.19806 4122.3525 2694155
-1192.4489 670.86163 4120.2866 2759948
-1168.8593 671.33734 4123.208 2430984
-1149.9358 674.57037 4143.0649 2496777
-1127.441 675.80402 4150.6416 2496777
-1099.4673 673.73517 4137.9351 2694155
-1073.6732 672.93799 4133.0391 2628107
-1059.16 679.33923 4172.354 2562572
-1033.7988 678.92224 4169.793 2562572
-999.91449 672.75037 4131.8867 2694413
-994.23285 685.72003 4211.5435 2628363
-971.69073 687.4295 4222.0425 2628363
-937.8349 681.01385 4182.6392 2759692
-919.23602 685.62952 4210.9878 2562569
-896.68549 687.47321 4222.311 2431240
-869.03748 685.40234 4209.5923 2497034
-848.46759 688.95648 4231.4209 2497036
-823.14038 688.74652 4230.1313 2432013
-807.82751 697.16589 4281.8413 1379073
-782.45886 697.17169 4281.877 3023896
-758.16052 698.16339 4287.9678 2629138
-738.70667 703.83978 4322.8311 2365966
-704.78461 695.64337 4272.4907 2431757
-676.49414 692.60193 4253.8105 2168330
-645.74976 686.71539 4217.6567 2037258
-625.40002 691.85394 4249.2168 2366225
-595.88647 686.86078 4218.5498 1840138
-585.60992 704.57532 4327.3486 1576707
-553.59247 696.55688 4278.1011 2892311
-534.19153 704.40546 4326.3052 2694419
-516.41376 715.29364 4393.1782 1247490
-486.04541 708.9726 4354.356 1181953
-463.54922 714.06946 4385.6597 1050625
-438.06207 714.89062 4390.7031 2563604
-406.8382 705.86237 4335.2534 2563858
-383.95786 711.06866 4367.2295 1774085
-356.6488 708.23315 4349.8145 2958356
-333.10931 713.0246 4379.2422 3023381
-308.1456 715.31952 4393.3369 1707524
-280.70392 711.75488 4371.4438 2957589
-253.70145 708.6922 4352.6338 3286809
-232.13046 721.82605 4433.2988 5129527
-205.79201 721.59534 4431.8818 3879206
-179.93243 723.22198 4441.8726 3418657
-153.82452 724.23694 4448.106 3155999
-127.98557 727.19989 4466.3037 2893341
-101.39928 726.35449 4461.1113 2366740
-73.917 716.23096 4398.9351 1642503
-47.556774 711.87195 4372.1631 2168589
-21.525677 707.90173 4347.7788 2102796
4.2815323 714.80444 4390.1738 1905160
30.14946 711.28503 4368.5581 1773315
56.538921 717.63721 4407.5718 2036487
83.388535 723.96985 4446.4653 2958102
109.29198 721.01917 4428.3433 2366478
135.04086 718.38898 4412.189 2432017
159.18694 709.46857 4357.4019 2366480
187.28296 718.18549 4410.9395 2168845
213.11172 717.13757 4404.5034 3155997
240.22382 720.16577 4423.1016 2497553
265.73932 718.28241 4411.5347 2299918
296.83112 730.45898 4486.3203 3418655
317.58435 717.28333 4405.3984 2300174
347.00763 724.20374 4447.9019 2497810
371.7688 721.10406 4428.8647 2037516
398.58377 722.13416 4435.1914 1313796
419.93665 713.75305 4383.7163 3286812
443.84216 710.43445 4363.334 2957586
471.69702 713.45465 4381.8838 3154451
505.47858 724.65625 4450.6812 3549465
517.27917 704.79755 4328.7134 2233606
544.65979 707.04034 4342.4883 3417625
578.71802 717.35815 4405.8579 2628109
609.7002 723.13678 4441.3491 2562570
650.3797 739.46265 4541.6191 4470053
666.88037 728.09283 4471.7881 4009758
692.40002 727.06256 4465.4604 3351315
