# .PCD v0.7 - Point Cloud Data file format
VERSION 0.7
FIELDS x y z rgb
SIZE 4 4 4 4
TYPE F F F U
COUNT 1 1 1 1
WIDTH 1317
HEIGHT 1
VIEWPOINT 0 0 0 1 0 0 0
POINTS 1317
DATA ascii
124.94642 833.64893 2582.3401 2760209
138.1851 821.37555 2544.3218 2102026
154.01341 825.39575 2556.7747 1641993
169.05721 824.86774 2555.1392 2168852
185.28041 829.70819 2570.1331 984580
200.20424 828.43646 2566.1938 1641996
217.75908 837.46271 2594.1538 2365463
232.0665 833.63312 2582.291 3286050
245.40196 827.00183 2561.7498 3153435
261.36334 829.47699 2569.417 4008997
286.54779 859.33899 2661.9185 3811873
301.45813 856.88098 2654.3044 3548700
313.27313 846.30463 2621.543 4996401
328.2016 844.74139 2616.7007 2233097
343.707 844.73718 2616.6875 2957327
359.21381 844.73657 2616.6858 2891792
372.94083 840.72388 2604.2559 4536876
390.90289 846.19775 2621.2119 1707524
410.33282 854.30939 2646.3386 3813671
425.80365 853.88434 2645.0222 2037262
443.28461 857.3775 2655.8425 1313541
461.04254 861.14832 2667.5232 788740
479.37494 865.7066 2681.6431 196608
494.98169 865.20807 2680.0986 590593
509.79901 863.40344 2674.5088 721921
522.70203 858.56335 2659.5159 2365969
537.8136 857.52814 2656.3091 2759957
554.38477 858.81287 2660.2888 2102025
572.38062 862.17242 2670.6956 1904906
590.27728 865.20593 2680.092 1773318
601.22552 858.16254 2658.2744 1246978
617.18756 858.45264 2659.1729 2299664
632.8642 858.34113 2658.8276 3089434
656.50409 868.77313 2691.1421 3484706
728.60632 941.32111 2915.8691 4275769
680.20148 858.42572 2659.0894 5725019
748.5993 923.35339 2860.2117 8094854
765.39471 923.16663 2859.6333 7963013
784.71057 925.96204 2868.2925 8028552
804.91248 929.66241 2879.7549 7896965
822.34369 930.07544 2881.0344 7831172
840.91736 931.73755 2886.1829 7831172
858.91211 932.70465 2889.1787 7831172
877.11084 933.8512 2892.7302 8028551
895.60669 935.26398 2897.1064 8160391
912.57208 935.05554 2896.4607 8160391
930.82141 936.14606 2899.8386 8291977
946.54016 934.698 2895.3533 8291977
964.46527 935.44153 2897.6565 8357770
983.87482 937.57367 2904.2612 8423563
1000.0513 936.60468 2901.2593 8357770
1020.7329 939.81622 2911.2075 8226184
1036.6796 938.63391 2907.5454 8357770
1054.6437 939.28705 2909.5684 8292748
1066.2069 934.31018 2894.1519 8292490
1082.4154 933.49695 2891.6328 8489101
1099.4816 933.43738 2891.4482 8423309
1113.0673 930.47003 2882.2566 8422793
1133.3046 933.06873 2890.3064 8883088
1128.645 915.39728 2835.5667 3487288
1149.7128 918.80463 2846.1213 3224118
1168.9875 920.70123 2851.9963 1053205
1177.7762 914.40259 2832.4854 1184276
1210.3271 926.47021 2869.8665 8289922
1218.6512 919.91541 2849.5623 3881278
1227.2906 913.77466 2830.5403 394248
1250.0463 918.16785 2844.1489 197381
1251.7012 907.15173 2810.0251 394506
1268.7375 907.42615 2810.875 657678
1286.8517 908.45422 2814.0596 1249816
1303.4751 908.41711 2813.9446 526346
1325.8668 912.35022 2826.1279 4
1347.9698 915.98883 2837.3992 3
1353.9288 908.70276 2814.8293 526092
1382.9711 916.89789 2840.2151 131588
1395.2573 913.92059 2830.9924 196869
1419.4825 918.74127 2845.9253 920847
1448.0092 926.2002 2869.03 328709
1449.4542 916.36462 2838.563 3486775
1483.0774 926.86469 2871.0884 3487031
1484.4514 917.20074 2841.1531 3618615
1474.6813 900.94507 2790.7991 3552822
1502.3827 907.68921 2811.6899 4408387
1515.9934 905.86548 2806.0408 3881531
1546.2079 913.8952 2830.9138 13092551
1540.8972 900.98047 2790.9087 4738124
1556.4414 900.40466 2789.125 1841950
1568.2939 897.72784 2780.8333 3223859
1620.4229 917.922 2843.3872 4341830
1645.7905 922.69702 2858.1787 3815743
1663.2247 922.97223 2859.0312 1118227
1675.7533 920.54712 2851.519 2170917
1683.2207 915.41791 2835.6306 461069
1698.8274 914.77295 2833.6328 461327
1730.0409 922.46222 2857.4512 3750720
1742.9591 920.34174 2850.8828 2500394
1785.6005 933.80621 2892.5908 1974050
1783.4333 923.80414 2861.6082 1908257
1813.546 930.55383 2882.5161 1579294
1857.2137 944.06781 2924.3774 723469
1872.6019 943.08954 2921.3472 1973539
1884.1893 940.2326 2912.4976 1118227
1874.1105 926.71399 2870.6218 2763054
1883.577 923.0166 2859.1685 2697262
1943.1327 943.71161 2923.2739 2434090
1931.3684 929.70923 2879.8999 263177
1958.0081 934.27686 2894.0488 658193
1987.5306 940.12903 2912.1765 2303017
1980.6002 928.78607 2877.04 1053722
2004.9764 932.1922 2887.5913 1053205
2025.3784 933.70862 2892.2886 9015445
2012.2296 919.86237 2849.3979 3223866
2031.4865 920.93713 2852.7271 3355709
2065.491 928.62457 2876.5398 2500141
2068.6289 922.4223 2857.3276 3355452
2067.7095 914.52637 2832.8689 1513245
2117.2781 928.90802 2877.418 2829108
2118.7429 922.12408 2856.4038 3223864
2126.3445 918.09729 2843.9304 1052695
2119.1033 907.77557 2811.9575 3223863
2179.0786 926.18433 2868.981 6053217
2171.9109 915.99078 2837.405 3158325
2182.1809 913.25171 2828.9204 1710365
2208.8816 917.37817 2841.7026 4211526
2213.134 912.18976 2825.6309 5921119
2263.7561 926.04785 2868.5583 2631727
2246.9502 912.3219 2826.0403 5855323
2229.9578 898.72388 2783.9185 5328975
2266.7412 906.83936 2809.0571 3420726
2256.1047 896.00372 2775.4924 1841694
2288.4084 902.25513 2794.8572 2368039
2310.9558 904.59766 2802.1133 1183763
2346.8435 912.09137 2825.3262 1512987
2370.8384 914.88971 2833.9944 1907745
2341.5229 897.22125 2779.2639 1052436
2383.5959 906.96307 2809.4404 2828849
2421.4451 914.97351 2834.2542 3223606
2417.5469 907.20776 2810.1985 2105125
2405.8853 896.65485 2777.5095 2368296
2414.3982 893.71307 2768.397 2894640
2424.3032 891.32294 2760.9932 5197395
2447.7812 893.92157 2769.0427 3815742
2491.5476 903.84546 2799.7834 4539721
2498.5012 900.37219 2789.0244 2697005
2510.1838 898.63727 2783.6504 5986912
2535.1619 901.65387 2792.9946 5263189
2547.0762 900.0152 2787.9187 2039588
2577.4438 904.87616 2802.9761 3158073
2608.312 909.84937 2818.3813 2434352
2603.9619 902.55255 2795.7783 4803154
2621.1748 902.77454 2796.4658 4013638
2637.6001 902.72412 2796.3098 3816002
2639.6196 897.77472 2780.9785 4079174
2655.498 897.57123 2780.3479 2434092
0 0 0 0
0 0 0 0
0 0 0 0
0 0 0 0
0 0 0 0
0 0 0 0
0 0 0 0
0 0 0 0
0 0 0 0
0 0 0 0
0 0 0 0
0 0 0 0
0 0 0 0
0 0 0 0
0 0 0 0
0 0 0 0
0 0 0 0
0 0 0 0
0 0 0 0
-1802.1154 720.07025 2190.3069 3222303
-1804.7023 726.33557 2209.3647 2695446
-1788.8634 725.22247 2205.9788 2498067
-1771.8038 723.59442 2201.0266 3550755
-1770.2222 728.31012 2215.3708 2234895
-1748.2592 724.64844 2204.2327 2892825
-1746.6393 729.42712 2218.7686 1971723
-1736.5896 730.7312 2222.7354 2761239
-1726.467 732.02441 2226.6689 3155996
-1718.8635 734.41376 2233.9368 2301201
-1697.9142 731.09369 2223.8379 2235409
-1690.9454 733.7887 2232.0354 1511430
-1684.6783 736.83289 2241.2954 1314052
-1659.6274 731.6449 2225.5144 1576968
-1644.2667 730.67969 2222.5786 1577479
-1630.7654 730.53186 2222.1289 1577478
-1621.053 732.0929 2226.8772 2761238
-1615.2874 735.47656 2237.1697 2169101
-1600.1301 734.60461 2234.5173 2827030
-1603.4663 742.27911 2257.8616 3090203
-1589.3241 741.92352 2256.78 1445893
-1582.568 745.03925 2266.2573 525312
-1572.625 746.69495 2271.2937 591106
-1563.3638 748.70593 2277.4106 1051653
-1531.8615 740.00769 2250.9524 131072
-1521.0514 741.24036 2254.7019 986114
-1493.1958 734.11469 2233.0271 2629653
-1493.7808 740.96906 2253.8767 2760981
-1491.842 746.68402 2271.2605 3089174
-1457.6359 736.20575 2239.3877 2891794
-1442.9806 735.50024 2237.2417 2891537
-1431.5104 736.42017 2240.0398 2760206
-1420.1461 737.41223 2243.0576 2825999
-1405.6766 736.79547 2241.1816 2759948
-1398.4045 739.97552 2250.8547 2891533
-1375.4711 734.84967 2235.2629 4207905
-1363.0537 735.29706 2236.6235 3747355
-1359.6375 740.65649 2252.926 3221010
-1342.9779 738.83649 2247.3899 3155219
-1338.0127 743.47803 2261.5085 1510144
-1315.3617 738.28687 2245.718 2365190
-1311.8745 743.85583 2262.6577 2496776
-1297.6992 743.41681 2261.3223 3812636
-1279.6298 740.71454 2253.1025 2430981
-1265.1599 740.06085 2251.1143 2365445
-1254.037 741.37189 2255.1021 2496774
-1241.353 741.77844 2256.3386 2694153
-1232.2697 744.36871 2264.2178 2957067
-1223.3209 747.09833 2272.5208 2956558
-1215.625 750.66229 2283.3616 2430215
-1208.0269 754.36761 2294.6323 1969667
-1200.9789 758.5047 2307.2166 1575683
-1191.1201 760.94141 2314.6287 2167557
-1188.9751 768.42017 2337.3774 3681050
-1183.1246 773.65234 2353.2927 3483929
-1170.3442 774.42371 2355.6389 2233863
-1157.3717 775.08496 2357.6504 2102535
-1141.8539 774.03705 2354.4629 1773829
-1138.4281 781.2616 2376.4385 2037003
-1111.1385 772.08514 2348.5254 2300687
-1101.5236 775.11292 2357.7354 3155995
-1090.1337 776.95361 2363.3342 3024662
-1062.5244 767.1319 2333.4587 3484701
-1055.5975 772.18054 2348.8157 2497806
-1027.9626 762.01361 2317.8899 2498063
-1025.9305 770.80725 2344.6384 2365449
-1011.7638 770.6001 2344.0083 2759951
-1001.5142 773.41223 2352.5623 2497291
-984.24292 770.80475 2344.6309 2102276
-975.28748 774.72839 2356.5657 2497034
-963.26959 776.29791 2361.3398 2628363
-947.6424 774.96216 2357.2769 1641984
-941.21875 781.22559 2376.3289 2233605
-933.9585 786.97424 2393.8152 3352084
-913.78381 781.8504 2378.2295 2365192
-901.45288 783.38245 2382.8896 2824972
-880.25592 777.13593 2363.8889 2232835
-856.64087 768.51794 2337.6748 1838080
-848.88965 774.08258 2354.6013 2100993
-833.64252 772.88354 2350.9541 2035203
-824.48505 777.38562 2364.6484 2694154
-806.74567 773.81171 2353.7773 2628362
-807.40515 788.07031 2397.1492 2760206
-793.42706 788.29681 2397.8381 1773827
-782.38153 791.49829 2407.5762 1379330
-770.74188 794.20648 2415.814 1906185
-757.26825 795.09149 2418.5061 2827032
-727.31427 778.37347 2367.6533 2958874
-713.76898 778.90369 2369.2661 2564117
-708.79126 788.99231 2399.9536 2498068
-698.07257 792.9726 2412.0608 3287840
-686.19989 795.78101 2420.6035 2761753
-682.06128 807.87 2457.3757 3090975
-675.10504 817.07635 2485.3796 4012077
-655.96753 811.62158 2468.7874 3156511
-632.57922 800.53851 2435.075 3617319
-617.08209 799.15753 2430.8743 1248516
-603.02258 799.61682 2432.2712 3024669
-596.58307 810.45032 2465.2246 2169616
-580.53766 808.45056 2459.1418 2696474
-568.37762 811.89807 2469.6282 3683369
-554.19604 812.56354 2471.6526 1973007
-543.63287 818.71466 2490.363 1249287
-528.56958 818.24261 2488.9272 5525829
-513.37946 817.54175 2486.7952 1051395
-495.89404 813.03601 2473.0896 2432275
-477.69107 807.04364 2454.8621 1642505
-469.03677 817.3136 2486.1013 2234378
-448.08282 806.12225 2452.0593 2891794
-435.41949 809.59564 2462.6248 2759438
-421.72531 811.32684 2467.8906 3220246
-406.43707 810.00549 2463.8713 3088914
-393.92661 814.32788 2477.0193 3351575
-382.70312 821.74847 2499.5911 3220503
-367.69446 821.31165 2498.2625 1180928
-350.28827 815.25824 2479.8491 1444096
-336.90747 818.45349 2489.5686 1444353
-319.83521 812.56311 2471.6511 2562831
-307.90823 819.80658 2493.6843 3023381
-293.08612 819.68353 2493.3101 3615516
-278.30627 819.67175 2493.2744 3615771
-268.35474 834.67657 2538.9158 4010525
-249.7056 822.80444 2502.8032 4076316
-233.39796 817.6355 2487.0803 4932398
-219.43541 820.5387 2495.9114 4406315
-206.89586 829.56732 2523.3748 3419427
-192.04118 829.99689 2524.6812 3288359
-176.41713 826.89276 2515.2393 2959910
-163.57202 837.44318 2547.3313 1512466
-148.22282 836.01526 2542.9878 2499104
-133.86702 840.50122 2556.6333 1907225
-119.07262 843.02698 2564.3162 920587
-102.07829 828.43774 2519.9387 3288105
-87.742058 834.11768 2537.2158 4472634
-73.157692 839.29987 2552.979 3353638
-58.381325 844.40753 2568.5154 2563862
-43.121712 843.66315 2566.2512 2892569
-27.826424 841.02954 2558.2405 3879718
-12.659313 840.60242 2556.9412 3221531
2.4851012 837.71545 2548.1594 3813412
17.652981 840.9043 2557.8594 5458490
33.51276 858.87897 2612.5347 7168847
48.645668 852.75189 2593.8972 6970956
63.034409 839.65442 2554.0574 4602408
78.56736 843.91943 2567.0308 3615515
92.976089 836.6839 2545.0217 2957844
105.69943 818.41846 2489.4619 2299916
120.2019 816.7157 2484.2825 1773318
136.09869 823.82446 2505.906 1905418
151.05739 824.41467 2507.7014 1050115
165.94191 824.53082 2508.0544 722177
181.17973 826.23895 2513.2502 1379081
198.92305 838.24542 2549.7717 852738
214.74567 841.03436 2558.2551 2563356
230.76266 844.16669 2567.7827 984580
245.65033 843.03571 2564.3425 3089184
260.67993 842.49518 2562.6985 2496530
275.82132 842.35553 2562.2737 2693650
291.39209 843.47339 2565.6741 2233353
307.15921 845.02051 2570.3801 2759696
321.71991 843.2594 2565.0232 3878430
340.29117 851.69501 2590.6824 4667945
353.19653 845.8335 2572.853 4273189
367.98459 844.77936 2569.6465 3615260
389.94769 859.62604 2614.8069 1839369
404.62036 857.88055 2609.4978 1248006
420.02402 857.75641 2609.1201 1774092
439.96072 866.5697 2635.9282 1116419
457.37592 869.98236 2646.3088 196608
471.60297 867.30548 2638.1663 1972243
492.32007 876.35303 2665.6873 2169363
506.10092 872.87512 2655.1079 2037262
520.97662 871.43817 2650.7371 1839883
535.06628 868.80896 2642.7397 2826259
554.76703 875.18134 2662.123 2957589
569.80646 874.05096 2658.6848 3615519
585.4931 873.94757 2658.3701 1707011
597.19562 868.05835 2640.4565 2759699
614.91284 870.98944 2649.3723 2760467
620.62756 857.1969 2607.4182 3549726
640.77271 863.52142 2626.656 3089431
657.24347 864.71167 2630.2764 3089947
672.33521 864.07428 2628.3379 3485995
693.31268 870.85901 2648.9753 6448225
747.16302 917.71997 2791.5168 7831935
767.29041 922.02704 2804.6182 7831683
786.00317 924.48761 2812.1028 7633793
803.89545 925.901 2816.4021 7568000
822.66553 928.24744 2823.5393 7568001
841.22516 930.2674 2829.6838 7633793
860.55811 933.04706 2838.1389 7896709
876.78076 932.41235 2836.2083 8160393
894.82892 933.70654 2840.1448 8291723
913.80542 935.9035 2846.8276 8357516
931.32275 936.55353 2848.8049 8423309
948.0929 936.4425 2848.467 8357516
966.36176 937.78973 2852.5649 8423565
987.08362 941.43018 2863.6384 8489101
1003.9781 941.35889 2863.4216 8555407
1019.9838 940.47034 2860.719 8424077
1037.9072 941.35028 2863.3955 8423822
1054.8727 941.34711 2863.386 8423823
1070.3164 940.00751 2859.311 8489616
1085.5812 938.55493 2854.8926 8489615
1097.9287 934.66345 2843.0557 8555408
1115.7357 935.4671 2845.5 8621200
1114.7489 920.724 2800.6545 8752017
1143.2452 930.40778 2830.1108 8554122
1156.7246 927.76703 2822.0781 921616
1164.0814 920.3609 2799.55 1710878
1182.5696 921.83997 2804.0491 14211806
1215.0363 934.02362 2841.1094 2697773
1233.1429 934.98627 2844.0376 3092020
1245.0975 931.32135 2832.8896 3157813
1235.394 911.76941 2773.4165 1578780
1255.9325 914.75751 2782.5056 1052438
1277.932 918.71851 2794.5542 1052690
1302.6851 924.53241 2812.239 4
1315.6178 921.91638 2804.2815 197383
1332.8979 922.37408 2805.6738 6
1356.386 927.06348 2819.938 197384
1367.0431 922.97577 2807.5039 789265
1386.3744 924.7724 2812.969 197381
1407.0078 927.38458 2820.9148 526347
1408.0961 917.2041 2789.9478 1776413
1429.4259 920.29181 2799.3401 4605513
1464.8521 932.28009 2835.8059 4013376
1457.6372 917.16614 2789.8323 3421236
1482.6313 922.43018 2805.8445 3289650
1489.8077 916.61511 2788.156 4473925
1511.8531 919.97534 2798.3774 2960945
1518.5747 914.03925 2780.3208 3684668
1516.0999 902.75452 2745.9951 4803151
1537.3464 905.68439 2754.9072 3684671
1573.9044 917.47809 2790.7812 3158324
1571.4268 906.50812 2757.4128 6711146
1581.4688 902.9118 2746.4736 1118227
1609.3777 909.48566 2766.47 4276291
1635.4742 914.91309 2782.979 3749949
1665.3264 922.31213 2805.4854 591883
1673.8069 917.8454 2791.8987 3420984
1683.022 913.86523 2779.7915 1775903
1733.7231 932.2702 2835.7759 2302502
1729.6953 921.17523 2802.0271 5591896
1746.009 921.0213 2801.5591 3026226
1782.1857 931.24939 2832.6707 2236710
1808.4493 936.15509 2847.5928 1973538
1826.4767 936.74579 2849.3896 197125
1849.623 939.92706 2859.0664 1907746
1863.1721 938.2179 2853.8674 855313
1883.9617 940.15253 2859.7522 1184021
1897.8181 938.62372 2855.1021 657676
1891.0312 927.00244 2819.7524 460554
1898.2855 922.40759 2805.7756 723984
1920.069 924.89111 2813.3301 1842210
1950.8468 931.6272 2833.8198 3355450
1962.7096 929.29248 2826.718 2631471
2002.2543 939.99298 2859.2668 3355451
2013.3933 937.29028 2851.0459 2105384
2035.6674 939.77313 2858.5981 986898
2031.3083 930.02118 2828.9348 855056
2040.0408 926.37372 2817.8398 1447196
2053.8577 925.07556 2813.8911 3618366
2079.3354 929.00818 2825.8533 2895154
2092.9805 927.63342 2821.6716 2697775
2088.563 918.3385 2793.3984 2697775
2109.4062 920.20959 2799.0898 3487291
2125.0659 919.80774 2797.8674 2500396
2141.4172 919.70929 2797.5681 3026739
2169.3542 924.5498 2812.292 8355973
2183.5415 923.50146 2809.103 2434346
2219.6882 931.6861 2833.999 5658204
2218.2283 924.08136 2810.8669 4473930
2219.4985 917.71893 2791.5137 4078914
2243.2444 920.67499 2800.5056 6184545
2233.5649 909.97003 2767.9434 3157810
2238.5952 905.37036 2753.9519 2302501
2260.8455 907.75116 2761.1938 2828590
2281.3594 909.40564 2766.2266 2236454
2309.8318 914.18634 2780.7686 3355192
2319.9861 911.70074 2773.2078 2763054
2324.2212 906.94037 2758.7275 2894639
2366.51 916.9917 2789.3018 2368810
2360.2859 908.23596 2762.6687 4210758
2327.9243 889.61249 2706.0198 723728
2388.3755 906.46942 2757.2952 1841953
2433.2568 917.22809 2790.0208 3289399
2438.8086 913.11615 2777.5129 2039845
2441.4507 907.97717 2761.8813 2697775
2465.6057 910.85406 2770.6323 2236964
2533.697 929.81677 2828.3127 3158323
2474.2134 902.0202 2743.7615 4474182
2502.6975 906.44757 2757.2285 4869713
2545.1111 915.82996 2785.7678 5592411
2526.1101 903.13434 2747.1504 2499885
2577.7058 915.6795 2785.3103 1052693
2597.9182 916.98761 2789.2893 3026486
2588.3218 907.8241 2761.4158 3684932
2612.2141 910.44781 2769.3965 3224381
2633.344 912.08179 2774.3667 3093050
2627.2871 904.33765 2750.8105 4802897
0 0 0 0
0 0 0 0
0 0 0 0
0 0 0 0
0 0 0 0
0 0 0 0
0 0 0 0
0 0 0 0
0 0 0 0
0 0 0 0
0 0 0 0
0 0 0 0
0 0 0 0
0 0 0 0
0 0 0 0
0 0 0 0
0 0 0 0
0 0 0 0
0 0 0 0
-1792.2443 729.03528 2178.3096 1248516
-1783.3724 730.68945 2183.2522 985089
-1768.9111 730.06097 2181.3743 1248259
-1759.6963 731.60437 2185.9858 1116674
-1742.2542 729.72479 2180.3699 919296
-1728.8016 729.50067 2179.7002 1050882
-1713.4784 728.47784 2176.644 1445382
-1713.7391 734.1153 2193.4883 1379587
-1706.2404 736.48938 2200.582 2169103
-1697.0282 738.15485 2205.5583 2103567
-1698.9471 744.72546 2225.1909 3024670
-1683.6307 743.78467 2222.3799 1840394
-1669.1422 743.19775 2220.6262 3353378
-1648.3162 739.75726 2210.3462 2498583
-1639.1494 741.53613 2215.6614 3024669
-1624.2412 740.7254 2213.239 1774601
-1620.2087 744.90173 2225.7175 2037513
-1596.8313 740.1795 2211.6079 1905671
-1590.3477 743.27478 2220.8564 1445121
-1575.0188 742.2533 2217.8042 2169101
-1572.2852 747.20026 2232.5854 1446152
-1582.924 758.64008 2266.7668 657154
-1563.5443 755.76587 2258.179 3091745
-1548.8514 755.12695 2256.27 131584
-1521.3218 748.164 2235.4651 460032
-1497.3239 742.83081 2219.5298 2169613
-1460.7026 731.08514 2184.4346 3287834
-1463.3606 738.96448 2207.9775 3155222
-1458.1925 742.99835 2220.0305 3352343
-1433.5732 737.10449 2202.4199 2299398
-1421.6763 737.7038 2204.2107 2628620
-1412.8035 739.89807 2210.7671 2629131
-1406.9541 743.73163 2222.2214 3681049
-1389.4436 741.41522 2215.3 3088912
-1377.1643 741.87256 2216.6667 2562569
-1370.7319 745.5188 2227.5613 2891276
-1349.4731 741.09369 2214.3394 2891534
-1342.7568 744.64648 2224.9548 2957839
-1332.9316 746.52844 2230.5781 2628875
-1319.8138 746.58563 2230.749 2892048
-1305.8662 746.16986 2229.5066 1970433
-1297.6958 749.08032 2238.2029 1575680
-1283.634 748.61505 2236.8127 1970690
-1266.6104 746.39478 2230.1787 2299654
-1251.8696 745.48706 2227.4666 2102532
-1238.7316 745.5246 2227.5786 2497030
-1226.2004 745.93225 2228.7966 2036482
-1223.5138 752.40247 2248.1294 2102020
-1215.1569 755.48993 2257.3545 3351572
-1205.9677 758.12292 2265.2217 4732711
-1195.8833 760.24609 2271.5657 3285265
-1182.98 760.60522 2272.6387 3022350
-1172.0739 762.27142 2277.6172 2233604
-1169.3088 769.33282 2298.7161 2167557
-1160.0864 772.26208 2307.4685 2628621
-1156.7728 779.24158 2328.3228 3483930
-1130.4543 770.70563 2302.8179 3023380
-1114.2675 768.95288 2297.5808 2892562
-1091.4012 762.49023 2278.271 2432267
-1074.574 760.13776 2271.2417 3616284
-1069.9377 766.45856 2290.1279 3747358
-1061.5089 770.19019 2301.2778 2365448
-1047.1931 769.69183 2299.7888 2299655
-1031.839 768.40723 2295.9504 2431240
-1023.3334 772.25641 2307.4517 2497035
-1016.6461 777.60065 2323.4199 1115136
-999.1651 774.72253 2314.8203 1641728
-986.57404 775.60864 2317.4678 1838848
-979.83142 781.18243 2334.1218 2496777
-960.82056 776.99481 2321.6096 2759949
-948.88538 778.4906 2326.0789 2036227
-940.44293 782.93823 2339.3682 2497033
-929.80164 785.66107 2347.5037 2168069
-915.85577 785.63177 2347.4163 2168068
-904.56323 787.91272 2354.2317 1378816
-883.64532 781.74982 2335.8174 1509888
-854.07947 767.61835 2293.5933 1838592
-837.19855 764.61481 2284.6189 1707009
-825.74725 766.55298 2290.4102 2036226
-812.84949 767.19073 2292.3157 2102019
-802.67224 770.46149 2302.0884 1707264
-792.08221 773.44226 2310.9949 1641472
-778.51599 773.57068 2311.3784 2497036
-772.30573 781.1438 2334.0066 2233864
-765.30212 788.17615 2355.0188 2694929
-748.19568 784.87164 2345.145 2365966
-748.41455 799.96063 2390.23 2695446
-721.96619 786.57794 2350.2434 1511174
-713.09106 792.19135 2367.0159 1971466
-699.11774 792.25269 2367.1992 2497810
-684.58826 791.6734 2365.4683 2629654
-673.27698 794.86926 2375.0173 4274736
-664.32874 801.05096 2393.4878 2695447
-654.59991 806.54065 2409.8906 2169360
-633.57935 798.05212 2384.5276 2037776
-615.91333 793.49817 2370.9207 1906189
-609.47394 803.53284 2400.9036 1971982
-595.78687 804.26343 2403.0864 2629911
-583.35089 806.76001 2410.5461 787969
-570.80817 809.23059 2417.928 2104080
-561.33636 816.29413 2439.0334 1840138
-546.14105 815.18793 2435.7283 2366738
-529.14838 811.26611 2424.01 3024412
-520.83032 820.79602 2452.4846 3419425
-504.96588 818.63904 2446.0398 1840392
-486.31577 811.70508 2425.3215 1117188
-473.68948 814.70923 2434.2979 2432274
-460.3671 816.66718 2440.1482 2234380
-440.89975 807.49792 2412.751 2234380
-428.16193 810.45209 2421.5776 2826003
-408.52188 800.09302 2390.6257 2233094
-399.5365 810.60651 2422.0393 1773313
-385.28741 810.82635 2422.696 2430730
-371.57913 812.2453 2426.9358 2957587
-360.36783 819.45648 2448.4824 2233864
-350.005 829.28314 2477.8438 1904901
-333.16882 823.96112 2461.9419 1708035
-316.83087 819.44031 2448.4338 3483932
-306.29132 830.20203 2480.5891 3483672
-287.43094 818.35828 2445.2009 3812376
-272.46622 816.93719 2440.9548 4207645
-260.99274 826.41156 2469.2637 3943445
-243.19492 815.79651 2437.5464 3812114
-228.08957 813.44293 2430.5144 4732959
-218.30473 831.02582 2483.0508 4864802
-203.11174 829.07507 2477.2222 4667682
-186.64587 821.21997 2453.7515 5392178
-172.95778 825.29187 2465.918 4340008
-159.27237 830.12933 2480.3721 4932665
-146.04135 838.55963 2505.5613 4604218
-133.42062 852.79913 2548.1079 3288617
-117.46127 846.60986 2529.6147 656899
-101.09598 835.25568 2495.6892 2695704
-86.854393 840.56305 2511.5474 2827031
-71.860329 839.2771 2507.7051 3156250
-57.468468 846.18781 2528.3538 4011301
-42.246674 841.44281 2514.176 4208680
-27.502686 846.22919 2528.4773 3089943
-12.484414 843.9325 2521.615 3550493
2.4523723 841.58472 2514.5999 2958357
17.485834 847.95715 2533.6404 6773834
32.377895 844.75232 2524.0647 5194291
47.868069 854.24689 2552.4338 3352086
61.548023 834.63391 2493.8313 3088916
75.956856 830.5863 2481.7375 2431245
90.255981 826.84705 2470.5647 1576453
104.05289 820.19275 2450.6821 1510920
117.29221 811.31177 2424.1462 196608
133.25386 821.14435 2453.5256 2893086
149.87022 832.67999 2487.9934 2498332
164.57602 832.48492 2487.4104 985093
181.46452 842.45508 2517.2007 327680
197.68176 848.03094 2533.8608 1182473
213.40593 850.85364 2542.2949 788229
228.49547 850.94061 2542.5549 1972246
242.66975 847.81927 2533.2283 4142898
259.11807 852.54346 2547.344 1708300
272.4064 846.92297 2530.5505 1115394
289.797 853.97778 2551.6296 1773064
301.39478 844.10889 2522.1421 1641477
318.5596 850.02753 2539.8264 2102026
335.61157 855.12451 2555.0559 3483680
350.50662 854.52289 2553.2585 1511177
367.11658 857.979 2563.585 393472
383.78961 861.30194 2573.5137 2102800
400.69925 864.88153 2584.2095 1248007
415.84302 864.52643 2583.1484 1511434
433.85211 869.94202 2599.3296 2038290
455.6658 882.35333 2636.4141 2169875
468.93051 877.93646 2623.2166 3814441
476.29898 863.11804 2578.9402 3156507
493.65686 866.76056 2589.8237 4076836
511.67456 871.30688 2603.408 3879457
523.48645 865.3288 2585.5459 2562827
541.04315 868.91705 2596.2671 2562829
558.21332 871.70306 2604.5918 3023382
576.13251 875.47742 2615.8694 4075814
587.26288 869.00812 2596.5396 3615519
597.10614 861.01343 2572.6516 3089174
618.58423 869.77594 2598.8335 3878432
628.53143 862.29358 2576.4766 2891537
648.95496 869.19769 2597.1057 2694673
664.62451 869.56207 2598.1946 2629654
690.92157 883.49976 2639.8394 4605249
715.19232 894.28644 2672.0693 7633528
746.6734 913.42639 2729.2583 7962499
770.50122 922.59082 2756.6411 8028552
788.61139 924.67059 2762.8552 7896965
806.92609 926.90057 2769.5183 7831172
824.67218 928.40179 2774.0037 7765379
844.83667 932.51355 2786.2893 7699586
860.93463 932.065 2784.9492 7962758
879.31464 934.05768 2790.9031 8225930
896.54578 934.77881 2793.0579 8357516
913.68988 935.3847 2794.8682 8357516
931.29645 936.43408 2798.0037 8291723
949.58612 938.12152 2803.0457 8423309
967.25043 939.1438 2806.1001 8554895
984.48718 939.72345 2807.832 8555408
1001.4224 940.00073 2808.6606 8555408
1018.3217 940.23578 2809.3628 8686994
1035.625 940.83026 2811.1392 8621202
1050.6394 939.3595 2806.7446 8555408
1057.2762 930.56104 2780.4556 8292236
1077.5758 933.87341 2790.3525 8884374
1101.775 940.414 2809.8955 8884373
1114.6945 937.27563 2800.5181 8950166
1136.2129 941.35333 2812.7021 9015444
1142.9934 933.27942 2788.5779 9541273
1147.8284 923.86981 2760.4624 4409163
1181.1844 937.35815 2800.7646 2236967
1210.7543 947.5097 2831.0969 2433830
1228.8774 948.54822 2834.2 2828843
1230.8121 937.23175 2800.387 3355445
1231.4073 925.20984 2764.4666 2171170
1238.3879 918.23822 2743.6357 920595
1254.9189 918.43713 2744.23 657935
1269.1284 916.95343 2739.7969 1974052
1306.0133 931.68347 2783.8093 2039588
1329.4384 936.5639 2798.3916 2039844
1323.0127 920.55377 2750.5544 1711136
1351.4913 928.92438 2775.5652 3026483
1362.5127 925.23895 2764.5532 1776672
1379.3346 925.5332 2765.4326 2829618
1383.6998 917.5603 2741.6101 4933969
1407.3302 922.39923 2756.0686 1052692
1430.0472 926.53558 2768.4275 3355444
1436.9352 920.43854 2750.21 1250069
1454.377 921.16272 2752.3738 3487030
1478.4564 926.02832 2766.9121 4144960
1475.603 914.10291 2731.2798 6447717
1493.8754 915.38135 2735.0994 3947840
1508.7401 914.56659 2732.665 2434603
1532.0293 918.82166 2745.3789 6251110
1558.9907 925.1665 2764.3369 3816512
1544.1353 906.82172 2709.5239 7631739
1559.2421 906.26929 2707.8733 3356224
1590.2588 914.8811 2733.605 2500404
1608.3446 915.95526 2736.8142 4738646
1641.2734 925.37653 2764.9644 7237750
1652.7273 922.62335 2756.738 1447449
1662.1415 918.79657 2745.304 1907745
1686.7687 923.37183 2758.9744 3881536
1695.3966 919.18512 2746.4648 2236711
1695.9635 910.74908 2721.2585 2434089
1717.9926 913.88885 2730.6399 3815742
1749.7242 922.08313 2755.124 1841952
1779.7457 929.23303 2776.4873 1447195
1828.1053 945.73871 2825.8054 1447451
1832.0109 939.15601 2806.1367 2303273
1849.5404 939.61322 2807.5027 4144964
1866.1598 939.60388 2807.4749 3158326
1854.974 925.71869 2765.9868 1776415
1874.1125 927.07733 2770.0464 5723740
1888.7118 926.18658 2767.3848 2499882
1919.5016 933.18219 2788.2874 657677
1925.7369 928.22296 2773.4695 1447195
1969.3759 941.22394 2812.3157 1776159
1999.2509 947.48383 2831.0195 1513244
1963.8652 922.96857 2757.7695 1908262
1984.4039 924.92419 2763.6128 3750466
2007.4614 928.01202 2772.8391 3421500
2022.599 927.41827 2771.0652 657678
2030.2634 923.43506 2759.1636 2171176
2040.2311 920.55481 2750.5574 1315868
2063.073 923.48291 2759.3064 4210504
2078.7861 923.19904 2758.4583 3421244
2100.374 925.5083 2765.3582 1973798
2092.1846 914.76233 2733.2498 1974051
2128.0769 923.30719 2758.7812 3092533
2148.4058 925.02069 2763.9011 6447976
2175.2402 929.4881 2777.2498 2237223
2186.0757 927.10327 2770.124 2500139
2197.613 925.04968 2763.9878 2960434
2223.0281 928.82465 2775.2673 1710621
2206.5239 915.15826 2734.4329 2105893
2202.1936 906.70331 2709.1702 4736844
2222.395 908.39813 2714.2341 2962487
2246.8855 911.80908 2724.4258 10134693
2256.9421 909.35583 2717.0957 2632237
2291.8853 916.89331 2739.6172 5066322
2297.4333 912.64777 2726.9319 4145220
2301.2205 907.76691 2712.3479 3816511
2318.0344 908.0567 2713.2141 3421497
2347.9214 913.42853 2729.2646 3618876
2363.9282 913.36389 2729.0715 2302503
2394.4089 918.85443 2745.4771 1579035
2413.7581 920.02802 2748.9834 1052435
2410.1252 912.48468 2726.4446 3355192
2408.178 905.67578 2706.0999 3355192
2423.0178 905.22864 2704.7637 4145221
2424.3545 899.77576 2688.4709 5000530
2455.9612 905.55511 2705.7393 1381913
2497.2405 914.80267 2733.3706 3816002
2492.2109 907.07635 2710.2849 3947588
2532.3171 915.77173 2736.2659 4802899
2563.5823 921.17944 2752.4241 592141
2588.0063 924.07629 2761.0793 723730
2588.5857 918.47601 2744.3462 4802898
2569.9436 906.16821 2707.5713 4079176
2568.1885 899.9306 2688.9336 4342346
0 0 0 0
0 0 0 0
0 0 0 0
0 0 0 0
0 0 0 0
0 0 0 0
0 0 0 0
0 0 0 0
0 0 0 0
0 0 0 0
0 0 0 0
0 0 0 0
0 0 0 0
0 0 0 0
0 0 0 0
0 0 0 0
0 0 0 0
0 0 0 0
-1776.5321 730.1806 2143.7717 1117701
-1775.7426 735.11304 2158.2532 985603
-1762.2441 734.81775 2157.3862 788226
-1748.2701 734.31842 2155.9202 590593
-1745.7284 738.64893 2168.6343 1183242
-1734.222 739.22247 2170.3181 327680
-1715.7065 736.79449 2163.1897 393216
-1705.3778 737.87225 2166.354 327936
-1691.7712 737.53729 2165.3706 853508
-1678.8837 737.513 2165.2993 2236446
-1680.0229 743.69769 2183.4573 2893604
-1683.9153 751.2066 2205.5029 1643534
-1669.689 750.68677 2203.9768 1972498
-1663.7737 753.92493 2213.4839 3157284
-1648.3717 752.88159 2210.4207 2894112
-1632.4247 751.57056 2206.5715 3683371
-1611.4357 747.89825 2195.7898 1906960
-1590.1028 744.00531 2184.3604 1182984
-1576.4796 743.6853 2183.4209 2236184
-1563.3462 743.59302 2183.1499 1445382
-1558.8176 747.62622 2194.9912 787968
-1554.6455 751.89972 2207.5378 1182724
-1547.0173 754.55994 2215.3481 2499604
-1570.9412 772.78705 2268.8621 5065019
-1549.8352 768.98627 2257.7031 5789260
-1498.856 750.16791 2202.4534 1446152
-1481.2939 747.89093 2195.7683 2893081
-1459.2198 743.27527 2182.217 2366477
-1437.1124 738.56 2168.3733 2431243
-1417.0295 734.80945 2157.3618 1773314
-1404.4672 734.92596 2157.7039 1839107
-1390.1531 734.11957 2155.3364 2891794
-1387.439 739.48071 2171.0764 2957584
-1378.8763 741.79602 2177.874 1641728
-1367.6987 742.73486 2180.6304 2233606
-1369.3663 750.73395 2204.1152 3944479
-1357.181 751.21924 2205.54 3878428
-1338.2781 747.95947 2195.9695 3286292
-1324.104 747.30457 2194.0469 3023120
-1314.04 748.97943 2198.9641 3154963
-1311.1316 754.80725 2216.0742 2497034
-1279.0465 743.78632 2183.7173 1576192
-1271.3574 746.87158 2192.7756 1774083
-1269.0651 753.22388 2211.4255 1839879
-1249.5417 749.37488 2200.125 2235148
-1242.2092 752.83282 2210.2776 1905927
-1225.1384 750.3999 2203.1345 656384
-1218.8497 754.58966 2215.4355 1642242
-1218.4897 762.58112 2238.8979 2299399
-1200.8038 759.78589 2230.6914 3023120
-1190.3992 761.58685 2235.9788 4536102
-1183.376 765.61597 2247.8081 3417878
-1167.3568 763.85052 2242.6248 3352086
-1167.0336 772.43298 2267.8225 2562827
-1156.0641 774.08704 2272.6787 1181696
-1149.3322 778.65088 2286.0779 2300683
-1134.5116 777.77826 2283.5159 2037001
-1121.8889 778.40961 2285.3696 2299915
-1101.161 773.36395 2270.5559 1905670
-1086.5282 772.5271 2268.0989 3352858
-1063.2899 765.47412 2247.3916 3550237
-1050.2727 765.69366 2248.0364 3483930
-1038.5226 766.85461 2251.4448 1970690
-1027.1754 768.34729 2255.8271 2431497
-1019.9393 772.99493 2269.4724 1707522
-1009 774.92267 2275.1321 2102279
-996.40375 775.61285 2277.1584 1312768
-990.28986 781.43726 2294.2585 2036485
-977.91937 782.41791 2297.1377 1575936
-965.48773 783.37677 2299.9529 1181184
-954.11163 785.23169 2305.3989 1970693
-940.0976 784.93805 2304.5366 2168070
-922.73846 781.80139 2295.3279 1641984
-906.98804 779.95447 2289.9053 3023378
-900.51733 786.15253 2308.1025 2759947
-886.83899 786.15253 2308.1025 2759948
-870.49695 783.75421 2301.061 2299397
-847.14795 774.87042 2274.9788 2694155
-833.86517 775.0556 2275.5225 2496520
-817.18005 772.03259 2266.647 2299397
-797.22687 765.76929 2248.2583 1312512
-790.70563 772.41437 2267.7678 1641728
-781.49622 776.61786 2280.1091 1904642
-767.31708 775.94354 2278.1294 1773314
-760.08209 782.39319 2297.0652 2694414
-748.03735 784.0368 2301.8909 2562572
-736.97534 786.79071 2309.9761 2695185
-728.61334 792.58582 2326.9902 2826517
-704.91382 781.59851 2294.7322 2300687
-692.45905 782.89233 2298.5305 2234640
-686.09918 791.26715 2323.1187 2695191
-667.14764 785.16577 2305.2053 3287586
-664.8338 798.79962 2345.2336 1445641
-656.34717 805.44061 2364.7312 2300947
-640.88843 803.62885 2359.4121 1840139
-624.8374 800.97705 2351.6265 2169105
-614.90442 806.22595 2367.0369 1774602
-603.09875 809.20721 2375.7898 1840652
-587.87451 807.63446 2371.1721 1708809
-576.40558 811.27008 2381.8462 2037517
-563.47589 812.98077 2386.8687 2037516
-545.60468 807.46619 2370.6782 3024154
-531.8172 807.86371 2371.8452 3090204
-518.48285 808.98987 2375.1516 1247747
-508.56613 815.6601 2394.7351 984833
-496.79126 819.64771 2406.4424 2234894
-482.65585 819.86115 2407.0691 4603443
-466.23993 816.09589 2396.0144 2432273
-451.46683 815.06 2392.9731 2695446
-432.68509 806.48505 2367.7976 1708038
-417.85464 804.94714 2363.2825 1115905
-409.06778 815.34851 2393.8203 1707779
-395.72723 817.09479 2398.9473 2299659
-381.92001 817.97168 2401.5217 2694415
-367.73083 818.06677 2401.801 3154965
-355.41913 822.5144 2414.8589 2825741
-340.42789 820.87408 2410.043 3615257
-326.47903 821.71375 2412.5081 3023120
-312.66751 822.99158 2416.2598 3220498
-297.08072 819.49518 2405.9946 3351828
-285.55518 827.41382 2429.2434 3088910
-269.05731 821.00092 2410.4155 3285776
-251.45691 810.31598 2379.0449 2167297
-238.93327 815.69318 2394.832 2693379
-219.7179 797.46191 2341.3062 3351566
-210.29691 814.71765 2391.968 2561797
-197.58807 820.80963 2409.8538 2430982
-183.42102 821.32123 2411.3557 1641988
-170.49734 827.95728 2430.8389 2760721
-158.23155 839.30774 2464.1633 3024410
-141.86835 829.02271 2433.967 3156253
-130.3593 847.9859 2489.6418 4340527
-114.66328 841.07709 2469.3579 2629909
-99.600349 837.46997 2458.7676 3024668
-85.414558 841.26569 2469.9119 2892823
-71.346146 848.02667 2489.7617 2234636
-56.897938 852.62189 2503.2529 2563346
-41.97752 850.88672 2498.1584 2826774
-27.085442 848.14795 2490.1177 4142890
-12.435506 855.51135 2511.7363 2299917
2.4318762 849.32849 2493.5837 2694932
17.223366 850.01843 2495.6094 787200
32.053398 851.09442 2498.7683 787200
46.648705 847.22729 2487.4146 2168334
61.040771 842.41241 2473.2783 2037006
74.819962 832.64166 2444.592 984065
88.481209 824.94122 2421.9839 655360
102.79964 824.66229 2421.165 853251
116.9448 823.23212 2416.9661 1840658
131.74474 826.22021 2425.739 722179
148.86673 841.75024 2471.3345 1314315
164.56898 847.18958 2487.304 788484
178.32465 842.53754 2473.6458 262144
194.60654 849.62122 2494.4431 1578001
211.17599 856.87164 2515.73 2563869
224.57869 851.16357 2498.9714 1379594
240.04492 853.4989 2505.8276 787716
255.51195 855.5647 2511.8928 459008
270.02905 854.39746 2508.4658 524545
286.27194 858.52771 2520.592 721923
300.99167 857.9068 2518.769 1115653
316.13751 858.50165 2520.5156 918530
328.6554 852.22833 2502.0977 1707783
343.12808 851.34692 2499.5098 2168588
359.59222 855.27496 2511.0422 3155483
377.82065 862.92035 2533.4888 3550241
394.66797 866.94751 2545.3123 3155483
407.32608 861.81476 2530.2427 2827031
427.24478 871.86279 2559.7434 3024411
445.24246 877.43622 2576.1064 2695447
457.31213 871.34491 2558.2227 3024665
472.06262 870.58868 2556.0024 3814178
483.39719 863.77557 2535.9995 4274215
500.50284 867.37463 2546.5662 4537130
513.91705 864.55292 2538.2817 2233864
532.86267 870.9325 2557.012 2694414
546.64429 868.75238 2550.6113 3089173
566.90643 876.71167 2573.9792 3615518
579.77747 873.12305 2563.4434 2826002
592.72491 869.82983 2553.7747 2563090
615.56812 880.86133 2586.1624 1970952
623.70184 870.81915 2556.6792 2365713
636.7489 867.95068 2548.2576 1379332
660.64771 879.66443 2582.6484 1576712
676.18073 879.96069 2583.5183 1775122
707.4563 900.27716 2643.1663 5723989
726.98816 905.09265 2657.3044 5922399
762.86627 929.62341 2729.3252 7963268
775.26892 925.12244 2716.1106 8094344
795.27893 929.69769 2729.5432 8160137
812.63776 931.05298 2733.5225 8094344
829.95636 932.31018 2737.2136 7963015
851.69733 938.39172 2755.0686 7897223
867.48889 937.81268 2753.3687 7897737
881.06372 934.90289 2744.8257 8226702
898.52905 936.15198 2748.4929 8292237
916.85712 938.23956 2754.6218 8292236
934.0274 939.08997 2757.1187 8292236
951.19574 939.90918 2759.5237 8226700
968.58026 940.91071 2762.4644 8555408
984.4292 940.41205 2761.0002 8621201
1000.8446 940.46198 2761.1467 8621201
1017.0015 940.27124 2760.5869 8489615
1036.4659 943.09619 2768.8806 8423309
1047.5531 938.32928 2754.8853 8488845
1055.1207 930.60455 2732.2058 8029064
1079.952 938.10938 2754.2397 8753044
1103.6665 944.43506 2772.8115 9015959
1119.9456 944.30579 2772.4321 9015956
1136.0452 944.03131 2771.6262 8686992
1144.3795 937.40381 2752.168 8751758
1165.7584 941.49768 2764.1875 7764605
1187.3206 945.62396 2776.3022 2237223
1199.1575 941.9978 2765.656 1974050
1211.0217 938.4906 2755.3589 2697771
1221.4065 933.94543 2742.0146 1908255
1214.9917 916.84271 2691.8018 1512987
1238.7957 922.69092 2708.9719 2433833
1237.0525 909.60468 2670.5513 1052690
1267.5447 920.25232 2701.8123 3487033
1267.1355 908.47943 2667.2476 2895153
1304.9768 924.08258 2713.0579 2697775
1300.0349 909.37897 2669.8887 855311
1328.025 917.78809 2694.5774 3618361
1344.2041 917.9317 2694.9993 4605257
1340.251 904.48572 2655.5222 6513255
1372.3717 915.414 2687.6072 4473673
1407.1316 927.83167 2724.0649 4802893
1397.2136 910.84229 2674.1851 3289654
1424.3246 918.10248 2695.5005 2829100
1457.6168 929.1416 2727.9109 5724763
1463.4708 922.64044 2708.8237 5001042
1481.7571 924.03296 2712.9121 6909296
1491.1267 919.89496 2700.7632 8422278
1517.7484 926.37482 2719.7876 4144450
1535.4608 927.33771 2722.6147 6119010
1532.0396 915.64978 2688.2993 4276806
1546.7428 914.92322 2686.1665 7237492
1582.3896 926.47382 2720.0784 8290180
1601.8806 928.4278 2725.8149 8749961
1623.0511 931.30634 2734.2664 5855326
1643.3179 933.6145 2741.043 5394775
1656.4735 931.87714 2735.9421 3289398
1668.5956 929.5976 2729.2495 4407879
1653.7314 912.47174 2678.969 1578779
1673.6873 914.70135 2685.5151 3881535
1709.0353 925.22186 2716.4028 3947071
1735.1732 930.60651 2732.2117 2631725
1732.1599 920.40173 2702.251 3618877
1767.4672 930.55945 2732.0735 3224118
1783.1968 930.31891 2731.3672 2828848
1796.8003 928.98322 2727.4458 3749949
1816.9646 931.03339 2733.4648 3026226
1831.604 930.24121 2731.1392 3815743
1861.8759 937.33282 2751.96 2499883
1876.6497 936.56689 2749.7109 4671052
1886.2007 933.22998 2739.9141 2960434
1899.5032 931.79034 2735.6875 1973539
1923.4929 935.57324 2746.7937 1447195
1930.5654 931.1333 2733.7583 2499885
1944.0269 929.82306 2729.9114 2697264
1964.1326 931.68616 2735.3816 2236714
1982.8363 932.85919 2738.8254 2960182
1991.2957 929.23267 2728.178 3157819
2001.4342 926.44177 2719.9841 3487037
2015.8127 925.64246 2717.6375 2368557
2021.9927 921.12097 2704.3625 5131605
2050.5601 926.78894 2721.0034 3947331
2081.9595 933.63849 2741.1135 1249818
2079.7146 925.41132 2716.959 1381147
2069.2446 913.67871 2682.5127 1118744
2136.1306 936.02142 2748.1094 5197649
2166.782 942.26843 2766.4504 10461348
2163.7576 933.88715 2741.8433 5263444
2165.4377 927.64618 2723.5203 2433835
2181.3506 927.5495 2723.2363 2039077
2182.9502 921.41272 2705.2192 4341832
2174.0752 910.97638 2674.5786 3355449
2203.3635 916.56647 2690.9907 2763568
2249.1414 928.88635 2727.1614 5461337
2234.7305 916.34998 2690.3552 7500920
2283.5969 929.75433 2729.7097 4803151
2269.8687 917.66418 2694.2139 3289913
2262.6104 908.34052 2666.8398 4736846
2316.6619 923.58856 2711.6074 3420985
2342.3289 927.38855 2722.7639 4407879
2330.4897 916.38831 2690.4678 2763054
2363.0645 922.88324 2709.5366 2302503
2388.002 926.32806 2719.6504 4013121
2371.4043 913.72272 2682.6418 3157812
2399.1677 918.26416 2695.9751 3355192
2426.4609 922.56665 2708.6072 2895154
2400.8997 906.84894 2662.4607 2631726
2408.707 903.85779 2653.679 3092020
2471.8748 921.54456 2705.6064 3749693
2482.8657 919.67664 2700.1221 3289399
2484.584 914.41986 2684.6885 4079172
2500.6619 914.4812 2684.8687 4079171
2520.1973 915.79822 2688.7354 7171698
2530.8271 913.88293 2683.1121 5461082
2529.4673 907.68909 2664.9272 6776686
2539.2446 905.5437 2658.6287 2763314
0 0 0 0
0 0 0 0
0 0 0 0
0 0 0 0
0 0 0 0
0 0 0 0
0 0 0 0
0 0 0 0
0 0 0 0
0 0 0 0
0 0 0 0
0 0 0 0
0 0 0 0
0 0 0 0
0 0 0 0
0 0 0 0
0 0 0 0
0 0 0 0
-1764.8459 737.99835 2129.6699 1183499
-1754.6884 739.03577 2132.6638 1052168
-1742.0498 739.03577 2132.6638 920327
-1723.5189 736.51782 2125.3977 986120
-1726.2637 743.12158 2144.4543 65792
-1717.2372 744.71826 2149.062 0
-1708.9908 746.67981 2154.7224 328707
-1698.4879 747.67749 2157.6016 920840
-1686.8555 748.18939 2159.0786 262912
-1687.0951 754.01501 2175.8899 460035
-1671.1567 752.64429 2171.9343 2762015
-1658.6852 752.82574 2172.458 2762015
-1658.5632 758.65894 2189.291 2499098
-1650.4492 760.8996 2195.7571 1446410
-1624.0626 754.68475 2177.8228 788483
-1614.2136 756.11688 2181.9553 657670
-1592.0062 751.73651 2169.3147 590849
-1568.5878 746.70825 2154.8044 1577737
-1559.8655 748.65088 2160.4104 1511944
-1547.7458 748.98157 2161.3647 1774857
-1529.3511 746.25586 2153.499 2366994
-1528.9729 752.34955 2171.0837 1709065
-1510.6176 749.62567 2163.2234 2366992
-1502.4281 751.94299 2169.9106 2629908
-1510.6814 762.60083 2200.6663 2169102
-1477.269 752.22797 2170.7329 3287069
-1449.248 744.44232 2148.2656 1050369
-1430.928 741.54596 2139.9075 1444865
-1412.8746 738.73724 2131.8022 1708039
-1411.1896 744.51337 2148.4707 1773830
-1396.538 743.49164 2145.5222 1379073
-1388.5255 746.01813 2152.813 1379074
-1369.7666 742.76404 2143.4226 2497805
-1367.3223 748.3786 2159.6248 2431242
-1352.0631 747.01904 2155.7014 2497034
-1342.2124 748.65021 2160.4084 3088913
-1330.3489 749.17926 2161.9353 2759948
-1326.4125 754.2262 2176.4993 2562315
-1302.4955 747.89929 2158.2415 3812636
-1303.3152 755.79163 2181.0168 3023376
-1288.4044 754.6286 2177.6606 2168587
-1274.299 753.91864 2175.6118 1378816
-1261.4631 753.95282 2175.7104 2234888
-1253.1925 756.74451 2183.7666 3090197
-1245.6331 760.02838 2193.2429 3090196
-1231.7361 759.47388 2191.6428 5195316
-1224.3223 762.94757 2201.667 2892562
-1214.7427 765.13196 2207.9705 1773828
-1197.264 762.33429 2199.8972 3154964
-1187.1549 764.21918 2205.3364 2694413
-1162.2843 756.5376 2183.1694 3747102
-1163.0503 765.55792 2209.1997 3484188
-1155.0331 768.93646 2218.9492 3747361
-1142.3772 769.26917 2219.9094 2760465
-1134.2961 772.7262 2229.8855 2102279
-1128.1406 777.59198 2243.9268 1906182
-1119.5015 780.84149 2253.304 2168842
-1098.4397 775.40002 2237.6016 2958872
-1091.902 780.20374 2251.4639 2169101
-1072.9396 776.13855 2239.7327 1971725
-1052.415 770.82739 2224.406 2761240
-1039.2238 770.8208 2224.387 2630165
-1029.65 773.53162 2232.2097 2827543
-1019.3463 775.75751 2238.6331 2366737
-1010.8403 779.42834 2249.2261 2103307
-996.43024 778.58392 2246.7893 1379329
-982.42401 778.03644 2245.2095 1445123
-969.17133 778.07892 2245.332 1839109
-965.60181 786.00476 2268.2039 1181697
-950.45209 784.59491 2264.1355 1641731
-946.36511 792.40765 2286.6812 1904647
-918.49524 780.24438 2251.5811 2826000
-890.39587 767.52466 2214.8752 2431243
-896.42969 784.28735 2263.248 2496778
-880.66064 782.1944 2257.2083 1838850
-868.94934 783.69635 2261.5425 2036226
-856.48383 784.5545 2264.019 2167811
-841.0351 782.66394 2258.5632 1378304
-818.0766 773.61053 2232.4375 2035969
-803.74658 772.5531 2229.386 1970433
-787.78253 769.86346 2221.6245 1904896
-780.1153 775.32831 2237.3945 1378304
-765.21143 773.66553 2232.5962 1904900
-750.53717 772.18048 2228.3108 1181184
-739.87921 774.84833 2236.0095 2694415
-736.8689 785.76868 2267.5227 1971205
-729.37952 792.2298 2286.1677 2234380
-716.06274 792.4859 2286.907 2234383
-698.99097 788.51617 2275.4514 1840393
-689.4054 793.00134 2288.3943 2103053
-676.57007 793.85352 2290.8533 3682342
-661.54053 792.1131 2285.8311 3682601
-650.39557 795.04852 2294.302 2235155
-639.41992 798.32074 2303.7446 1643017
-635.93396 811.29065 2341.1724 1840397
-622.39032 811.72186 2342.4167 1511431
-601.31079 802.1203 2314.7092 985088
-586.64209 800.82178 2310.9619 1116674
-577.2757 806.87225 2328.4221 2366739
-564.68866 808.60736 2333.4292 2037517
-548.95837 805.81555 2325.3728 1774602
-537.23993 808.92072 2334.3333 1511430
-518.57281 801.45081 2312.7771 2300690
-516.71796 820.26385 2367.0667 1314311
-503.17249 821.05084 2369.3376 2103567
-486.75592 817.06348 2357.8313 1051655
-475.63806 821.99774 2372.0703 985347
-460.00504 819.19183 2363.9731 1642503
-441.9924 811.83887 2342.7544 2366737
-426.40927 808.61603 2333.4543 1642244
-416.07095 815.45667 2353.1943 2892825
-399.1669 809.45709 2335.8813 2431504
-388.802 816.76349 2356.9656 3615776
-374.99725 817.1189 2357.9912 2891539
-360.66959 816.31836 2355.6812 2431241
-348.35983 820.20441 2366.8953 3483415
-334.37543 820.30829 2367.1948 3285522
-320.7829 821.42462 2370.4165 3416851
-306.71777 821.37769 2370.281 3153934
-289.78043 813.26544 2346.8711 3087885
-275.31662 811.62714 2342.1433 2890505
-257.776 800.26276 2309.3489 3483156
-245.33069 804.32953 2321.0845 2956558
-231.84152 805.25366 2323.7512 2496263
-217.95995 804.8454 2322.5732 1839105
-203.05098 800.33289 2309.551 1378560
-188.54231 796.85968 2299.5283 1313024
-175.60571 800.0072 2308.6113 1905159
-164.16109 811.05786 2340.5005 1313797
-150.95924 814.66522 2350.9106 2695444
-138.52802 823.58777 2376.6587 4143658
-127.59054 844.41583 2436.7632 3617059
-113.51161 847.11633 2444.5559 4538420
-98.712891 844.44916 2436.8594 2432787
-84.003891 841.76721 2429.1199 2893083
-69.514786 840.63513 2425.8528 1511948
-55.709389 849.33624 2450.9622 1905934
-41.093887 847.46832 2445.5718 591105
-26.527061 845.11572 2438.7827 3682603
-12.200959 853.9798 2464.3623 1314058
2.3890228 848.87921 2449.6431 2367259
16.831734 845.14368 2438.8633 985863
31.163754 841.86932 2429.4146 1446157
45.511265 840.95074 2426.7637 1906707
59.967579 842.00092 2429.7942 1380364
73.907898 836.80225 2414.7922 525314
87.71666 832.0423 2401.0562 393728
101.88172 831.51904 2399.5461 525316
116.86701 836.99835 2415.3582 920073
131.09229 836.43268 2413.7258 197378
147.47025 848.3623 2448.1516 855050
160.548 840.87 2426.5308 1052430
175.81667 845.14105 2438.856 394757
192.38777 854.54846 2466.0032 1710360
205.02519 846.38843 2442.4556 1907737
220.78548 851.34644 2456.7629 525314
237.20341 858.06995 2476.1653 131328
252.29539 859.49286 2480.2715 1709844
268.98022 865.88678 2498.7227 1249291
282.95639 863.34888 2491.3989 1578001
298.33591 865.13214 2496.5449 985861
314.07773 867.74792 2504.0933 2037778
324.60574 856.37262 2471.2671 2037779
341.37909 861.74457 2486.7693 2037261
357.81998 865.86737 2498.6665 1971211
372.35663 865.23779 2496.8496 1707782
387.78046 866.63885 2500.8928 2957589
402.36978 866.14062 2499.4551 3286552
414.35129 860.26337 2482.4949 2892820
431.79572 865.74225 2498.3054 4734767
445.94522 864.47064 2494.636 6774348
465.10852 872.68805 2518.3491 5523767
479.742 872.1593 2516.8235 2760720
498.81094 879.48303 2537.9578 3155479
507.54947 868.6969 2506.8318 3418653
518.92889 862.91571 2490.1489 4603185
538.3089 870.39032 2511.7188 4405551
559.29596 879.99139 2539.4248 3681828
574.92285 880.87653 2541.979 5195068
591.92798 883.77435 2550.3413 2365968
607.97339 885.13049 2554.2549 2365712
621.68396 883.10413 2548.4072 1971467
636.15021 882.22186 2545.8613 2102799
649.90326 880.41443 2540.6455 1840396
661.39172 875.69043 2527.0132 1051398
