# .PCD v0.7 - Point Cloud Data file format
VERSION 0.7
FIELDS x y z rgb
SIZE 4 4 4 4
TYPE F F F U
COUNT 1 1 1 1
WIDTH 1317
HEIGHT 1
VIEWPOINT 0 0 0 1 0 0 0
POINTS 1317
DATA ascii
-1651.463 826.80963 3209.1838 2365965
-1634.1327 827.66455 3212.5024 2694674
-1634.634 837.67755 3251.3669 1970951
-1604.0565 831.81293 3228.6038 2300172
-1572.885 825.49493 3204.0813 2958102
-1547.162 821.91705 3190.1941 2958875
-1530.9911 823.388 3195.9031 2958362
-1516.1685 825.62994 3204.605 1708551
-1521.4891 839.03687 3256.6428 1905930
-1496.5698 835.89795 3244.4595 1971468
-1479.1172 836.90204 3248.3569 853504
-1468.3728 841.7785 3267.2842 2103054
-1433.1433 832.56085 3231.5068 1642758
-1405.4706 827.54297 3212.0305 1839623
-1383.7749 825.95502 3205.8669 1970951
-1363.6586 825.2785 3203.2412 2102537
-1337.9033 821.12219 3187.1089 2233864
-1316.4659 819.53491 3180.9478 2628622
-1299.2192 820.5481 3184.8804 3220246
-1279.8167 820.20947 3183.5662 3088660
-1258.876 818.86023 3178.3293 3088660
-1246.0919 822.85626 3193.8396 2364937
-1214.1326 814.11792 3159.9224 2891022
-1205.8582 821.23608 3187.551 3154193
-1190.646 823.78076 3197.4277 3022608
-1179.9885 829.61005 3220.0535 3154193
-1158.2666 827.724 3212.7332 3482900
-1134.5903 824.35498 3199.6565 3219728
-1127.5643 833.17456 3233.8889 3745818
-1102.4285 828.6861 3216.4673 2496776
-1084.8479 829.81885 3220.864 2825742
-1063.1193 827.76251 3212.8826 3483672
-1054.8757 836.32233 3246.1064 2957328
-1035.9105 836.54175 3246.9585 2562569
-1016.4339 836.349 3246.21 2102278
-993.42511 833.18616 3233.9338 2036486
-980.12213 838.19922 3253.3918 2497035
-964.84314 841.68988 3266.9404 2628622
-945.49805 841.70367 3266.9939 2694415
-929.37524 844.64661 3278.4165 2891794
-913.68219 848.11401 3291.875 2957587
-900.06976 853.70618 3313.5806 3088917
-879.97961 853.26685 3311.8752 3154453
-845.31329 838.35132 3253.9819 2364937
-821.40137 833.65411 3235.7502 2826001
-804.59613 836.11749 3245.3115 2957331
-782.9248 833.52094 3235.2334 2497295
-759.65826 829.05304 3217.8918 2431760
-740.71033 829.18964 3218.4219 1971466
-732.698 841.89886 3267.7515 1576710
-710.08344 838.06403 3252.8669 1510661
-690.06323 837.16272 3249.3684 984576
-663.52014 828.06897 3214.072 1511432
-640.15295 822.51849 3192.5283 1050883
-632.31891 837.1958 3249.4968 1314570
-609.29944 832.05811 3229.5554 788228
-594.2373 837.80609 3251.8657 524544
-579.17218 843.93488 3275.6541 2629397
-550.99237 830.71631 3224.3474 2958101
-532.94141 832.36737 3230.7561 3812381
-517.14716 837.79767 3251.833 2562570
-501.10596 843.23273 3272.9287 3023123
-484.84457 848.71997 3294.2268 3023124
-463.97098 846.25531 3284.6604 2628367
-446.00833 849.11652 3295.7664 2299918
-430.17584 856.48114 3324.3513 1905930
-416.09314 868.20374 3369.8513 3024930
-391.88428 858.91425 3333.7949 2565920
-373.56839 862.23993 3346.7034 3093292
-351.45499 856.68201 3325.1309 2896427
-334.05716 862.64099 3348.2603 2370083
-311.71524 855.77905 3321.6262 2172958
-293.10684 858.93304 3333.8682 2633766
-273.3981 859.08545 3334.4595 2961959
-257.64261 872.65131 3387.1143 3225387
-238.29652 875.32056 3397.4749 3421995
-218.39078 876.23712 3401.032 3421738
-204.29947 903.04071 3505.0679 4671290
-182.52524 898.10828 3485.9229 3157281
-161.8443 897.98273 3485.4358 2497809
-138.14691 878.63544 3410.3411 3221018
-116.69704 869.40131 3374.4998 2299913
-96.756416 869.91724 3376.5022 2496779
-76.62989 868.59497 3371.3701 3023122
-57.334961 879.09052 3412.1074 4076066
-36.720497 869.76801 3375.9229 2957584
-16.634892 865.64825 3359.9326 2694155
3.278012 865.97229 3361.1899 2496777
23.220762 866.85406 3364.6128 2891792
43.574642 875.17847 3396.9231 2562830
63.984924 879.01666 3411.8208 2957848
83.305145 869.63232 3375.3965 2892827
102.73614 864.8147 3356.697 1381648
125.13729 882.50641 3425.366 1777432
0 0 0 0
0 0 0 0
0 0 0 0
387.77612 1658.5397 6437.4663 3033916
461.08176 1795.4352 6968.813 2309937
518.50049 1853.0459 7192.4243 2639415
581.89728 1921.6461 7458.689 2639671
641.43506 1968.7158 7641.3857 3428417
331.49557 950.34521 3688.6758 3822405
0 0 0 0
0 0 0 0
0 0 0 0
0 0 0 0
0 0 0 0
0 0 0 0
440.88919 864.77649 3356.5488 2300688
475.52286 892.44373 3463.9368 2892567
492.49124 886.03961 3439.0796 2431762
521.67651 901.25043 3498.1191 2431761
540.83374 898.63617 3487.9719 3352863
561.52698 898.67255 3488.1133 2234382
584.4397 902.13232 3501.5422 2497041
608.4281 906.95844 3520.2742 2300176
622.96716 897.84564 3484.9038 1708556
644.24042 898.71198 3488.2664 2432281
665.93689 900.09644 3493.6396 3616296
682.19983 894.27466 3471.0432 2825748
716.94232 912.30896 3541.0417 3351831
731.36469 904.1955 3509.55 3088918
737.74542 886.86371 3442.2783 3944999
755.55219 883.83063 3430.5056 3616547
779.3949 887.83221 3446.0374 2696216
801.49939 889.69983 3453.2864 2631710
820.94617 888.5979 3449.0093 7369071
889.53839 939.45239 3646.3965 7567735
914.7002 943.11523 3660.6133 7896449
939.62836 946.37299 3673.2581 7896702
973.67218 958.45667 3720.1594 7830654
998.41498 961.05194 3730.2332 7765117
1022.4303 962.84991 3737.2117 7764862
1046.2031 964.34802 3743.0266 7765116
1064.5743 960.90833 3729.6755 8160131
1081.4768 956.30981 3711.8269 8291460
1105.2721 957.86823 3717.8757 8423046
1130.8202 960.8551 3729.469 8488837
1149.8584 958.30212 3719.5596 8620423
1172.246 958.58386 3720.6533 8686216
1189.6268 954.83673 3706.1091 8027773
1207.4609 951.58264 3693.4788 7764600
1229.349 951.58246 3693.4778 7238256
1250.7316 951.19775 3691.9851 6316639
1272.6962 951.26141 3692.2319 6382176
1274.932 936.82605 3636.2026 3158063
1282.2112 926.51483 3596.1804 658185
1289.5219 916.56323 3557.5542 1841945
0 0 0 0
1243.3301 855.74933 3321.5107 460548
1274.6827 863.6554 3352.1973 131072
1292.444 862.25122 3346.7473 1643276
1275.5759 838.13593 3253.146 4406322
1287.2133 833.18976 3233.9478 4010792
1301.2031 829.8891 3221.1367 3352862
1316.6541 827.60217 3212.2603 4339501
1328.2507 822.99249 3194.3682 3418398
1336.1185 816.23419 3168.1365 2101770
1350.4113 813.534 3157.6558 2233873
1360.1306 808.18994 3136.9133 1181698
1361.9308 798.34796 3098.7126 1774346
1358.9679 786.01294 3050.8354 3616806
1324.0084 755.73828 2933.3271 3222301
1339.024 754.40424 2928.1492 4537647
1340.6072 745.63324 2894.1055 6313540
1366.8557 750.62921 2913.4968 5786681
1369.7701 742.84619 2883.2878 5654581
1378.1143 738.16315 2865.1111 5128493
1382.234 731.35907 2838.7017 5062185
1391.1545 727.22815 2822.668 5522733
1399.5408 722.91937 2805.9438 4535838
1417.8362 723.7702 2809.2463 3417101
1422.9821 717.9668 2786.7207 4732961
1417.9497 707.21991 2745.0078 5983028
1431.5005 705.88031 2739.8081 5917238
1452.6814 708.29102 2749.165 3745814
1448.551 698.44391 2710.9446 3350801
1459.0278 695.77875 2700.5999 2693128
1469.7686 693.2959 2690.9629 2627335
1467.5203 684.80511 2658.0068 3153423
1484.2499 685.25641 2659.7585 3416852
1519.153 694.00067 2693.6985 2956558
1521.1588 687.69067 2669.2068 2825741
1531.6466 685.3056 2659.9495 2957586
1574.7355 697.40729 2706.9209 3418140
1594.2815 698.9436 2712.884 2760468
1644.5682 713.79156 2770.5151 2629398
1706.0861 733.17242 2845.74 1643020
0 0 0 0
1628.3218 686.18829 2663.3755 1906966
1637.2286 683.31818 2652.2354 1709589
1613.849 667.15552 2589.5015 1446417
0 0 0 0
0 0 0 0
0 0 0 0
2154.9871 858.21606 3331.085 4407872
2169.8203 856.2793 3323.5679 3355441
2164.2319 846.39105 3285.1875 2960683
2221.6145 861.0863 3342.2256 5132111
2312.3093 888.31927 3447.928 2302499
2289.772 871.95587 3384.415 1973535
2283.8042 862.13171 3346.2834 1381402
2346.9985 878.36047 3409.2737 1644573
2381.9888 883.84692 3430.5688 1841954
2370.9924 872.32147 3385.834 1184536
2411.3921 879.73999 3414.6282 3487035
2419.6194 875.39539 3397.7651 4276550
2442.8538 876.50714 3402.0803 3224376
2469.0044 878.63861 3410.3533 1579295
2496.1128 881.07336 3419.8035 1315863
2522.0837 883.07068 3427.5559 2763568
2560.4302 889.33453 3451.8684 3619133
2569.6396 885.45905 3436.8262 3882305
2606.353 891.04736 3458.5166 3947841
2613.3787 886.47809 3440.7815 1447450
2624.2979 883.29016 3428.4077 2236711
2569.3691 858.1582 3330.8606 2500139
2608.9084 864.72089 3356.333 2895154
2622.2932 862.58087 3348.0269 2500140
2668.5032 871.18958 3381.4404 1973538
2659.6892 861.84003 3345.1514 263176
2671.0608 859.1214 3334.5991 1907746
2740.5759 875.00659 3396.2561 2960434
2723.9285 863.35101 3351.0161 262921
2758.8132 868.07904 3369.3672 920851
2746.0186 857.84418 3329.6418 1710879
2745.4426 851.54535 3305.1934 3882048
2773.7544 854.23224 3315.6223 3026740
2798.1724 855.69055 3321.2825 921620
2848.1616 864.89368 3357.0037 197384
2799.9199 844.34656 3277.252 460813
2810.9795 841.84229 3267.5317 4
2796.1487 831.67145 3228.0547 262920
2803.0303 828.05304 3214.0103 2894643
2872.7581 842.92395 3271.73 4276553
2924.9749 852.49152 3308.866 1446940
2960.0889 856.98041 3326.2893 394502
2987.9404 859.32129 3335.375 1183767
2990.5469 854.41864 3316.3457 3486523
2919.1958 828.58783 3216.0859 3750208
2944.4346 830.33044 3222.8499 5131861
3044.79 853.09698 3311.2161 3684419
3049.1655 848.85236 3294.7407 5329243
3054.9517 845.05182 3279.9893 4671313
3010.8701 827.59235 3212.2222 3486524
3015.1624 823.56512 3196.5908 2762803
3117.9238 846.31622 3284.897 3749698
3114.7661 840.21326 3261.2087 4407628
0 0 0 0
0 0 0 0
0 0 0 0
0 0 0 0
0 0 0 0
0 0 0 0
0 0 0 0
-2751.3298 811.24005 3077.9531 2630681
-2715.9658 806.15753 3058.6692 2433301
-2684.7065 802.23315 3043.7795 3946541
-2689.7495 809.17682 3070.1248 3025439
-2664.2571 806.96637 3061.7378 3091231
-2664.4346 812.55383 3082.9375 3025182
-2641.8528 811.22986 3077.9143 4012334
-2617.5122 809.34369 3070.7578 2696217
-2595.5759 808.17963 3066.3413 2366738
-2568.6096 805.422 3055.8787 4472371
-2563.8357 809.6333 3071.8567 3353633
-2521.5857 801.98566 3042.8406 3550755
-2506.3716 802.88855 3046.2661 2826774
-2457.2988 792.87964 3008.291 3353374
-2474.0435 804.11627 3050.9246 4011048
-2440.124 798.93042 3031.2485 3419167
-2412.6384 795.78979 3019.3325 3945252
-2352.5149 781.75635 2966.0876 5195318
-2357.5244 789.31866 2994.7803 3747874
-2335.7852 787.97217 2989.6716 3616285
-2327.2695 791.1001 3001.5393 3747871
-2338.2595 800.9577 3038.9404 3813664
-2313.1948 798.52222 3029.7 3353627
-2292.9668 797.73138 3026.6992 3616800
-2293.572 804.23309 3051.3674 3419421
-2279.3044 805.58154 3056.4839 3090456
-2273.6475 810.01929 3073.3213 2892823
-2266.9072 814.13965 3088.9546 2498322
-2236.4194 809.72906 3072.2202 3551265
-2246.6631 820.1145 3111.6238 3814436
-2216.771 815.89948 3095.6313 3024920
-2191.1121 813.18524 3085.3333 3090456
-2181.8679 816.56854 3098.1699 2827030
-2155.2654 813.45776 3086.3672 2498065
-2147.3655 817.41296 3101.3738 3879462
-2115.082 812.07452 3081.1191 2892567
-2115.6765 819.3764 3108.8235 2629140
-2085.5237 814.79395 3091.437 2892825
-2088.0691 823.01831 3122.6414 3879719
-2045.5005 813.44897 3086.3337 3090204
-2033.7019 816.05383 3096.217 2760983
-2009.0653 813.50775 3086.5571 2300689
-1971.173 805.49811 3056.1675 2169103
-1979.0613 816.22125 3096.8523 2366226
-1949.1764 811.42047 3078.6375 1971467
-1939.5294 815.03339 3092.3455 2300433
-1920.6561 814.80115 3091.4644 2957848
-1902.6068 814.91748 3091.9055 2826262
-1887.2928 816.21881 3096.8433 3286814
-1879.1501 820.67786 3113.7612 2497295
-1860.6454 820.65491 3113.6741 2694931
-1841.1199 820.17682 3111.8601 2629395
-1816.2043 817.26361 3100.8071 2497809
-1808.6421 822.1795 3119.4585 2695444
-1785.4758 820.03015 3111.3037 4011304
-1762.5151 817.9314 3103.3408 2695445
-1740.389 816.17975 3096.6948 2432274
-1727.9749 818.99396 3107.3723 2563860
-1711.4602 819.9043 3110.8262 2366481
-1692.0079 819.41187 3108.9578 2432274
-1684.3715 824.69379 3128.9983 2300688
-1654.9415 819.30408 3108.5488 1379587
-1647.4175 824.76001 3129.2493 1116416
-1635.2698 827.99896 3141.5386 2234894
-1633.6205 836.68945 3174.5115 1379587
-1607.5825 832.94592 3160.3079 1971210
-1601.0896 839.36041 3184.6455 1971210
-1580.3999 838.39667 3180.9888 2497554
-1535.7816 824.56232 3128.4993 2563090
-1517.2423 824.56274 3128.501 2498068
-1504.2665 827.62421 3140.1165 1971468
-1496.3118 833.55939 3162.6355 1840139
-1483.6523 836.99103 3175.6558 2234896
-1457.5225 832.81409 3159.8076 2629656
-1452.9971 841.03357 3190.9937 1708296
-1422.0917 833.99902 3164.3037 1642503
-1400.1847 832.12421 3157.1902 1840138
-1388.2343 836.19592 3172.6389 2234382
-1361.0951 831.10492 3153.323 1773828
-1318.6821 816.41608 3097.5913 2497294
-1305.9352 819.93829 3110.9553 2036485
-1294.4408 824.35925 3127.7288 2431243
-1273.1161 822.55719 3120.8916 2891281
-1244.2722 815.77222 3095.1487 2891281
-1223.5675 814.20038 3089.1848 2891024
-1210.3221 817.61981 3102.1587 2891281
-1197.7927 821.63586 3117.396 2759949
-1181.9467 823.46698 3124.3435 2693899
-1156.2216 818.36414 3104.9827 2365191
-1147.951 825.65021 3132.627 2562313
-1134.5232 829.40558 3146.8752 3022351
-1118.5795 831.41632 3154.5044 2956558
-1105.3749 835.56598 3170.2488 2825742
-1081.905 831.96545 3156.5879 2562570
-1059.1558 828.802 3144.5854 2759949
-1038.5118 827.20221 3138.5156 2562826
-1026.2649 832.35443 3158.0637 2562828
-1011.3028 835.45514 3169.8284 1839106
-989.08478 832.56543 3158.8643 2431243
-970.36462 832.56543 3158.8643 2431243
-957.6214 837.79443 3178.7036 2562829
-941.42981 840.15582 3187.6633 2431243
-925.58514 842.92993 3198.1885 2562572
-907.77374 843.99139 3202.2158 2694158
-891.80499 846.84802 3213.0544 2628622
-871.30621 845.43378 3207.6885 2628365
-854.32227 847.44305 3215.3118 2693645
-831.05261 843.1665 3199.0862 3023123
-813.51385 844.64056 3204.679 3089172
-794.61249 844.73651 3205.043 2233607
-771.02148 839.72949 3186.0459 2037001
-751.16718 838.64307 3181.9238 2102796
-730.02051 836.02063 3171.9739 2432018
-715.08191 840.55713 3189.1858 2169102
-697.16632 841.74542 3193.6943 1576710
-679.5033 843.31348 3199.6438 2037261
-654.60724 835.73718 3170.8982 2300690
-639.29657 840.31238 3188.2573 2761500
-625.32062 846.974 3213.5325 1182215
-607.08612 848.1051 3217.824 262144
-590.8703 852.22101 3233.4402 458752
-568.67572 847.70056 3216.2888 1839883
-552.68378 852.43329 3234.2454 3089432
-533.1698 851.8786 3232.1411 2102283
-510.25259 845.6424 3208.48 2628366
-486.98828 838.32593 3180.7202 1510403
-471.88992 845.04346 3206.2078 2496781
-456.34448 851.49066 3230.6689 2234122
-436.99762 851.09869 3229.1819 2300175
-416.35306 848.02777 3217.5305 2629654
-402.99045 860.20575 3263.7356 2564890
-382.76218 858.21765 3256.1921 2565662
-360.77484 851.86493 3232.0891 2500898
-347.00858 865.29993 3283.0632 2041118
-328.69421 868.31616 3294.5073 1844511
-310.13947 871.03815 3304.835 2173731
-290.00674 869.39667 3298.6069 3950398
-270.57794 869.78058 3300.0637 2042145
-252.23955 874.00262 3316.0825 1712666
-232.18884 872.50378 3310.3958 2238240
-213.40581 875.93134 3323.4004 2632228
-193.96912 877.1001 3327.835 1315342
-173.6806 874.24579 3317.0054 1511948
-154.68449 877.9986 3331.2439 1577225
-135.37547 880.8136 3341.9243 2103310
-116.14341 885.17993 3358.4907 2102795
-95.201065 875.62164 3322.2253 2628366
-75.578629 876.38446 3325.1194 2825745
-55.947407 877.54736 3329.5317 2693900
-36.035435 873.17474 3312.9414 2694156
-16.438787 875.1203 3320.3232 2496777
3.2219083 870.72906 3303.6624 2496779
22.809063 871.07074 3304.9587 2496780
42.516022 873.55835 3314.397 3089172
63.261528 889.0694 3373.2478 2892825
83.231903 888.85358 3372.429 2696475
101.88036 877.33765 3328.7361 3618354
121.43171 876.07184 3323.9333 2370089
0 0 0 0
0 0 0 0
0 0 0 0
381.9736 1671.3008 6341.1387 2639672
431.42456 1718.5935 6520.5732 2705722
509.17941 1861.5913 7063.126 2245171
556.57935 1880.3152 7134.167 2837821
534.86865 1679.3995 6371.8657 3034946
0 0 0 0
0 0 0 0
0 0 0 0
0 0 0 0
0 0 0 0
0 0 0 0
417.00708 876.28259 3324.7329 3352347
440.263 883.41162 3351.7815 3549724
456.92007 877.25568 3328.425 3549725
483.94672 890.69427 3379.4131 6181702
511.07455 903.24371 3427.0271 3286809
534.51953 908.57367 3447.2498 2694417
556.53632 911.17297 3457.1118 3023125
575.21118 908.31061 3446.2515 4207656
597.51129 911.17267 3457.1108 3089173
614.31012 905.73407 3436.4758 2628623
636.56055 908.42432 3446.6831 3483932
658.1969 910.09827 3453.0342 3221273
677.24725 908.20319 3445.8442 3089684
692.22308 901.11517 3418.9512 4404776
711.38684 899.72687 3413.6838 3812896
726.6134 893.57349 3390.3369 3154968
748.05389 895.18738 3396.4604 2365452
770.99866 898.46967 3408.9138 2759954
798.5025 906.76154 3440.3743 2827033
820.40729 908.44073 3446.7451 2565150
849.61047 917.9234 3482.7236 6513504
896.31848 945.4201 3587.05 7830652
923.13806 951.15094 3608.7935 7896702
947.08722 953.73151 3618.5847 7962495
978.28705 963.33783 3655.0322 7962495
1005.8123 968.98779 3676.469 7831165
1027.118 968.53345 3674.7451 7830909
1049.8671 969.43079 3678.1497 7765116
1071.6252 969.39514 3678.0146 8028545
1084.3611 961.36218 3647.5361 7765116
1118.9645 972.65125 3690.3687 8620423
1129.5851 963.0603 3653.9792 8357251
1162.552 972.5238 3689.885 8093823
1186.2614 974.03656 3695.6248 8159614
1192.9939 961.80756 3649.2261 8159614
1211.7318 959.52039 3640.5486 7567221
1220.9146 949.87946 3603.9695 7698292
1249.6334 955.50787 3625.3245 7040362
1299.7217 977.00952 3706.9043 6119004
1293.4934 956.16656 3627.8235 4210752
1288.9344 937.21893 3555.9336 394759
1281.5988 916.89435 3478.8193 262659
1277.4211 899.43683 3412.5835 393988
1269.8558 880.17554 3339.5034 197121
1270.1458 866.86639 3289.0068 2301468
1275.1974 857.16034 3252.1807 788743
1280.1199 847.65784 3216.127 1642250
1329.463 867.4165 3291.094 2892314
1333.5642 857.51239 3253.5164 3681576
1320.6008 837.07391 3175.9702 2234130
1326.8314 829.20532 3146.1155 1642508
1337.5067 824.29382 3127.481 1445129
1366.4395 830.61487 3151.4636 1445640
1378.9868 826.93951 3137.519 3025440
1348.3495 797.81 3026.9973 3354403
1299.4631 758.78912 2878.9473 5195835
1311.9149 756.13245 2868.8674 3879459
1328.079 755.65601 2867.0596 5852732
1367.0284 767.99225 2913.865 5325874
1365.8896 757.78027 2875.1194 4865321
1376.5878 754.30597 2861.9375 5127721
1388.4611 751.55237 2851.49 5390637
1384.6505 740.47766 2809.4709 3943444
1387.9763 733.43713 2782.7583 4206360
1403.103 732.72455 2780.0547 4798754
1382.8774 713.78125 2708.1812 5522477
1400.1448 714.40271 2710.5393 4600865
1406.3207 709.4151 2691.6155 4535071
1440.724 718.6189 2726.5359 3680021
1433.1241 706.90009 2682.0732 3022091
1445.991 705.4231 2676.4692 3153423
1445.9558 697.75214 2647.3647 2627080
1451.61 692.96185 2629.1897 2890765
1468.3479 693.50818 2631.2625 3417109
1467.0801 685.62823 2601.365 3286294
1494.5201 691.18903 2622.4634 3088914
1508.0426 690.26495 2618.9573 2760208
1526.6893 691.68134 2624.3313 3089173
1545.9082 693.32574 2630.5703 2760467
1570.515 697.32965 2645.7617 2958105
1592.0215 699.89136 2655.4812 2103055
1609.0286 700.44421 2657.5789 1840399
1613.5469 695.60254 2639.209 1972501
1616.3356 690.11523 2618.3894 1314572
1625.5482 687.4491 2608.2737 1117192
1627.33 681.72015 2586.5374 1775380
1632.9396 677.68677 2571.2341 1643538
0 0 0 0
0 0 0 0
1996.9506 806.18646 3058.7791 3683889
2162.0261 864.97729 3281.8391 3684146
0 0 0 0
2064.7256 811.45044 3078.7512 4276031
0 0 0 0
2217.052 856.18408 3248.4768 1117970
2285.3259 874.95276 3319.6875 1447192
2301.7539 873.72089 3315.0134 1381143
2353.1321 885.66431 3360.3286 1842466
2360.4822 880.97528 3342.5378 2039845
2395.8613 886.73816 3364.4028 1908260
2392.6028 878.22369 3332.0977 3092533
2409.2839 877.10754 3327.863 2895154
2398.5383 866.1059 3286.1213 2368809
2393.0657 857.17017 3252.218 2434603
2440.8408 867.29767 3290.6431 2236970
2474.3987 872.25287 3309.4436 5263448
2497.6648 873.5307 3314.292 1053209
2518.1895 873.83728 3315.4551 1908005
2540.9783 874.91864 3319.5581 3158329
2545.6687 869.79968 3300.136 3487036
2589.9001 878.16608 3331.8792 1381404
2613.7205 879.53717 3337.0815 328970
2603.3086 869.45496 3298.8281 2170665
2608.7324 864.77246 3281.062 2894387
2575.2915 847.37109 3215.0391 1447198
2652.543 866.38007 3287.1616 1907747
2684.8379 870.5351 3302.9263 526092
2711.8333 872.92407 3311.9902 2170920
2707.6985 865.33002 3283.1775 1184279
2706.9641 858.92328 3258.8696 921621
2699.4043 850.45709 3226.7476 1908517
2734.6975 855.51593 3245.9414 4145478
2749.6812 854.19476 3240.929 3026738
2773.3018 855.55664 3246.0959 1
2788.6953 854.37903 3241.6279 1316121
2799.4106 851.79407 3231.8203 2500395
2800.9331 846.46625 3211.6057 2171174
2841.7288 852.99878 3236.3911 4671563
2833.0415 844.69012 3204.8669 2960947
2843.9609 842.29901 3195.7947 4868944
2866.5698 843.37878 3199.8914 4013635
2870.2842 838.92175 3182.9812 4342346
2860.4119 830.57794 3151.3235 3816512
2912.1992 840.13025 3187.5664 7500662
2969.6855 851.19305 3229.5398 2105635
3007.4341 856.49292 3249.6482 4934226
2979.9482 843.26526 3199.4609 2960438
2902.1401 816.05475 3096.2207 3091512
2913.2363 814.02814 3088.5315 2894647
2938.46 815.94995 3095.8228 4
2964.3179 818.02271 3103.6873 854799
0 0 0 0
0 0 0 0
0 0 0 0
0 0 0 0
0 0 0 0
0 0 0 0
0 0 0 0
-2653.2339 799.90649 2968.2119 1709836
-2642.5408 801.99963 2975.9792 2565145
-2647.1094 808.784 3001.1541 4341300
-2658.0117 817.60846 3033.8987 3749420
-2600.2217 805.2793 2988.1489 3091490
-2574.0007 802.62494 2978.2993 3025952
-2614.3513 820.83551 3045.8735 3683368
-2567.3132 811.6709 3011.8665 3749162
-2521.8267 802.87195 2979.2161 3157024
-2524.1284 809.27051 3002.9592 3091488
-2511.1956 810.84082 3008.7861 3419681
-2506.2214 815.02173 3024.3003 5196091
-2485.3794 814.06555 3020.7522 3222300
-2423.6716 799.6131 2967.1235 3748643
-2386.9426 793.25061 2943.5142 4011301
-2380.1187 796.80597 2956.7068 3418909
-2339.8823 789.14539 2928.2808 3418907
-2342.4065 795.89941 2953.343 2695185
-2317.1985 793.26135 2943.554 3682080
-2297.8091 792.59045 2941.0645 3550748
-2270.2441 789.06763 2927.9922 3287833
-2285.4377 800.46649 2970.2903 4208935
-2257.7559 796.90894 2957.0889 6446410
-2232.4451 794.13904 2946.8108 2695953
-2252.5115 807.5946 2996.7405 3682594
-2229.9658 805.86499 2990.3223 3682594
-2242.1951 816.77527 3030.8069 3090716
-2229.1997 818.59875 3037.5735 3091229
-2218.9062 821.45221 3048.1619 5393726
-2204.7405 822.90723 3053.5608 2893080
-2190.2239 824.25421 3058.5593 2169612
-2165.6462 821.80597 3049.4744 2761751
-2157.8037 825.72034 3063.9995 1380100
-2135.6323 824.17151 3058.2524 919296
-2113.9922 822.80292 3053.1741 656128
-2091.4873 821.07117 3046.748 2169360
-2076.4441 822.2641 3051.1746 2563606
-2067.1616 825.77917 3064.218 1839882
-2055.5903 828.43433 3074.0703 1708553
-2008.4694 816.68164 3030.4597 1708551
-1989.0592 816.0863 3028.2507 1840140
-1961.2233 811.9917 3013.0566 1971982
-1938.9631 810.15149 3006.2283 1840140
-1924.1714 811.42664 3010.96 1708555
-1898.2551 807.99054 2998.2097 1774347
-1903.5533 817.90149 3034.9861 1774861
-1874.8296 813.24377 3017.7026 2497812
-1864.0352 816.34839 3029.2229 2958363
-1826.618 807.74066 2997.2825 2497812
-1853.2585 827.56885 3070.8586 2892569
-1834.2853 827.21936 3069.562 2958103
-1801.2595 820.46216 3044.4883 2826773
-1791.9182 824.46552 3059.3433 2365966
-1793.6965 833.71924 3093.6809 2892308
-1751.186 822.36572 3051.5515 2564114
-1727.9873 819.93872 3042.5459 3484961
-1709.0048 819.48242 3040.8525 2366224
-1701.2839 824.47394 3059.3748 1840138
-1688.4702 827.07831 3069.0386 1906188
-1683.1892 833.46948 3092.7542 1708810
-1646.2998 824.17725 3058.2737 1643018
-1630.8235 825.51752 3063.2471 853504
-1616.5217 827.4892 3070.5632 1445639
-1614.2451 835.73145 3101.1477 1577222
-1587.6847 831.44653 3085.2476 1774344
-1584.2007 839.28729 3114.3423 2169102
-1572.9812 843.16632 3128.7363 2563860
-1536.8011 833.59882 3093.2341 2300431
-1524.3657 836.83539 3105.2441 2366225
-1500.1215 833.58911 3093.1982 2037004
-1486.293 836.12201 3102.5972 2365969
-1468.6769 836.56091 3104.2256 2234640
-1468.7042 847.18817 3143.6604 2629653
-1429.7308 835.3028 3099.5574 2827032
-1443.1279 854.10309 3169.3193 3287582
-1397.0034 837.70728 3108.4795 2892824
-1386.6366 842.60175 3126.6416 3156251
-1375.2924 847.02698 3143.062 2628881
-1333.452 832.53339 3089.281 2562829
-1310.7692 829.76385 3079.0039 2826001
-1285.9965 825.57446 3063.4583 2431243
-1261.5876 821.50195 3048.3464 2694159
-1246.1243 823.22076 3054.7244 2956817
-1224.9792 821.1814 3047.157 3220246
-1199.4851 816.12195 3028.3831 3220246
-1190.4039 822.24579 3051.1064 3351832
-1175.7554 824.65356 3060.0413 3088914
-1155.8514 823.39319 3055.364 2628363
-1144.0006 827.92053 3072.1636 2628363
-1126.9644 828.78101 3075.3567 2694413
-1113.2522 832.15448 3087.8748 2693643
-1099.6129 835.69617 3101.0168 2628363
-1081.1136 835.60193 3100.667 2430727
-1064.2101 836.75897 3104.9607 2628106
-1042.5629 834.16138 3095.3218 2825487
-1021.4427 831.89996 3086.9302 2102278
-999.87799 829.18744 3076.865 2562829
-980.96191 828.61145 3074.7278 1970692
-957.9458 824.4848 3059.4148 2102277
-952.51971 835.63031 3100.7727 2233607
-942.6203 843.21301 3128.9094 2168074
-926.51343 845.43542 3137.1565 1839108
-900.62524 838.64093 3111.9441 2101765
-891.7113 847.69879 3145.5549 2496524
-864.20691 839.0932 3113.6221 2167815
-849.25958 842.57019 3126.5244 1970181
-826.90027 838.68475 3112.1067 2299402
-812.34088 842.71362 3127.0564 1773315
-792.93011 841.78033 3123.5933 1641472
-772.09784 839.25714 3114.2307 1576451
-756.82916 842.80615 3127.3999 2497553
-743.84674 849.14319 3150.9148 1971466
-726.00073 850.11157 3154.5081 1182208
-707.47803 850.31781 3155.2732 1576453
-687.35791 848.56311 3148.7622 1774090
-667.61865 847.19385 3143.6814 1510919
-652.4624 851.72858 3160.5085 1445639
-633.42078 851.30969 3158.9539 1511433
-616.24585 853.45038 3166.8972 2629915
-595.38464 850.45996 3155.8008 1051143
-583.74286 860.87183 3194.4363 327680
-559.81116 853.24988 3166.1533 1510917
-538.16937 848.71033 3149.3086 2826262
-520.86499 850.93079 3157.5479 3681310
-499.87091 847.06403 3143.1997 2562571
-481.10712 846.82385 3142.3081 3220500
-459.58426 841.51221 3122.5984 3286550
-446.1026 851.09625 3158.1621 3154966
-429.74756 855.79779 3175.6079 3221276
-411.90857 857.83948 3183.1838 1116162
-392.86084 857.43896 3181.6978 1775122
-375.79379 861.539 3196.9116 1710870
-358.13763 864.65204 3208.4631 2172705
-343.06671 874.70557 3245.769 3160883
-327.13956 883.64081 3278.925 3227191
-304.03574 873.0954 3239.7939 3095602
-283.56998 869.21454 3225.3936 3029298
-269.32544 885.22076 3284.7878 2239780
-249.15184 882.71509 3275.49 1976608
-231.69878 890.23889 3303.4084 2830891
-212.31244 891.0379 3306.3733 2698278
-189.90001 878.00793 3258.0232 2171164
-169.75175 873.68201 3241.9709 1643790
-152.18439 883.23053 3277.4023 2103568
-134.05756 891.85083 3309.3899 1971467
-113.0277 880.80298 3268.3945 2102795
-93.370773 878.09698 3258.3538 2168071
-74.043457 877.88812 3257.5786 2299657
-54.401806 872.49066 3237.55 2694414
-35.28476 874.20935 3243.9275 2168070
-16.131849 878.09009 3258.3279 2759949
3.1494362 870.28119 3229.3516 2497035
22.342381 872.43347 3237.3381 2891536
41.886528 879.97546 3265.3237 2825746
61.978275 890.61987 3304.822 2826517
81.466217 889.55914 3300.886 1840138
101.9542 897.71466 3331.1487 3552045
119.81653 883.85535 3279.7212 2566181
0 0 0 0
0 0 0 0
0 0 0 0
0 0 0 0
0 0 0 0
470.04834 1757.1665 6520.3159 3429959
435.7807 1505.3187 5585.7847 3956559
0 0 0 0
0 0 0 0
0 0 0 0
0 0 0 0
0 0 0 0
0 0 0 0
0 0 0 0
418.98578 900.23718 3340.509 2694674
434.59024 891.63629 3308.5938 3418140
456.30905 895.78119 3323.9744 3878691
479.23697 901.85834 3346.5249 3286553
496.992 898.10474 3332.5962 2234379
524.2525 911.15863 3381.0352 2760724
545.02191 912.38513 3385.5867 2628625
571.33246 922.47131 3423.0132 2892055
583.18536 909.32288 3374.2234 1378819
604.39673 911.15454 3381.0203 1246721
632.29901 922.63184 3423.6089 3023127
644.06573 910.58295 3378.8992 2299659
662.79828 908.81201 3372.3279 2299658
689.51575 917.77301 3405.5793 2101769
694.96625 898.72217 3334.8875 1904646
712.75342 896.23737 3325.667 1970184
737.16583 901.99292 3347.0242 1576454
755.93024 900.7171 3342.2898 1971210
790.78455 918.18848 3407.1211 3024669
807.79816 914.5907 3393.7708 2235672
834.36017 921.71582 3420.21 2960680
866.68365 934.71667 3468.4521 6711399
887.54968 935.04462 3469.6689 7567224
921.3941 948.72089 3520.4177 7830909
943.53027 950.00311 3525.1753 7830909
971.92072 957.39038 3552.5876 7962495
999.03204 963.23126 3574.2612 8028288
1013.0723 956.48859 3549.2412 7896448
1043.4341 965.1167 3581.2576 7896447
1063.4838 964.05273 3577.3096 7765116
1093.6304 972.00452 3606.8162 8028288
1109.6188 967.30896 3589.3923 8028286
1129.8909 966.4541 3586.2202 7962493
1155.7216 970.29761 3600.4822 7896699
1169.8275 964.33655 3578.3625 7896441
1191.9115 965.04736 3581 7962234
1206.266 959.58441 3560.7288 7896441
1226.6382 959.0141 3558.6125 7896441
1215.2753 934.07123 3466.0571 6448485
1254.2809 948.02771 3517.8455 5856349
1271.0979 945.03119 3506.7261 6448485
1275.9877 933.40601 3463.5886 2434340
1274.969 917.89526 3406.033 2697769
1240.8962 879.44208 3263.3447 2499619
1244.1053 868.18579 3221.5759 459523
1271.3712 873.80377 3242.4226 328194
1284.6852 869.80817 3227.5964 2038294
1292.7704 862.44165 3200.2612 3484715
1301.986 856.03131 3176.4746 1379853
1293.0712 838.0531 3109.7629 1905939
1332.6033 851.53802 3159.8013 853507
1340.3151 844.59772 3134.0479 2892831
1345.885 836.51581 3104.0583 3484965
1318.3048 808.32574 2999.4534 2958620
1302.339 787.91229 2923.7053 4143405
1287.631 768.78601 2852.7334 4077097
1316.9907 776.12524 2879.967 4998453
1326.6234 771.79999 2863.9172 5524282
1341.0796 770.35468 2858.5542 7365715
1346.7667 763.97113 2834.8667 4273184
1367.6129 766.2381 2843.2788 4404513
1369.4424 757.92499 2812.4314 4930342
1381.5056 755.40759 2803.0901 4469791
1386.1017 748.91547 2778.9998 4930085
1392.7255 743.65857 2759.4932 5653551
1398.4816 738.06573 2738.7397 3943191
1408.7469 734.9538 2727.1921 5193260
1422.6769 733.80255 2722.9204 3548436
1415.9651 722.14972 2679.6802 1641987
1423.6687 718.02582 2664.3777 3548694
1439.2181 717.90594 2663.9329 2496007
1445.1733 713.05493 2645.9321 3022350
1440.4122 703.07721 2608.908 3285781
1448.0103 699.28003 2594.8176 2759181
1457.5193 696.47583 2584.4121 1838595
1464.1945 692.38989 2569.2502 2101765
1477.9098 691.68286 2566.627 3746847
1492.7563 691.51428 2566.0015 4142119
1504.4957 689.92426 2560.1013 4010791
1518.5704 689.42627 2558.2534 3155483
1549.3435 696.44415 2584.2947 3287328
1560.0737 694.40338 2576.7219 1248260
1592.6118 702.01501 2604.9663 1445899
1599.8772 698.44727 2591.7275 1906709
1607.4928 695.09888 2579.3027 1972502
1638.2113 701.70941 2603.8325 1249035
1649.3558 699.89062 2597.0835 2038294
1641.9939 690.32483 2561.5876 2301979
1935.0719 806.08795 2991.1497 4999235
2008.0044 828.87628 3075.7104 4341047
2076.946 849.62219 3152.6921 3485736
2142.3079 868.54681 3222.9158 4407095
2072.2744 832.72919 3090.0073 5065025
2085.2686 830.61102 3082.1472 4868420
2179.7205 860.69434 3193.7776 4473408
2227.9009 872.146 3236.2712 591882
2282.5085 885.89673 3287.2961 1118228
2300.7954 885.43719 3285.5908 2434346
2341.4641 893.52637 3315.6074 2368810
2359.4868 892.91095 3313.3237 2039845
2370.1355 889.53815 3300.8081 1052949
2360.2627 878.5816 3260.1519 2566703
2324.6169 858.28723 3184.8455 4606286
2343.8923 858.43414 3185.3906 1118231
2351.5754 854.36719 3170.2993 2631726
2444.6047 881.12653 3269.5952 1908259
2483.8955 888.24799 3296.0208 3882054
2488.22 882.85181 3275.9973 4868949
2471.9875 870.30194 3229.4282 2565934
2463.6362 860.698 3193.7913 3684417
2466.9604 855.28851 3173.7183 3487039
2498.3696 859.62427 3189.8069 4145221
2518.7476 860.12775 3191.675 2368554
2535.9924 859.56183 3189.5752 855572
2529.5181 851.02423 3157.8948 789521
2562.4255 855.76428 3175.4836 1710626
2606.0791 863.9978 3206.0359 1907748
2602.8567 856.68396 3178.896 3290171
2621.4084 856.59003 3178.5479 987155
2667.5916 865.46222 3211.4697 3289144
2667.3081 859.23999 3188.3809 2433835
2702.7312 864.52692 3207.999 2170919
2698.9563 857.28912 3181.1421 3223606
2754.6814 868.9201 3224.3008 3289399
2774.7224 869.21252 3225.3857 2565676
2783.1499 865.88751 3213.0481 2828591
2773.3413 856.97284 3179.9683 2499882
2768.0159 849.5545 3152.4409 4078915
2785.1826 849.09253 3150.7268 3289398
2787.8953 844.25964 3132.7932 2631726
2771.0664 833.612 3093.283 1974052
2788.1272 833.23224 3091.874 3223609
2858.3528 848.64209 3149.0552 5658206
2902.3713 856.12158 3176.8093 5066069
2939.5566 861.50195 3196.7744 5657951
2970.7915 865.08081 3210.0544 4934481
2897.7891 838.4538 3111.2495 3750209
2903.8647 834.89954 3098.0608 1447199
2971.2739 848.91327 3150.0615 3092536
2892.5471 821.26062 3047.4509 789267
2929.3987 826.56293 3067.1262 5527647
0 0 0 0
0 0 0 0
0 0 0 0
0 0 0 0
0 0 0 0
0 0 0 0
0 0 0 0
0 0 0 0
-2623.1892 813.63361 2954.1858 2828061
-2616.7529 817.09064 2966.7375 3091234
-2580.9919 811.37555 2945.9871 2696476
-2575.6006 815.19489 2959.8545 2235925
-2564.0354 817.09924 2966.7688 2630681
-2563.2881 822.50092 2986.3816 2103823
-2528.9966 817.13953 2966.915 2235922
-2525.647 821.77039 2983.7292 2893338
-2504.6133 820.6723 2979.7419 2959131
-2481.0305 818.71729 2972.6438 2695446
-2448.3179 813.70007 2954.427 3419166
-2433.3401 814.54736 2957.5032 2629651
-2400.2739 809.30786 2938.4795 2694930
-2369.533 804.78149 2922.0449 2826517
-2361.9719 808.11938 2934.1641 2826517
-2295.3223 791.1402 2872.5154 3747872
-2327.6978 808.29388 2934.7981 3287323
-2310.594 808.39484 2935.1646 2497806
-2289.1763 806.9765 2930.0149 2365708
-2274.3052 807.86206 2933.2297 3353115
-2270.3574 812.67108 2950.6909 3089943
-2244.7146 809.72888 2940.0081 2826771
-2222.0435 807.82104 2933.0808 3222042
-2201.4521 806.64502 2928.811 3419678
-2206.1968 814.80768 2958.4485 4340780
-2183.5967 812.92108 2951.5984 4143403
-2170.1694 814.44641 2957.137 2827286
-2200.301 832.47705 3022.6035 2827286
-2150.9932 820.50128 2979.1211 3353630
-2158.6914 830.25226 3014.5256 3222560
-2126.593 824.73218 2994.4829 3025439
-2133.9907 834.56543 3030.186 1183236
-2086.2109 822.80353 2987.4802 1446153
-2089.3977 831.11353 3017.6526 1709068
-2074.3984 832.27051 3021.8538 1643017
-2067.0742 836.55396 3037.4062 2366741
-2038.5964 832.27649 3021.8752 2366742
-1993.5435 821.09619 2981.2812 1708811
-1975.8757 821.09619 2981.2812 1379847
-1948.7002 817.10944 2966.8059 1774601
-1935.3646 818.90619 2973.3296 2103054
-1905.5759 813.71027 2954.4639 2103053
-1899.413 818.60004 2972.218 3484707
-1878.2487 817.0556 2966.6104 2234896
-1864.6537 818.80591 2972.9653 1774602
-1852.0538 821.03052 2981.043 2168847
-1826.1168 817.3288 2967.6023 2497556
-1815.1458 820.31854 2978.4578 3484705
-1771.7394 808.56464 2935.781 3155995
-1780.741 820.73212 2979.9592 3813411
-1748.3005 813.8515 2954.9768 3353628
-1740.1394 818.24847 2970.9414 3155992
-1717.7316 815.96771 2962.6604 2760724
-1722.2 826.53851 3001.0415 2563600
-1695.3751 822.15466 2985.1243 1905929
-1679.2906 822.94165 2987.9819 2827030
-1672.7598 828.47711 3008.0803 2432787
-1656.2795 829.15112 3010.5273 2630165
-1646.3027 833.13092 3024.9775 2498325
-1631.3976 834.67688 3030.5906 2695960
-1618.9253 837.51569 3040.8982 1511685
-1602.0784 838.13 3043.1284 2761754
-1596.28 844.604 3066.6348 2432790
-1573.4337 842.10315 3057.5544 1906704
-1557.3328 843.19617 3061.5229 2103567
-1554.8871 851.79553 3092.7461 1379845
-1521.6282 843.51874 3062.6943 1445381
-1507.8523 845.97296 3071.605 1840140
-1493.422 848.11548 3079.3843 2103566
-1465.0455 842.29297 3058.2437 2761497
-1449.1497 843.5899 3062.9526 2892569
-1422.7245 838.71252 3045.2437 2563860
-1398.3003 834.90472 3031.418 4471599
-1391.4868 841.64972 3055.908 2761236
-1367.2203 837.87683 3042.2092 3287324
-1341.6497 833.19305 3025.2034 3221528
-1323.4403 833.01605 3024.5605 3088916
-1299.5872 829.23291 3010.8245 3089172
-1289.1271 834.00922 3028.1665 3089172
-1262.3297 828.20154 3007.0798 3023380
-1239.6237 824.95044 2995.2754 2430986
-1213.0298 818.97992 2973.5972 2825231
-1198.0809 820.81134 2980.2471 2825231
-1182.1187 821.9931 2984.5376 2825488
-1160.2512 819.04199 2973.8228 2167301
-1148.4131 823.1889 2988.8796 4404263
-1130.554 823.0824 2988.4927 3088660
-1121.0259 829.13428 3010.4663 2496524
-1109.0887 833.57123 3026.5762 2299143
-1080.1589 825.17267 2996.0825 2430730
-1079.5524 838.49243 3044.4443 2627852
-1058.7899 836.34351 3036.6418 2562316
-1043.4642 838.48895 3044.4319 2496523
-1019.3242 833.50256 3026.3269 2563085
-1000.8652 833.0661 3024.7424 2562829
-987.84772 837.22571 3039.845 2102280
-972.38611 839.42975 3047.8477 1510659
-945.30389 831.49561 3019.04 1773830
-939.12231 841.99445 3057.1597 2431760
-918.12903 839.3653 3047.6138 1115904
-901.69183 840.87946 3053.1113 1050112
-885.35211 842.54828 3059.1704 1444867
-864.90839 840.29974 3051.0063 853248
-841.69958 835.2113 3032.5312 1575941
-825.78625 837.29816 3040.1082 1904904
-813.13434 842.85864 3060.2976 1773318
-795.31891 843.19849 3061.5315 1773831
-775.26624 841.12689 3054.0098 1313281
-762.12109 846.62976 3073.99 2366225
-748.52997 851.89453 3093.1055 1971981
-725.78271 846.74152 3074.3958 590336
-715.89233 856.70905 3110.5864 1181955
-693.37952 851.69885 3092.3953 1839883
-676.98987 854.14221 3101.2666 2168848
-663.61102 860.62653 3124.8103 2300433
-638.73755 852.14795 3094.0259 2234383
-626.29987 860.24939 3123.4409 2168846
-611.14142 864.99341 3140.6655 1445640
-594.79626 868.30292 3152.6821 919299
-573.62732 864.55688 3139.0808 262144
-552.30597 860.32233 3123.7058 3222048
-526.18933 848.06549 3079.2026 2432019
-511.93542 854.73401 3103.4153 2760981
-488.67767 846.30658 3072.8164 1970695
-475.82089 855.93658 3107.7815 2101767
-453.68365 848.97559 3082.5073 3088405
-428.95663 836.38098 3036.7781 1904902
-420.22736 855.24164 3105.2585 2102799
-406.46179 865.11084 3141.0918 1774607
-389.01785 867.72235 3150.574 1380622
-368.80896 864.11902 3137.491 2237217
-354.08627 873.66968 3172.168 2041122
-338.52942 882.11774 3202.8416 3424055
-319.0928 880.85925 3198.2722 3227702
-299.94678 880.29456 3196.2219 3227445
-279.54843 875.73077 3179.6516 2897966
-262.77768 882.69269 3204.9292 3226931
-244.24255 884.35083 3210.9497 3029295
-224.57584 881.84583 3201.8542 3291698
-206.16292 884.25604 3210.6055 2304034
-185.89738 878.40247 3189.3521 3355952
-167.07713 878.82611 3190.8901 4078904
-147.6283 875.62939 3179.2834 2630942
-131.62373 894.91534 3249.3076 2630683
-111.64141 889.13141 3228.3074 2629912
-90.903282 873.69104 3172.2456 1576715
-73.037605 885.00525 3213.3257 787200
-53.780815 881.49866 3200.5938 1708040
-34.519855 874.06561 3173.6055 1971467
-15.838781 881.0965 3199.1335 2036489
3.1162195 880.03839 3195.292 2036744
21.890167 873.57214 3171.8137 1575937
40.960793 879.45032 3193.1565 2431245
59.826599 878.60565 3190.0896 2102540
79.23333 884.20294 3210.4128 1314052
99.191902 892.59863 3240.8962 1840915
117.44892 885.44244 3214.9133 3091245
135.54488 879.2392 3192.3901 2500653
0 0 0 0
0 0 0 0
0 0 0 0
0 0 0 0
447.58694 1709.9941 6208.7407 4154454
538.05981 1899.4934 6896.7852 2838597
0 0 0 0
0 0 0 0
0 0 0 0
0 0 0 0
0 0 0 0
0 0 0 0
389.94348 898.72449 3263.1384 2432021
413.47601 907.93506 3296.5806 1839882
433.9707 909.94476 3303.8774 2497554
448.86478 900.54449 3269.7463 2563347
474.33972 912.27191 3312.3269 2497554
494.12076 912.55176 3313.343 2892312
515.73987 916.07489 3326.135 2958105
534.8844 915.1051 3322.614 985090
554.79388 915.46643 3323.9258 1379334
572.71301 912.63135 3313.6321 2695193
592.21368 912.42084 3312.8677 1050370
608.06195 906.77722 3292.3765 984577
629.61523 909.72754 3303.0889 2234383
659.15814 923.69611 3353.8066 2365969
673.91376 916.73169 3328.5198 1773573
677.15375 894.94403 3249.4119 2826517
700.66187 900.40747 3269.2488 2760724
719.37109 899.57574 3266.229 1971209
746.68927 909.27112 3301.4316 2168590
767.24701 910.44922 3305.709 2497554
787.58856 911.31842 3308.865 2826521
816.49835 921.81885 3346.9907 3221535
851.92474 939.00397 3409.3872 3420201
848.86029 913.9505 3318.4219 5394765
869.6994 915.1853 3322.905 6974571
891.13116 916.97522 3329.4041 7896445
945.97241 952.32147 3457.741 7962241
967.7287 953.56787 3462.2666 8094084
987.88745 953.22101 3461.0073 7962241
1012.1178 956.73724 3473.7739 8028033
1036.3209 960.08801 3485.9404 7962495
1067.0146 969.20337 3519.0369 8159874
1091.215 972.18414 3529.8596 8291458
1113.1075 973.03552 3532.9507 8291458
1131.105 970.51324 3523.793 8159872
1155.2233 973.23914 3533.6902 8093820
1174.9454 972.23016 3530.0269 8159613
1190.6002 967.94989 3514.4856 8094076
1202.2684 960.63141 3487.9131 8159613
1207.7081 948.66772 3444.4751 8093566
1240.2629 958.04694 3478.5295 7238257
1252.3263 951.54956 3454.9385 7961978
1259.5649 941.65424 3419.01 6777447
1262.1331 928.63586 3371.7422 6645093
1254.6473 908.74121 3299.5076 1249810
1242.4835 886.12091 3217.3765 131072
1274.5293 895.2373 3250.4768 1051403
1271.7231 879.96655 3195.031 3025446
1266.5248 863.51288 3135.29 1183243
1286.0396 864.14081 3137.5698 3222826
1308.7667 866.87848 3147.51 1314572
1332.3018 870.06683 3159.0864 1511951
1344.9886 866.1806 3144.9761 1314058
1318.7799 837.69385 3041.5449 2695707
1327.8342 832.07263 3021.135 2893085
1289.8412 797.51135 2895.6482 4866872
1297.1299 791.48798 2873.7781 5065018
1312.1917 790.30219 2869.4727 6775634
1330.9774 791.36084 2873.3167 4537386
1335.0867 783.77692 2845.7803 4405286
1344.5199 779.46863 2830.1375 5194288
1343.6479 769.36572 2793.4553 4010014
1354.3763 766.07031 2781.4902 3548948
1365.14 762.87378 2769.884 5062444
1389.2031 767.09698 2785.218 4667175
1399.6946 763.815 2773.3015 4075038
1395.7632 752.82983 2733.416 3877659
1416.8909 755.45789 2742.958 2430216
1411.6521 744.12762 2701.8196 2759180
1405.7487 732.70508 2660.3459 2758924
1412.3035 727.9574 2643.1077 1837826
1409.5331 718.56 2608.9871 2101253
1430.0408 721.10461 2618.2263 2035975
1445.1187 720.88599 2617.4324 2299147
1437.7087 709.57318 2576.3574 2233613
1456.8329 711.45642 2583.1951 2430990
1469.1921 710.03107 2578.0198 2694162
1463.4241 699.96466 2541.4702 3089175
1464.9816 693.57147 2518.2576 2168331
1473.4969 690.56818 2507.3528 2760726
1492.973 692.71033 2515.1309 6181962
1502.0004 690.01001 2505.3264 1905674
1552.8517 706.38824 2564.7935 2827032
1570.6917 707.57788 2569.1125 2827033
1576.7894 703.50549 2554.3264 2827290
1597.4167 705.93158 2563.1353 2564118
1606.4089 703.21863 2553.2849 3024923
1638.5365 710.58942 2580.0471 3616291
1637.9683 703.77576 2555.3076 4011307
1629.4794 693.7149 2518.7781 3682856
1667.0626 703.27283 2553.4817 4801852
2025.0874 846.62531 3073.9736 5130820
2020.3507 837.11456 3039.4417 4144182
2070.9565 850.5 3088.0422 5591370
2083.2959 848.07336 3079.2314 5328201
2140.4695 863.78168 3136.2661 3947320
2185.5134 874.36676 3174.699 3881528
2211.5779 877.24261 3185.1409 2171170
2232.5862 878.08148 3188.1863 1052692
2256.843 880.17303 3195.7808 854800
2271.6438 878.57251 3189.9695 394506
2306.5703 884.71808 3212.283 526092
2315.9814 881.05621 3198.9873 2565675
2340.5898 883.18835 3206.729 3157813
2343.7747 877.26746 3185.231 2369066
2342.5596 869.80737 3158.1443 2105384
2371.2019 873.46381 3171.4207 6316134
2419.928 884.40289 3211.1387 2631986
2473.1189 896.79016 3256.115 1447451
2435.4158 876.28125 3181.6504 1381920
2436.8279 870.05341 3159.0376 9474458
2462.2239 872.41852 3167.625 3684416
2456.4392 863.78339 3136.272 1513247
2483.8511 866.8634 3147.4553 1842210
2456.6689 850.98645 3089.8083 3486778
2458.3552 845.27026 3069.0537 3157815
2528.877 863.13239 3133.9087 2368299
2581.6404 874.7171 3175.9709 2566192
2587.8013 870.4585 3160.5085 1184025
2603.5132 869.45068 3156.8494 657422
2632.6677 872.91437 3169.4253 3289142
2643.8547 870.4137 3160.3457 3749950
2663.3425 870.66174 3161.2466 3157813
2686.2266 872.00891 3166.1379 3092019
2694.3464 868.57776 3153.6799 5789533
2742.9504 878.15497 3188.4534 3881793
2733.6892 869.20233 3155.9475 3223606
2709.4539 855.6424 3106.7136 3355191
2708.2791 849.49902 3084.4077 1381402
2706.7517 843.32812 3062.0022 4210501
2724.146 843.0954 3061.1572 1249560
2730.4568 839.45831 3047.9514 1447451
2759.6465 842.85669 3060.2905 1644577
2841.0054 862.04028 3129.9434 4144966
2812.5823 847.88019 3078.53 2829109
2826.8499 846.68921 3074.2056 3224125
2823.8992 840.38928 3051.3315 2894903
2822.5667 834.64807 3030.4861 2105388
2843.5735 835.54358 3033.7375 3355198
2903.3281 847.74176 3078.0273 5526366
2892.7354 839.37506 3047.6492 1117977
2953.3357 851.64203 3092.1887 1118486
0 0 0 0
0 0 0 0
0 0 0 0
0 0 0 0
0 0 0 0
0 0 0 0
0 0 0 0
0 0 0 0
-2571.4421 814.74506 2895.9092 3222564
-2571.0974 820.10931 2914.9756 3091491
-2513.8418 807.27026 2869.3408 3288868
-2494.3254 806.45801 2866.4539 3288611
-2467.5642 803.27625 2855.1448 3156768
-2467.8718 808.92322 2875.2163 3880746
-2463.1951 813.0036 2889.7192 4341298
-2454.9321 815.9491 2900.1887 3091231
-2447.1907 819.11066 2911.4263 2696730
-2427.9487 818.44043 2909.0439 2958874
-2420.2168 821.66833 2920.5171 2234893
-2359.7026 806.89404 2868.0037 2695444
-2349.3076 809.16766 2876.0852 2892310
-2351.1829 815.73175 2899.4163 2036744
-2313.3635 808.51923 2873.7803 2168587
-2308.6433 812.85358 2889.186 2234123
-2298.6433 815.37982 2898.1655 2234380
-2317.6445 828.30902 2944.1208 3089946
-2272.8899 818.47559 2909.1689 2958360
-2241.5037 813.34277 2890.9248 2629649
-2242.9324 820.12946 2915.0476 3485217
-2180.8499 803.61847 2856.3613 3353371
-2191.6567 813.91833 2892.9707 2761234
-2171.0928 812.63831 2888.4209 3814179
-2131.9724 804.33722 2858.9158 3945764
-2117.5334 805.28925 2862.2998 3485729
-2109.282 808.62872 2874.1697 3682852
-2095.1013 809.73108 2878.0879 3419680
-2098.4165 817.66919 2906.3025 3879975
-2108.373 828.34766 2944.2581 3090202
-2098.2168 831.23651 2954.5259 2432274
-2089.5215 834.75769 2967.0415 2564117
-2085.2581 840.12408 2986.1157 2366738
-2070.2861 841.23108 2990.0505 2892825
-2050.0273 840.19043 2986.3516 2892824
-2016.6873 833.72363 2963.3665 1379587
-2018.4745 841.79303 2992.0479 1906188
-1989.4969 837.06134 2975.2297 1971724
-1948.6962 827.22614 2940.2715 2433048
-1918.506 821.75824 2920.8367 2301718
-1900.4814 821.44916 2919.738 1709068
-1856.0906 809.63324 2877.74 1643532
-1867.8657 822.32544 2922.8525 2301461
-1867.4403 829.8335 2949.5391 1183237
-1854.8036 832.0058 2957.2603 3157027
-1817.139 822.8858 2924.8445 3748905
-1799.9506 822.95203 2925.0798 4077614
-1774.5029 819.20667 2911.7673 3156509
-1750.0652 815.85846 2899.8667 4208683
-1735.2986 816.99719 2903.9141 2366220
-1708.0111 812.20477 2886.8799 3221786
-1689.1056 811.34137 2883.8113 2365963
-1690.9607 820.53448 2916.4871 2958357
-1686.0103 826.58099 2937.9788 2695442
-1675.3955 829.94775 2949.9453 2037514
-1654.283 828.13025 2943.4854 2498322
-1640.3853 829.92432 2949.8621 3814439
-1630.9818 834.05536 2964.5452 2630164
-1612.3864 833.52448 2962.6582 4274732
-1594.6727 833.44275 2962.3677 3551264
-1579.4249 834.66241 2966.7029 2959130
-1584.1827 846.60059 3009.1357 2433042
-1580.5924 854.29846 3036.4968 2301201
-1541.6298 842.83514 2995.7517 3024412
-1550.7411 857.69373 3048.5647 1840140
-1515.7903 848.245 3014.9807 1708810
-1492.1104 844.95367 3003.2817 1577224
-1492.1042 855.15045 3039.5251 2630429
-1461.9731 848.12048 3014.5378 2893083
-1435.1082 842.83466 2995.7502 2498323
-1409.4519 838.13525 2979.0466 2629396
-1378.6217 830.20081 2950.8447 3419169
-1368.2765 834.55713 2966.3286 3221789
-1352.629 835.75049 2970.5706 2366479
-1333.6648 834.89917 2967.5444 2760724
-1322.7832 839.15253 2982.6626 2299916
-1306.6779 840.16241 2986.252 3155482
-1284.7904 837.43109 2976.5439 2365964
-1266.6422 837.09503 2975.3494 2037000
-1240.2457 831.22144 2954.4724 1839623
-1213.3884 824.86627 2931.8838 2233869
-1191.0956 821.47443 2919.8279 2102283
-1179.4735 825.45056 2933.9607 2299662
-1152.375 818.55255 2909.4426 2628884
-1145.8656 826.29193 2936.9509 1313542
-1121.0404 820.85858 2917.6392 1970954
-1103.5784 820.73102 2917.1855 1839368
-1101.9657 832.57428 2959.281 1379075
-1081.4528 830.28979 2951.1609 918528
-1072.8497 837.22418 2975.8086 918784
-1050.6158 833.57562 2962.8401 1510660
-1047.7046 845.39441 3004.8486 2365968
-1024.5302 840.98889 2989.1897 2168587
-1008.0792 842.04431 2992.9412 1839622
-993.33215 844.58649 3001.9768 1708294
-969.6582 839.49261 2983.8716 2432273
-962.25824 848.56079 3016.1028 2827032
-932.18512 837.59949 2977.1423 2102798
-915.37714 838.36444 2979.8613 852992
-907.53046 847.52832 3012.4331 1905675
