# .PCD v0.7 - Point Cloud Data file format
VERSION 0.7
FIELDS x y z rgb
SIZE 4 4 4 4
TYPE F F F U
COUNT 1 1 1 1
WIDTH 1294
HEIGHT 1
VIEWPOINT 0 0 0 1 0 0 0
POINTS 1294
DATA ascii
-1249.6177 870.72675 2177.5371 2168586
-1238.0123 871.64154 2179.8247 1839622
-1227.4646 873.32806 2184.0425 2365964
-1215.4681 874.00879 2185.7449 2168841
-1201.2374 873.0802 2183.4226 3221529
-1176.6897 864.55127 2162.0933 2695182
-1157.1237 859.53491 2149.5483 2497289
-1151.1846 864.64191 2162.3201 2365702
-1130.3126 858.52197 2147.0151 2365702
-1127.6733 866.26868 2166.3882 2299910
-1120.7949 870.89984 2177.97 2562826
-1106.7773 870.02698 2175.7871 2365191
-1098.3845 873.60718 2184.7405 2628880
-1080.9247 869.97516 2175.6575 2760465
-1084.8895 883.70721 2209.999 2234379
-1074.1906 885.68445 2214.9436 2168330
-1061.9128 886.3927 2216.7148 1970951
-1043.9955 882.35223 2206.6104 2037257
-1021.4798 874.27356 2186.4072 2037514
-1004.5137 870.79834 2177.7161 2168843
-995.45593 874.17737 2186.1665 2958616
-989.78094 880.65527 2202.3667 1905928
-969.63654 874.26025 2186.3738 1774344
-953.17334 871.05603 2178.3606 1313793
-942.77759 873.38464 2184.1841 655872
-926.1377 869.91321 2175.5024 1050624
-924.3761 880.51593 2202.0181 1708551
-911.49249 880.67633 2202.4192 2300688
-897.72229 879.97229 2200.6587 1445637
-882.57196 877.87476 2195.4131 2432017
-873.82513 882.17926 2206.1777 2037773
-861.50092 882.94788 2208.1001 1971207
-848.45074 882.98492 2208.1926 2102794
-830.16266 877.48645 2194.4419 2168587
-812.67078 872.66815 2182.3921 1971462
-794.05109 866.46313 2166.8745 2365708
-778.41559 863.36407 2159.1243 2299659
-768.5899 866.71295 2167.4993 1904901
-752.38855 862.86389 2157.8733 1773315
-738.53394 861.61945 2154.7612 2299658
-727.4895 863.6676 2159.8833 3746847
-711.93115 860.33411 2151.5469 1576453
-702.3186 864.19543 2161.2034 1379329
-690.26361 865.13892 2163.5627 1379330
-679.20538 867.39093 2169.1948 1445381
-667.67657 869.11743 2173.5125 1445638
-653.08759 866.84998 2167.842 1182467
-639.38776 865.69537 2164.9546 1643016
-627.85541 867.48828 2169.4382 1314053
-616.74506 869.95142 2175.5981 1511432
-603.55951 869.53009 2174.5444 1248262
-587.23779 864.47357 2161.8989 656128
-571.35144 859.84668 2150.3279 1314055
-560.70178 863.06934 2158.3872 787457
-549.03088 864.8338 2162.7998 1510917
-536.58594 865.43427 2164.3015 2234383
-524.95996 867.41724 2169.2605 3221536
-510.42438 864.57147 2162.1438 393728
-505.98315 879.11755 2198.521 262144
-493.98361 880.95325 2203.1118 196608
-481.36862 881.76129 2205.1326 2367256
-460.52808 867.12659 2168.5337 2037518
-449.10312 869.8891 2175.4424 2366737
-434.69064 866.8573 2167.8604 2365966
-420.86447 864.84564 2162.8293 2036487
-407.9119 864.55902 2162.1128 2168071
-394.74667 863.78864 2160.186 2365192
-373.81229 845.39618 2114.1897 2759948
-362.18372 847.50348 2119.4597 1970434
-353.41724 856.70007 2142.4587 2167815
-342.8512 862.05719 2155.856 2365453
-331.6972 866.29358 2166.4504 1708296
-319.8862 869.08612 2173.4341 1248004
-308.68146 873.8291 2185.2957 1446155
-297.60443 879.36505 2199.1399 1446157
-286.82114 886.31567 2216.5222 328449
-274.10641 887.67853 2219.9304 1709328
-260.6828 886.76746 2217.6521 1709327
-247.37769 886.18408 2216.1931 2433048
-233.32057 882.69037 2207.4561 2300948
-217.7307 872.63849 2182.3181 2432278
-207.48497 884.08844 2210.9524 1445639
-193.81241 881.49609 2204.4692 1445639
-180.61478 880.84509 2202.8413 2432534
-166.82312 876.97003 2193.1504 2235155
-154.64169 881.62006 2204.7793 2103569
-141.52034 881.27533 2203.9172 3880493
-128.3358 880.42694 2201.7957 2564376
-114.16708 871.87067 2180.3979 3683114
-101.72562 876.00458 2190.7361 2959646
-89.829735 886.73334 2217.5669 1841425
-76.716362 887.06189 2218.3884 3749164
-63.794628 890.2002 2226.2368 4012594
-50.404388 886.73309 2217.5662 5394762
-37.366173 889.19727 2223.7288 4605248
-24.308788 893.64203 2234.8442 3158059
-11.024559 890.40625 2226.752 3552561
2.1560557 884.01331 2210.7644 459779
15.257134 883.99109 2210.709 722951
28.306089 882.36462 2206.6414 196864
40.915958 872.40393 2181.7314 525315
54.596756 884.57806 2212.1768 1248779
66.866753 873.60571 2184.7368 1249293
80.583595 882.02972 2205.8037 131072
93.580269 881.31964 2204.0281 131072
106.88354 883.31738 2209.0239 196608
120.28139 885.57544 2214.6711 262144
133.01382 882.97217 2208.1606 459264
146.8136 887.28571 2218.9482 459778
159.9269 887.08234 2218.4397 1314053
172.94617 886.42798 2216.8032 3287584
184.56918 879.21478 2198.7642 3287326
195.34676 869.1911 2173.6968 3156509
209.61472 874.97736 2188.167 3287841
224.61253 882.95837 2208.1262 2432279
239.2114 888.57861 2222.1816 2827807
254.02238 894.35938 2236.6382 2762015
266.50381 891.77155 2230.1665 3288612
279.03943 889.60101 2224.7383 3222820
289.35251 880.86029 2202.8794 2432533
301.72433 878.87115 2197.9048 1577742
315.08118 879.79712 2200.2205 2037519
327.285 877.5578 2194.6204 2433559
345.74719 891.62897 2229.8098 2893600
355.54248 883.13641 2208.5715 2498588
369.69595 885.68787 2214.9521 3288361
383.10986 886.35333 2216.6165 1709329
388.52017 869.07159 2173.3977 2565405
398.99704 863.86847 2160.3857 6578520
413.79877 868.06165 2170.8721 1774345
431.65591 878.2182 2196.272 2037261
439.53677 868.07727 2170.9111 4406321
456.20929 875.38263 2189.1807 3024410
468.68021 874.44489 2186.8354 4603184
478.03976 867.90863 2170.4895 3089688
487.93121 862.65533 2157.3518 1313538
499.59555 860.72479 2152.5239 2234125
515.78369 866.49005 2166.9419 1116161
527.86011 865.23547 2163.8044 1905418
539.60333 863.50732 2159.4827 1905418
557.96552 872.20599 2181.2363 2826519
567.74799 867.40259 2169.2239 2958105
577.12262 862.20251 2156.2195 2826775
590.16675 862.59125 2157.1917 3221790
601.95532 861.16711 2153.6301 2564118
619.56122 867.9519 2170.5977 2104082
632.82025 868.49481 2171.9553 2235926
649.71869 873.91125 2185.501 3551531
659.09308 869.1936 2173.7029 1117965
676.29022 874.77545 2187.6621 1972755
693.30127 879.91101 2200.5054 6051407
701.68311 874.10736 2185.9915 5985614
714.57812 874.03442 2185.8091 1248005
734.14734 881.9823 2205.6853 787970
750.68097 886.06909 2215.9055 459779
760.87695 882.66315 2207.3879 327936
773.44379 882.07617 2205.9202 459521
781.93561 876.93878 2193.0723 1117450
800.18719 882.73584 2207.5698 1314316
806.43481 875.31714 2189.0168 196608
811.18323 866.53174 2167.0461 2103570
823.81995 866.31549 2166.5054 1971729
819.0022 848.03271 2120.7832 2629140
833.69507 850.19946 2126.2019 3089689
841.34674 845.22803 2113.769 3549726
858.22131 849.53192 2124.5325 2760210
870.81177 849.53192 2124.5325 2628624
883.54596 849.67017 2124.8782 3549473
895.82983 849.3775 2124.1462 3286819
916.49823 856.93256 2143.0403 4275003
941.38214 868.16882 2171.1401 5395028
961.31042 874.59344 2187.207 8620429
978.30121 878.21027 2196.252 8687764
994.0708 880.65009 2202.3538 8753815
1009.8686 883.05139 2208.3589 8884375
1026.1583 885.81598 2215.2727 8686996
1043.1046 889.07031 2223.4111 8621203
1056.7698 889.48157 2224.4397 8489617
1075.405 894.01465 2235.7761 8226445
1086.1144 891.92841 2230.5588 8160652
1099.9691 892.44446 2231.8494 8029066
1108.0087 888.28632 2221.4504 7831687
1123.5178 890.14362 2226.0952 7502979
1137.1863 890.51648 2227.0278 7568001
1153.3602 892.82031 2232.7893 7831172
1163.068 890.12305 2226.0439 7896965
1178.751 892.00806 2230.7581 7830656
1189.4749 890.14026 2226.0869 7896706
1203.8705 891.03088 2228.3142 7830655
1219.8997 893.09821 2233.4841 7830655
1234.1689 893.8465 2235.3555 7764862
1244.5132 891.7663 2230.1533 7896448
1255.251 890.00891 2225.7583 7962241
1277.6548 896.47363 2241.9255 8028034
1293.7601 898.43134 2246.8215 8093570
1305.7446 897.51672 2244.5342 8027777
1306.5992 889.04742 2223.354 7896191
1319.0936 888.58826 2222.2056 7567226
1335.0164 890.42474 2226.7983 7238261
1358.9205 897.49664 2244.4839 6711404
1375.0662 899.35693 2249.1362 8422022
1388.2321 899.25134 2248.8723 8619142
1393.0615 893.79907 2235.2371 8158847
1406.5616 893.96027 2235.6401 5724505
1417.5985 892.56763 2232.1572 4671563
1432.7579 893.77222 2235.1699 1381912
1434.6912 886.77972 2217.6829 1644317
1414.729 866.50366 2166.9758 1776416
1417.9586 860.66913 2152.3848 1118229
1408.4822 847.29517 2118.9387 394760
1408.7108 839.94415 2100.5552 460554
1395.5817 824.82721 2062.7502 460297
1402.1682 821.52411 2054.4897 262916
1408.007 817.84344 2045.2852 1250065
1423.5109 819.79181 2050.1575 920842
1384.2225 790.41962 1976.7028 3881526
1402.558 794.1687 1986.0785 3025191
1414.3424 794.17682 1986.0989 1906964
1430.0994 796.39703 1991.6512 2762530
1425.0353 787.08105 1968.3535 3881011
1422.9128 779.52771 1949.4641 2696224
1421.5398 772.50348 1931.8976 3222568
1416.8019 763.7774 1910.0752 1840915
1421.967 760.4859 1901.8438 920072
1413.6429 750.08875 1875.8423 2762276
1433.1744 754.51898 1886.9215 2695969
1440.0975 752.29395 1881.3572 722438
1448.382 750.80884 1877.6432 2169625
1453.1332 747.52881 1869.4403 1182219
1467.9276 749.42584 1874.1844 3353388
1492.7084 756.35437 1891.5116 854025
1490.0404 749.37512 1874.0576 131072
1486.9504 742.28845 1856.3351 196608
1478.1055 732.45398 1831.7408 131072
1481.261 728.66632 1822.2686 65536
1489.8932 727.60803 1819.6219 656904
1464.6842 710.15698 1775.9799 854537
1501.2573 722.69647 1807.339 1249296
1449.1833 692.68652 1732.2892 656902
1455.3149 690.72424 1727.3818 262658
1454.0961 685.32507 1713.8795 1710102
1444.9489 676.29004 1691.2845 3684146
1498.618 696.57739 1742.0197 4013367
1523.995 703.52655 1759.3983 2894885
1515.8826 695.02649 1738.1411 1184265
1527.9392 695.82617 1740.141 2566173
1534.1201 693.95728 1735.4673 3881007
1538.2512 691.19226 1728.5524 4012333
1533.4089 684.45837 1711.712 4999229
1537.5692 681.80505 1705.0765 5130043
1558.5753 686.60748 1717.0867 4735029
0 0 0 0
1511.1742 657.14471 1643.4054 3353632
1493.1703 645.15765 1613.4279 3024668
1510.0906 648.31696 1621.3287 2038288
1512.4213 645.21228 1613.5645 3879208
1504.399 637.75769 1594.9218 6445135
1516.3412 638.80682 1597.5454 4800310
1521.3767 636.95135 1592.9052 3616293
0 0 0 0
0 0 0 0
0 0 0 0
0 0 0 0
0 0 0 0
0 0 0 0
0 0 0 0
0 0 0 0
0 0 0 0
0 0 0 0
-1883.7817 872.52979 2150.1797 1774604
-1880.7134 877.0412 2161.2971 1972240
-1859.7389 873.20685 2151.8481 2301460
-1847.7755 873.57983 2152.7673 1709836
-1839.9568 875.93127 2158.5618 1906188
-1832.1409 878.31677 2164.4404 1643785
-1812.4329 874.99475 2156.2539 2170130
-1808.9332 879.50604 2167.3713 1643785
-1800.9303 881.87671 2173.2134 2828059
-1782.5861 879.18121 2166.5708 2499094
-1779.1875 883.87146 2178.1289 2433815
-1774.1965 887.83331 2187.8921 1973009
-1762.6525 888.55005 2189.6582 1775633
-1736.394 881.80487 2173.0361 262657
-1727.2948 883.73822 2177.8005 131072
-1712.6077 882.82013 2175.5381 920583
-1711.4595 888.9201 2190.5703 1709071
-1685.2961 882.02136 2173.5698 1512458
-1674.1112 882.91583 2175.7739 2235409
-1662.1489 883.41107 2176.9944 2169359
-1648.051 882.7702 2175.415 2301201
-1633.6365 881.94824 2173.3894 1840650
-1611.3245 876.81567 2160.7412 1906443
-1593.5004 874.06262 2153.957 1972236
-1574.7567 870.75665 2145.8101 1709064
-1571.04 875.77356 2158.1733 1774857
-1559.0267 876.20996 2159.2488 2366994
-1544.171 875.04291 2156.3726 2498580
-1537.5181 878.5434 2164.999 1511942
-1526.2644 879.4519 2167.2378 2235921
-1520.6564 883.65637 2177.5989 2235408
-1510.3589 885.18457 2181.3647 2103822
-1507.2764 891.00415 2195.7061 2893338
-1492.2365 889.7951 2192.7266 2959130
-1479.4335 889.91028 2193.0105 3024667
-1463.772 888.29291 2189.0247 2762266
-1461.8517 895.06006 2205.7009 1709581
-1445.2046 892.85095 2200.2571 1117700
-1435.4299 894.88617 2205.2725 1117190
-1401.6344 881.84589 2173.1372 1643534
-1407.7261 893.89166 2202.8218 854019
-1398.8071 896.54236 2209.3538 525314
-1379.9413 892.80743 2200.1499 853764
-1369.9707 894.81128 2205.0879 1906708
-1343.5022 885.97418 2183.3105 1248778
-1334.6248 888.67847 2189.9749 854275
-1319.0051 886.90247 2185.5981 985346
-1302.7733 884.67542 2180.1101 1116676
-1286.6398 882.47119 2174.6782 1642505
-1271.7021 881.05096 2171.1782 1642247
-1253.6855 877.44659 2162.2961 1576455
-1238.6163 875.85211 2158.3667 2498067
-1228.4396 877.71985 2162.9695 2300945
-1219.7812 880.72345 2170.3713 2037257
-1208.0409 881.54199 2172.3884 2497552
-1186.6082 875.22919 2156.8318 2431756
-1165.7729 869.22455 2142.0344 2497806
-1154.3014 870.14606 2144.3054 1444864
-1130.3606 861.58398 2123.2058 2103046
-1116.9418 860.93933 2121.6172 3155477
-1101.6826 858.84552 2116.4573 3615515
-1102.2108 869.1524 2141.8567 1970689
-1097.9193 875.8548 2158.3733 1839105
-1086.1646 876.6911 2160.4343 2365193
-1075.6422 878.55408 2165.0251 2234123
-1060.4868 876.63202 2160.2888 2629138
-1045.6061 874.89307 2156.0034 1971209
-1035.4575 877.11945 2161.49 2432273
-1018.5442 873.59955 2152.8159 2168846
-1001.7092 870.05847 2144.0896 1642759
-994.31128 874.72852 2155.5979 1116416
-978.30963 871.85254 2148.5107 2497809
-960.48749 867.25696 2137.1858 2300687
-953.38873 872.35046 2149.7375 1840394
-941.45026 873.09363 2151.5691 1774857
-929.14911 873.51617 2152.6104 590848
-919.49603 876.47473 2159.9011 1313794
-902.91125 872.8161 2150.8853 1839880
-905.26434 887.62152 2187.3704 2432274
-873.16919 868.5896 2140.4697 2892825
-862.33569 870.45837 2145.075 1971467
-857.20422 878.22498 2164.2144 1774343
-847.57434 881.54877 2172.405 2497295
-829.85413 876.43073 2159.7927 1510658
-818.17242 877.6297 2162.7473 1839365
-803.70184 875.82745 2158.3062 2168330
-790.44812 875.31476 2157.0425 2168073
-774.20612 871.42139 2147.4482 1576194
-762.47015 872.55469 2150.241 1378305
-749.66193 872.47852 2150.0532 2102796
-736.93658 872.49786 2150.1008 1378817
-722.17651 870.06647 2144.1091 721920
-705.70886 865.45392 2132.7424 918784
-695.80145 868.86499 2141.1484 721920
-682.72858 868.37653 2139.9448 1511431
-671.15381 869.81134 2143.4805 1906190
-658.04266 869.27179 2142.1509 984832
-646.46478 870.77631 2145.8584 721920
-634.4787 871.78033 2148.3328 393216
-622.45862 872.77777 2150.7908 1314054
-609.61664 872.64044 2150.4524 1116675
-598.34052 874.78656 2155.741 1445383
-583.61969 871.88025 2148.5789 1050883
-569.6684 870.01959 2143.9937 524800
-554.58057 866.29858 2134.824 1182466
-543.76178 869.22809 2142.0432 853248
-532.03363 870.80927 2145.9397 1840396
-521.36792 874.24951 2154.4175 1708813
-509.87552 876.44141 2159.8188 262144
-499.42667 880.58612 2170.0327 262144
-485.01227 877.77301 2163.1006 196608
-469.95032 873.60364 2152.8259 2038036
-460.20987 879.36969 2167.0352 3287842
-444.36832 873.4743 2152.5071 1379586
-425.07352 860.24188 2119.8984 2497555
-419.34015 874.48407 2154.9956 1444096
-404.94968 871.00073 2146.4116 1247232
-389.5444 865.03784 2131.7173 1838851
-372.8183 855.64398 2108.5679 2036487
-358.573 851.48962 2098.3301 1378561
-347.08035 853.80817 2104.0437 1641987
-342.36542 873.59375 2152.8015 1510660
-325.67883 863.18127 2127.1421 1905676
-318.08987 877.01373 2161.2292 1445898
-305.86151 878.67853 2165.332 2498586
-296.49719 889.07745 2190.958 393986
-281.80182 883.71088 2177.7332 1314570
-268.65768 882.92737 2175.8022 1972501
-255.23824 881.11432 2171.3345 4538683
-241.67546 878.58777 2165.1084 3354408
-229.59224 881.45831 2172.1821 2301975
-217.42668 884.3349 2179.271 1708811
-203.48033 879.87439 2168.2791 1445639
-190.44096 878.99902 2166.1216 3024671
-176.99432 875.98126 2158.6851 2037776
-165.47183 882.75818 2175.3855 1840396
-147.79503 855.07434 2107.1641 1971983
-138.24571 873.64227 2152.9211 3616807
-125.91486 876.62073 2160.261 1642761
-113.47108 879.39819 2167.1055 2235153
-100.75739 880.52582 2169.8843 2169359
-87.568169 877.21985 2161.7373 3353635
-75.753906 888.91486 2190.5574 2169619
-62.968765 891.6983 2197.4167 2038551
-49.856247 890.08881 2193.4504 2301465
-36.634495 884.70593 2180.1853 657413
-23.524532 877.62799 2162.7432 3420458
-10.966019 898.8042 2214.9277 3946803
2.1388447 889.95343 2193.1167 2038808
15.068317 885.99017 2183.3501 1841430
27.8209 880.09314 2168.8179 788999
40.587334 878.22266 2164.2085 1249295
53.477455 879.28412 2166.8242 65536
66.75531 885.07538 2181.0957 525830
80.058044 889.26392 2191.4177 920328
92.659164 885.57782 2182.334 2104860
106.81372 895.82294 2207.5811 460037
118.96175 888.84021 2190.3735 131073
131.9935 889.18457 2191.2222 2
145.28036 891.0321 2195.7749 855053
158.6994 893.3197 2201.4124 6709846
169.40324 881.13696 2171.3904 2498068
180.58078 872.96436 2151.2505 2958103
193.89902 875.53577 2157.5872 2958359
206.31555 873.9693 2153.7271 3090715
220.88304 881.16614 2171.4622 4801333
237.04848 893.59436 2202.0891 4998969
249.70833 892.20013 2198.6533 3222560
265.24646 900.7182 2219.6445 3616807
271.5593 878.58453 2165.1003 3221792
284.50555 878.9411 2165.979 3748390
296.47311 876.3739 2159.6526 6050632
307.72488 871.99072 2148.8511 2497815
320.99677 873.45288 2152.4543 2630171
334.34027 874.99066 2156.2439 2433306
348.73093 879.05481 2166.2593 2894116
363.33032 883.33783 2176.814 2104600
378.20502 887.97351 2188.2375 2367259
383.59894 870.78027 2145.8682 2432279
397.48746 873.35455 2152.2122 3024157
403.9519 859.96393 2119.2134 3023899
420.19818 867.57715 2137.9749 2037005
434.271 870.38861 2144.9031 2169101
445.49179 867.48639 2137.7512 1445124
455.3989 862.25745 2124.8655 1642245
470.26614 866.44879 2135.1941 1774088
476.22916 854.44458 2105.6121 852992
493.19049 862.28265 2124.9275 590336
506.47202 863.45685 2127.821 458752
518.29852 862.15375 2124.6099 1248264
537.45074 872.80908 2150.8679 1708812
546.34357 866.6958 2135.803 1642506
558.51666 865.94525 2133.9531 2629656
568.01733 861.17621 2122.2009 459264
587.60504 871.5755 2147.8279 2037776
597.15558 866.96167 2136.458 2037776
606.15741 861.7594 2123.6379 1840911
621.41113 865.47614 2132.7971 920066
643.49969 878.37415 2164.5818 1972499
654.57318 876.02637 2158.7961 1643791
667.47412 876.16736 2159.1438 1446154
685.05615 882.33221 2174.3357 459779
696.69489 880.75592 2170.4514 3551533
706.06073 876.41553 2159.7554 985863
729.08667 888.88385 2190.481 393984
740.33728 886.81079 2185.3723 656901
754.19855 887.88239 2188.0132 3157803
761.03857 880.79175 2170.5396 328707
774.651 881.64471 2172.6414 2630946
793.82819 888.6994 2190.0264 1314828
801.3692 882.7099 2175.2666 525571
803.56366 871.11407 2146.6909 4012082
805.68518 859.80176 2118.814 2893087
817.96265 859.50854 2118.0913 3813928
825.20563 854.01398 2104.551 3352863
829.22754 845.39905 2083.321 2957846
833.88275 837.6731 2064.282 3154711
845.72009 837.28107 2063.3159 2365453
858.98694 838.29517 2065.8149 2694163
870.62256 837.71136 2064.3762 2826008
898.41827 852.47736 2100.7642 2958368
919.67169 860.7168 2121.0688 2170394
933.90686 862.25427 2124.8577 5723993
939.44849 855.83112 2109.0291 9739166
982.50635 883.30487 2176.7327 8489358
1006.2004 892.88354 2200.3374 8029066
1005.181 880.56732 2169.9866 8358031
1024.9667 886.55804 2184.7495 8621203
1036.4065 885.27032 2181.5762 8226447
1054.1844 889.36163 2191.6584 8226445
1067.7019 889.8028 2192.7454 8160909
1080.4127 889.56903 2192.1694 7963273
1093.1445 889.35785 2191.6489 7831687
1104.6678 888.17999 2188.7466 7700101
1118.605 888.94781 2190.6387 7633794
1133.3018 890.2948 2193.958 7765379
1148.5601 892.04724 2198.2766 7765379
1159.8441 890.70844 2194.9773 7765889
1172.6113 890.5257 2194.5269 8028035
1187.4042 891.86835 2197.8357 7962241
1201.0363 892.31958 2198.9475 7896448
1214.6152 892.72198 2199.9392 7896449
1228.1635 893.09351 2200.8547 7764862
1240.2305 892.39142 2199.1248 7764605
1251.7805 891.33582 2196.5234 7830398
1272.7798 896.96106 2210.3857 8093057
1289.8112 899.70398 2217.145 8422022
1297.9774 896.27002 2208.6829 7895935
1305.9104 892.74524 2199.9966 7500921
1330.2874 900.42035 2218.9104 7435127
1339.5283 897.80048 2212.4543 7631995
1348.0931 894.78271 2205.0176 1315864
1355.7268 891.21082 2196.2153 1578778
1378.5745 897.61285 2211.9919 5066066
1398.5778 902.05975 2222.9504 3487029
1410.4441 901.22443 2220.8918 4144960
1418.0308 897.69519 2212.1948 5066062
1425.6635 894.25958 2203.7283 3223858
1414.4482 879.17102 2166.5457 1118482
1424.6195 877.52753 2162.4956 658188
1432.2809 874.38116 2154.7419 526345
1422.573 860.78033 2121.2253 2763308
1402.3 841.08112 2072.6804 789518
0 0 0 0
1397.4644 823.74982 2029.9709 3749688
1392.39 813.75342 2005.3368 4473665
1377.8121 798.41925 1967.5486 3618870
1386.7272 796.84186 1963.6615 3486257
1399.8969 797.71515 1965.8136 3354927
1415.9846 800.22327 1971.9943 1841688
1415.9679 793.66345 1955.829 1973018
1416.66 787.60431 1940.8973 1117195
1427.6348 787.31354 1940.1807 920075
1413.9191 773.51978 1906.1887 722697
1401.1425 760.45435 1873.9916 2038556
1401.1588 754.48303 1859.2764 723210
1422.5088 760.00287 1872.8789 1446675
1439.0404 762.88287 1879.9761 1972761
1458.5526 767.28656 1890.8281 2104088
1461.1469 762.79108 1879.7499 3617584
1461.4436 757.17328 1865.906 1907223
1490.4843 766.42029 1888.6934 196608
1484.2662 757.53418 1866.7953 590852
1480.2816 749.91101 1848.0095 919304
1473.2019 740.84344 1825.6642 262659
1477.1462 737.41138 1817.2065 591364
1431.9877 709.69354 1748.9014 328195
1458.8184 717.79565 1768.8674 0
1450.3757 708.55011 1746.0836 525831
1435.4731 696.302 1715.9005 920334
1441.7937 694.44849 1711.3329 2236705
1449.592 693.32764 1708.5708 1512980
1462.8365 694.80914 1712.2217 920843
1490.7462 703.18781 1732.8693 2039322
1500.6953 703.03778 1732.4996 2894374
1513.5717 704.25183 1735.4913 2434334
1527.0352 705.72083 1739.1115 4209715
1525.2399 700.16559 1725.4215 3617578
1529.7257 697.54846 1718.9722 4341299
1530.8206 693.42987 1708.8228 4670263
1508.0441 678.62329 1672.3348 4603956
1515.9609 677.73199 1670.1383 4603956
1520.9777 675.56403 1664.7959 4077355
1530.5925 675.45325 1664.5228 4208940
1482.2736 649.94128 1601.6536 4274476
1505.8475 656.07672 1616.7732 4011305
1498.9449 648.94031 1599.1869 6774613
1517.5753 652.87811 1608.8909 3682600
1523.3021 651.25018 1604.8792 4077100
1522.5118 646.87354 1594.0938 3879466
0 0 0 0
0 0 0 0
0 0 0 0
0 0 0 0
0 0 0 0
0 0 0 0
0 0 0 0
0 0 0 0
0 0 0 0
0 0 0 0
-1868.9028 878.28009 2133.1968 1577995
-1856.4131 878.35205 2133.3716 1512202
-1838.6746 875.92444 2127.4753 1511174
-1840.3307 882.7666 2144.0938 2169360
-1816.894 877.58368 2131.5054 2366739
-1804.9729 877.92932 2132.345 1643786
-1794.1165 878.80133 2134.4629 1841165
-1787.2705 881.66412 2141.4163 2104337
-1764.0016 876.40851 2128.6511 1841165
-1779.0348 890.24371 2162.2546 1906957
-1754.0121 884.09009 2147.3083 1314822
-1742.3062 884.60773 2148.5657 986375
-1734.5021 887.12866 2154.6885 1775632
-1720.879 886.68854 2153.6196 1644046
-1711.6665 888.53149 2158.0959 1249289
-1698.3695 888.26611 2157.4512 1709841
-1686.2697 888.62744 2158.3289 1973012
-1665.0018 884.12592 2147.3955 1577739
-1649.7267 882.76196 2144.0825 1841167
-1644.224 886.64642 2153.5173 1577222
-1613.0499 876.6402 2129.2139 1774857
-1608.2135 880.90259 2139.5667 2038029
-1595.704 880.99652 2139.7947 1972235
-1582.0314 880.44464 2138.4541 1709064
-1560.764 875.62299 2126.7432 2301201
-1554.4832 879.19904 2135.4287 1577478
-1540.8718 878.65369 2134.1042 1445892
-1530.921 880.20398 2137.8696 3222303
-1499.4431 869.2998 2111.3853 1840394
-1515.7183 886.12982 2152.2625 1577223
-1516.8525 894.31866 2172.1519 1379845
-1498.2144 890.89032 2163.825 1972235
-1472.1074 882.92316 2144.4741 2959130
-1458.5936 882.43604 2143.291 2827802
-1465.3143 894.28955 2172.0813 2301458
-1460.0846 898.99518 2183.5103 2169874
-1438.3986 893.56183 2170.3137 1249289
-1422.3256 891.54895 2165.4248 1249545
-1408.286 890.78571 2163.5708 2236185
-1394.3159 890.05267 2161.7905 2170650
-1372.4038 884.18927 2147.5493 3749682
-1363.6198 886.7533 2153.7769 1710356
-1354.7816 889.33014 2160.0356 1249805
-1350.167 894.75525 2173.2122 657157
-1328.951 889.17706 2159.6638 460035
-1329.939 898.49109 2182.2859 2367772
-1308.373 892.60132 2167.9807 722690
-1295.5253 892.60132 2167.9807 1248518
-1275.3171 887.47949 2155.5408 1510919
-1258.6996 884.77777 2148.9788 1642759
-1242.8705 882.58093 2143.6428 1708552
-1232.0096 883.90302 2146.854 1642758
-1220.5702 884.83325 2149.1135 2037516
-1211.0006 887.15302 2154.7478 2958104
-1184.9833 877.34454 2130.9246 2366221
-1183.5376 885.7132 2151.2507 2102793
-1164.7877 881.17328 2140.2239 2300427
-1143.4425 874.5484 2124.1333 1642498
-1122.0118 867.71002 2107.5239 2432010
-1109.2686 867.5116 2107.042 2300168
-1096.0394 866.92444 2105.616 3220757
-1093.2618 874.68573 2124.4668 2168326
-1077.2007 871.87622 2117.6431 1839621
-1067.2014 873.96484 2122.7158 2233865
-1061.4139 879.59351 2136.387 2102280
-1041.522 873.52856 2121.6562 2365966
-1029.6058 874.08655 2123.0115 2102793
-1005.6192 864.2843 2099.2034 2234893
-1008.0322 877.20996 2130.5977 1905930
-994.71802 876.60382 2129.1255 2037516
-973.48865 868.91711 2110.4558 2629653
-964.02045 871.66473 2117.1294 2103309
-948.81842 869.23206 2111.2207 2563860
-934.23047 867.30444 2106.5388 1905930
-927.29572 872.5257 2119.2205 1840139
-913.17474 871.03577 2115.6016 1905930
-909.31396 879.42737 2135.9834 1050368
-884.29919 867.30823 2106.5481 2694934
-878.22247 873.68225 2122.0295 1510662
-864.97784 873.00714 2120.3896 1116160
-846.94257 867.40546 2106.7842 2827034
-839.39392 872.53711 2119.248 1774343
-828.43665 874.22736 2123.3535 1642245
-818.17914 876.71973 2129.407 1050112
-800.94965 871.70233 2117.2207 1773831
-785.74121 868.75989 2110.074 1379074
-779.60529 875.91553 2127.4536 1312770
-766.80878 875.69989 2126.9299 1312769
-750.2876 871.1524 2115.885 1773318
-737.97272 871.41736 2116.5283 1050112
-729.91779 876.80859 2129.6228 1707781
-714.09607 872.89557 2120.1187 1247746
-702.33258 873.89197 2122.5388 721408
-690.98242 875.44836 2126.3191 525056
-679.24188 876.5589 2129.0164 4471858
-667.62091 877.86859 2132.1973 1774345
-655.5838 878.67096 2134.1462 327680
-642.98273 878.73425 2134.3 327680
-631.29022 880.06683 2137.5366 327680
-623.7041 887.29572 2155.0942 1643020
-605.29492 879.10779 2135.2073 1380361
-590.9339 876.5752 2129.0559 1446155
-577.80249 875.7959 2127.1631 1709327
-569.40479 882.31683 2143.0015 1314055
-552.42596 875.53516 2126.5298 1248262
-539.77631 875.45825 2126.3433 1182470
-526.92365 875.04065 2125.3289 1182469
-513.73596 874.03253 2122.8804 1248265
-500.24625 872.44708 2119.0295 393986
-492.3739 880.82916 2139.3882 262144
-478.30365 878.2735 2133.1809 262656
-463.56854 874.3252 2123.5911 2564638
-453.46393 879.13367 2135.27 853763
-440.99982 879.51245 2136.1902 1643020
-425.63477 873.95721 2122.6973 1708298
-412.41064 872.59332 2119.3848 655872
-401.31723 875.79376 2127.158 1839624
-385.23834 867.96899 2108.1531 984322
-370.77252 863.3761 2096.9976 1247747
-358.55634 863.88464 2098.2327 1313281
-344.73593 860.42572 2089.8315 1313282
-333.62482 863.72308 2097.8403 1445124
-323.46643 869.83789 2112.6921 1643531
-313.90186 878.10608 2132.7742 3222823
-303.49194 884.604 2148.5566 4209973
-293.58948 893.21509 2169.4714 657668
-280.40912 892.18549 2166.9707 262656
-268.46365 895.17468 2174.231 2235928
-254.76515 892.3252 2167.3101 657157
-239.96748 885.11884 2149.8071 4275509
-225.2421 877.38605 2131.0254 1972239
-213.97836 883.01965 2144.7085 2695704
-200.02594 877.56873 2131.4692 3090205
-187.89336 879.90546 2137.1445 2563604
-174.96935 878.60565 2133.9875 2037774
-161.76836 875.60419 2126.6975 2235153
-148.40837 871.16223 2115.9087 2761498
-136.32822 874.10638 2123.0596 1642760
-123.55939 872.78455 2119.8491 2300435
-111.35195 875.57782 2126.6335 1511432
-97.865601 867.74438 2107.6074 3287843
-85.530495 869.32013 2111.4346 1183498
-74.306564 884.66504 2148.7048 525827
-61.748047 887.1817 2154.8174 1380621
-48.983017 887.27014 2155.0322 2828067
-35.750866 875.97522 2127.5989 4604734
-23.373657 884.73401 2148.8723 2696736
-10.664833 886.88385 2154.094 2696996
2.1138875 892.41418 2167.5264 2039322
14.957254 892.30347 2167.2573 4605251
27.633177 886.92078 2154.1836 1183505
40.366894 886.20868 2152.4541 131329
53.57095 893.68488 2170.6125 0
66.496681 894.52191 2172.6455 262916
79.526283 896.25787 2176.8621 723467
92.968597 901.51141 2189.6218 131586
104.81838 891.92676 2166.3423 723467
118.10983 895.36255 2174.6875 2
130.95059 895.04211 2173.9089 65536
145.10506 902.9538 2193.1252 3748913
155.70761 889.27893 2159.9114 1907221
168.26765 888.01215 2156.8345 3287070
177.92618 872.69275 2119.6262 3418139
191.6799 878.15552 2132.8943 3221529
203.05219 872.70691 2119.6606 3747871
215.67981 872.97437 2120.3101 3287578
229.93672 879.44391 2136.0237 4011300
241.89757 876.91461 2129.8804 2826771
257.46063 887.04724 2154.491 4274473
268.8114 882.3952 2143.1917 3484700
284.03479 890.30157 2162.395 3221275
296.19751 888.34576 2157.6448 1905674
304.48032 875.39697 2126.1943 1379588
318.43976 879.14929 2135.3081 1906191
331.42944 880.03986 2137.4712 1314569
346.53476 886.27576 2152.6169 2301210
358.9736 885.49127 2150.7117 263171
367.45117 875.32422 2126.0176 3090980
382.17172 880.20996 2137.8843 3880497
389.53619 868.38348 2109.1597 3156514
398.56464 860.88647 2090.9507 2300949
412.93353 865.02899 2101.0122 3024670
421.34677 856.81799 2081.0691 4077359
432.52814 854.54303 2075.5435 919297
440.03448 845.33386 2053.176 722436
455.65833 851.79498 2068.8689 656128
470.11188 855.78705 2078.5649 985093
484.32172 859.14307 2086.7161 393728
499.34601 863.7406 2097.8828 393728
510.8399 862.15649 2094.0354 328451
527.6922 869.4765 2111.8145 1512207
541.14221 870.98138 2115.4695 1116425
549.56921 864.51636 2099.7671 919814
562.11035 864.66638 2100.1313 722179
574.7536 864.9635 2100.853 590849
588.30878 866.59125 2104.8066 1314829
597.6264 862.039 2093.75 2301721
613.92078 867.53088 2107.0889 986119
628.87787 870.95166 2115.3975 2630941
639.97925 869.00323 2110.665 1512463
665.89288 886.85699 2154.0288 1775120
680.6875 889.50897 2160.47 1643536
692.51251 888.25397 2157.4219 2038551
702.87469 885.20227 2150.0098 525571
717.36499 887.3656 2155.2642 1446415
730.96075 888.36615 2157.6941 2564639
747.15527 892.43622 2167.5798 394756
762.27997 895.11255 2174.0801 4802627
768.84528 887.8161 2156.3582 1578516
781.76898 887.98035 2156.7573 2236442
793.63831 886.96106 2154.2815 1775375
795.51007 874.9776 2125.1758 5262145
794.07971 859.79254 2088.2937 3221791
796.83984 849.54108 2063.3945 5326910
806.85413 847.21655 2057.7485 2431245
815.77179 843.82672 2049.5154 2760209
826.16193 842.03729 2045.1692 3219990
846.8465 850.64014 2066.064 3154712
855.36218 846.94867 2057.0979 2957078
865.7016 845.14105 2052.7078 3088918
866.81677 834.50342 2026.8705 2825491
892.73529 847.70898 2058.9446 4799281
908.07562 850.64893 2066.0854 4274223
916.06128 846.71289 2056.5254 4077102
921.18799 840.2724 2040.8826 7961981
927.42053 834.99445 2028.0634 7304825
936.16046 832.08014 2020.985 7765379
989.3811 868.27563 2108.8977 8554895
1005.6215 871.5191 2116.7756 8292236
1029.6206 881.32391 2140.5898 8226445
1047.5967 885.79736 2151.4551 8160650
1059.424 885.02649 2149.5828 8094601
1072.8262 885.57416 2150.9128 8029066
1089.6578 888.90631 2159.0063 7897736
1102.7122 889.11578 2159.5149 8028809
1120.808 893.3385 2169.7712 7962758
1137.0569 896.01013 2176.2603 8291209
1149.0115 895.27588 2174.4768 8817554
1157.9718 892.25067 2167.1292 8225416
1173.5037 894.29993 2172.1064 7501691
1190.1716 897.16119 2179.0559 6843503
1203.389 897.38776 2179.6062 6514795
1210.9772 893.45618 2170.0571 4803921
1225.7455 894.84924 2173.4404 2829360
1232.6221 890.5119 2162.9058 1842463
1232.8915 881.53949 2141.1135 197382
1243.5912 880.13171 2137.6943 2303017
1266.9817 887.64368 2155.9395 5132628
1278.483 886.75922 2153.7913 4211525
1298.3628 891.646 2165.6604 4672335
1311.038 891.53784 2165.3977 5790816
1322.3984 890.54651 2162.99 8356998
1333.7849 889.59143 2160.6704 7699068
1366.6655 902.85425 2192.8833 7106675
1367.8749 895.1413 2174.1499 7567226
1382.8707 896.51013 2177.4746 8488327
1399.8673 899.13867 2183.8589 6909294
1427.9521 908.77588 2207.2661 3948353
1420.5933 895.88586 2175.9583 5001040
1419.6917 887.26318 2155.0154 2303014
1433.3047 887.78473 2156.282 1644826
1429.8218 877.80133 2132.0342 855567
1428.5565 869.34253 2111.489 1709850
1423.6295 858.82153 2085.9353 1578520
1402.5536 838.82355 2037.3635 2960172
1373.3309 814.33612 1977.8877 2105117
1381.516 812.25708 1972.8378 1381393
1390.4272 810.63617 1968.9009 2367262
1411.0139 815.79254 1981.4248 262401
1429.4037 819.604 1990.6824 1315347
1424.5945 810.1601 1967.7446 1446934
1398.3076 788.75433 1915.7537 394501
1421.3657 795.30371 1931.661 525834
1435.8306 796.97845 1935.7288 1315349
1404.931 773.64624 1879.0586 526089
1405.9366 768.11176 1865.6163 131331
1420.8676 770.21228 1870.7181 657415
1436.4664 772.63947 1876.6134 2105117
1453.6443 775.87219 1884.4651 592135
1473.4325 780.43829 1895.5553 4604992
1484.6104 780.40906 1895.4843 2564899
1488.9602 776.81793 1886.7621 854539
1473.8444 763.2005 1853.6875 196610
1477.2114 759.28467 1844.1768 196612
1467.6667 748.83856 1818.8048 196612
1467.8807 743.48749 1805.808 131074
1449.8655 729.04755 1770.7357 131072
1441.9087 719.83661 1748.3639 1710106
1403.4801 695.65326 1689.6266 4341825
1428.1635 702.87323 1707.1627 2434597
1440.6805 704.04614 1710.0115 131329
1455.0857 706.1189 1715.0459 1118479
1461.9053 704.50732 1711.1317 2039324
1474.9949 705.91882 1714.5598 2236445
1495.5784 710.8728 1726.5923 920842
1506.2061 711.05957 1727.0459 2104344
1519.5118 712.49951 1730.5432 3486251
1510.3416 703.45178 1708.5679 4209973
1520.0187 703.24445 1708.0642 4867643
1523.5791 700.22852 1700.7391 3551268
1520.1731 694.07166 1685.7852 5326909
1520.5308 689.70239 1675.1729 3879720
1517.3842 683.81061 1660.8627 2695446
1474.7966 660.33514 1603.8447 2234895
1481.808 659.22589 1601.1505 3155741
1466.7356 648.36871 1574.7802 4142892
1489.6747 654.3454 1589.2966 3484964
1507.3884 657.96625 1598.0911 2563604
1520.5068 659.54852 1601.9342 3353377
1523.0453 656.55042 1594.6522 5852999
0 0 0 0
0 0 0 0
0 0 0 0
0 0 0 0
0 0 0 0
0 0 0 0
0 0 0 0
0 0 0 0
0 0 0 0
0 0 0 0
-1844.0792 879.0882 2104.8625 1775119
-1836.9253 881.64154 2110.9763 1380873
-1822.9742 880.94519 2109.3091 1117444
-1809.504 880.47327 2108.179 1512202
-1797.3641 880.64648 2108.5938 1314053
-1786.1627 881.28516 2110.123 1314823
-1764.9753 876.97113 2099.7937 1380616
-1762.2223 881.82056 2111.4048 2038546
-1750.2837 882.1098 2112.0974 1446409
-1751.5264 889.09424 2128.8208 920579
-1723.6077 881.26984 2110.0864 920582
-1721.7225 886.73938 2123.1824 5525832
-1690.1982 876.91199 2099.6519 1183495
-1689.0294 882.80463 2113.7612 1314824
-1676.5698 882.83984 2113.8455 2762526
-1666.5046 884.14612 2116.9731 3157029
-1645.3823 879.56128 2105.9954 2104339
-1646.4688 886.86902 2123.4929 2104082
-1612.1329 875.06244 2095.2234 1511432
-1612.7668 882.20129 2112.3167 1314308
-1597.9755 880.948 2109.3157 1709065
-1584.8713 880.61243 2108.5122 1840394
-1567.4282 877.84155 2101.8777 1379587
-1560.8722 881.17242 2109.853 1314052
-1548.0844 881.0105 2109.4653 1379590
-1537.3422 882.01971 2111.8818 1313796
-1525.6395 882.48993 2113.0076 787968
-1511.7278 881.67938 2111.0669 722688
-1494.2506 878.75861 2104.0735 262656
-1479.184 877.2182 2100.3853 1643789
-1498.7406 896.35901 2146.2153 1906445
-1483.6453 894.9256 2142.7832 1248516
-1458.2446 887.19757 2124.2795 1314051
-1445.7395 887.24902 2124.4028 1841166
-1439.1331 890.95319 2133.272 1643788
-1437.1938 897.63806 2149.2778 920065
-1421.1539 895.55676 2144.2944 854019
-1410.0054 896.54797 2146.668 1577741
-1400.6345 898.69794 2151.8157 986376
-1385.4695 897.13556 2148.0747 1578256
-1355.3973 885.80182 2120.9375 986120
-1337.8673 882.52936 2113.1021 1446415
-1345.5325 895.97217 2145.2891 1380622
-1331.7762 895.27112 2143.6106 2170138
-1319.7391 895.72345 2144.6936 2301723
-1306.6831 895.48627 2144.1257 1182985
-1291.2939 893.6297 2139.6804 985605
-1267.1261 885.60089 2120.4565 2367257
-1271.1858 897.33728 2148.5579 1051140
-1253.8898 894.08356 2140.7671 1182467
-1235.3132 889.84082 2130.6084 1642503
-1215.1904 884.38519 2117.5457 2695447
-1194.5706 878.45007 2103.3347 2629393
-1188.7734 883.40503 2115.1987 2629139
-1175.1882 882.61639 2113.3105 2234633
-1157.619 878.78632 2104.1399 2431756
-1136.6827 872.28894 2088.5828 2366220
-1126.1371 873.71014 2091.9856 3024150
-1114.8923 874.6145 2094.1511 2300426
-1092.7522 866.89575 2075.6694 2300170
-1083.3536 869.22443 2081.2451 1970692
-1067.423 866.30524 2074.2556 2102278
-1071.1302 879.44177 2105.7092 2431245
-1056.9204 878.00385 2102.2664 2168072
-1042.5347 876.38379 2098.3872 2562831
-1028.4044 874.94183 2094.9348 2102794
-1018.7 877.27612 2100.5239 2365709
-1004.6945 875.9184 2097.2729 1313793
-990.67236 874.51196 2093.9055 1708551
-978.62274 874.83313 2094.6746 1708551
-964.03717 872.86658 2089.9658 1971723
-954.62311 875.5921 2096.4917 1511173
-938.8808 872.50861 2089.1086 1642758
-923.56012 869.73975 2082.479 1905931
-912.01385 870.49847 2084.2957 2761239
-907.82404 878.396 2103.2053 1905930
-893.39691 876.47015 2098.5942 1774344
-879.23621 874.755 2094.4873 2366226
-868.54968 876.49664 2098.6575 2432276
-855.23639 875.59949 2096.5095 721664
-845.79144 878.69482 2103.9209 1050370
-827.30298 872.3468 2088.7214 853248
-812.43317 869.67975 2082.3354 1313537
-800.40576 870.01996 2083.1499 590080
-794.84491 877.50983 2101.0835 1839884
-779.42889 874.18488 2093.1223 1510917
-771.89471 879.73541 2106.4124 1050369
-758.99133 879.24847 2105.2463 1774089
-746.50122 879.23199 2105.207 1313282
-734.58392 879.90106 2106.8091 984576
-722.04742 879.83875 2106.6599 721921
-710.35443 880.82031 2109.01 853760
-699.05133 882.3291 2112.6226 787712
-687.16003 883.1369 2114.5566 1512204
-672.5058 880.35779 2107.9026 2038548
-664.69373 886.59991 2122.8486 920322
-650.66223 884.62714 2118.125 262144
-639.39758 886.41241 2122.3997 262144
-623.34607 881.50024 2110.6379 459264
-612.71387 884.20734 2117.1196 787970
-596.38098 878.62891 2103.7629 1314571
-588.03076 884.82404 2118.5964 1512204
-573.89233 882.38971 2112.7678 2235671
-559.35303 879.21686 2105.1709 2761500
-543.6864 874.08679 2092.8875 1774347
-534.0235 878.59473 2103.6812 1708813
-521.37872 878.2951 2102.9636 1314056
-511.05194 881.98108 2111.7893 1511951
-497.32861 879.8432 2106.6704 919813
-485.20807 880.50378 2108.2522 327680
-473.84811 882.61615 2113.3098 262400
-460.78711 881.5885 2110.8494 2761761
-452.47952 889.85187 2130.6348 1643278
-438.4295 886.97205 2123.7395 1511691
-424.18912 883.5257 2115.4878 1774861
-409.32043 878.52094 2103.5044 1445383
-396.99564 878.83307 2104.2517 1247750
-383.50482 876.50043 2098.6667 919556
-369.36578 872.48047 2089.0413 458752
-354.9512 867.50818 2077.1357 787457
-341.51645 864.6593 2070.3147 1576968
-329.1011 864.27533 2069.3953 1445380
-319.00983 870.20123 2083.584 985089
-308.42566 875.20575 2095.5667 2235671
-296.95499 878.00903 2102.2788 1775378
-286.27997 883.51331 2115.458 2368031
-275.91388 890.5188 2132.2319 5723214
-264.6438 895.13916 2143.2947 3288870
-252.97067 898.7934 2152.0442 4604727
-236.19038 883.72675 2115.969 2565144
-224.8938 888.63861 2127.73 2893083
-211.03854 883.4234 2115.2427 4077357
-197.3381 878.2384 2102.8279 2300946
-186.16019 884.3374 2117.4312 2168847
-173.22391 882.36127 2112.6997 2564118
-158.63918 871.02631 2085.5596 1906187
-146.27336 870.98859 2085.4692 1577223
-134.34007 873.75702 2092.0979 2300948
-122.58698 878.37952 2103.1658 1314053
-110.09442 878.15027 2102.6169 525313
-97.781052 879.47412 2105.7866 1972243
-85.519371 881.7182 2111.1599 1248778
-73.543968 888.18878 2126.6528 1643794
-60.493698 881.66998 2111.0444 2630945
-47.766113 877.68127 2101.4939 2433310
-35.556232 883.74628 2116.0159 1118220
-23.067421 885.71033 2120.7185 1183756
-10.602426 894.38501 2141.489 1512978
2.0825043 891.8197 2135.3467 1447185
14.757235 893.04285 2138.2751 2697254
27.680653 901.2326 2157.8845 2236703
40.550335 903.0498 2162.2356 4473666
53.430836 904.17743 2164.9355 1644567
66.337791 905.22919 2167.4539 657929
79.19838 905.40979 2167.8865 263170
91.919777 904.17078 2164.9197 460551
104.45486 901.62701 2158.8291 2631720
117.44878 903.16693 2162.5161 1381653
130.28061 903.27991 2162.7866 394499
142.64175 900.40155 2155.8948 131072
153.55397 889.60217 2130.0371 3353633
163.75743 876.64923 2099.0229 3155737
175.71773 874.2663 2093.3171 3286549
186.24484 865.53705 2072.4163 2825741
200.67334 874.89722 2094.8279 3483928
214.57054 880.98529 2109.405 3878429
226.9053 880.34119 2107.8628 3352085
238.08798 875.52765 2096.3374 2825745
251.30824 878.31293 2103.0063 2299401
265.7868 885.02484 2119.0771 4470571
279.51508 888.74548 2127.9858 1576969
287.95798 876.06506 2097.6243 1379589
300.3331 875.90216 2097.2341 1971984
310.73218 870.21832 2083.6248 919556
327.42316 881.91602 2111.6335 1906964
340.90955 884.43878 2117.6741 920069
356.39975 891.79645 2135.291 2564893
365.43066 883.04095 2114.3271 1972757
377.62158 882.24896 2112.4307 2433050
386.9144 874.95398 2094.9639 1380106
396.25726 868.22229 2078.8457 2169365
407.85519 866.6886 2075.1733 2037776
418.68896 863.66833 2067.9419 1117448
432.58649 866.96008 2075.8235 1248262
437.84811 853.24091 2042.9746 1313798
451.36426 855.91278 2049.3721 1051140
464.39798 857.55389 2053.3015 1446156
479.96994 863.67853 2067.9663 196608
495.77386 869.90521 2082.8752 722435
505.01389 864.59192 2070.1533 262401
518.80054 867.13 2076.2302 591106
535.85492 874.88556 2094.8 1511697
547.15259 873.10382 2090.5339 656901
560.46893 874.5509 2093.9988 196608
571.7926 872.89331 2090.0298 131072
581.15002 868.36804 2079.1946 65536
595.7915 871.76227 2087.3218 1446670
608.07135 871.63312 2087.0125 2828323
623.80188 876.35693 2098.323 1710100
632.92267 871.79181 2087.3923 2169879
647.81842 875.20361 2095.5615 2433308
661.06036 876.2948 2098.1743 2433052
676.85059 880.66138 2108.6294 1709331
699.59149 893.74933 2139.9668 1577999
717.39899 900.18079 2155.3662 1973014
723.29712 891.70508 2135.0723 5723214
736.62341 892.52106 2137.0259 3157288
754.59357 898.84088 2152.158 3222821
762.9577 893.69861 2139.8455 4144177
752.74194 867.31659 2076.677 3222303
769.22913 872.0556 2088.0242 3616289
784.42303 875.2019 2095.5574 4931891
785.12463 862.33252 2064.7434 6050371
791.21954 855.69086 2048.8408 3352600
799.87573 851.97815 2039.9513 2628364
805.05304 844.72565 2022.5861 2694155
821.99579 849.8501 2034.8558 3614744
830.29675 846.02094 2025.6874 3681048
837.99945 841.69989 2015.3412 4667686
844.74774 836.5553 2003.0231 3285779
853.35913 833.37274 1995.4028 3087890
860.61902 828.97528 1984.8738 3087894
864.0791 821.08563 1965.983 3351837
881.19531 826.20996 1978.2527 3615782
901.06329 833.74597 1996.2966 6511961
934.58478 853.55627 2043.7299 4671047
922.91278 832.11273 1992.386 6579819
942.68457 839.20288 2009.3625 7501180
967.37836 850.44324 2036.276 6975608
991.51221 860.92047 2061.3623 6054764
1006.1965 863.03741 2066.4312 5461596
1022.114 866.14868 2073.8806 5001301
1044.2501 874.39288 2093.6204 4276296
1056.6338 874.37347 2093.574 2237741
1075.99 880.05719 2107.1829 2237477
1088.9136 880.40979 2108.0271 1908256
1108.0074 885.68646 2120.6614 1315864
1120.6323 885.73181 2120.77 4145479
1124.1306 878.6427 2103.7959 3882818
1134.1984 876.78754 2099.354 5658715
1149.6478 879.08783 2104.8618 5791075
1160.4325 877.81006 2101.8022 7436154
1163.5413 870.81451 2085.0525 8423050
1183.4175 876.3833 2098.3862 7962241
1205.5029 883.45526 2115.3191 7370105
1217.3038 882.92236 2114.043 7699069
1243.1343 892.47217 2136.9089 7896448
1249.6338 888.09137 2126.4197 6909553
1266.9745 891.42572 2134.4033 7172468
1279.3506 891.23572 2133.9482 7040625
1284.6545 886.1709 2121.8213 7106420
1301.0939 888.81116 2128.1431 7238006
1318.7507 892.22449 2136.3157 7238261
1322.3508 886.15295 2121.7783 6712173
1338.1085 888.2663 2126.8384 7369847
1363.6324 896.76263 2147.1819 7238261
1374.2015 895.35822 2143.8191 7633017
1391.6719 898.43475 2151.1855 7764603
1396.4645 893.34534 2138.9995 7172466
1394.8922 884.31232 2117.3711 5067090
1419.9479 892.17114 2136.188 6842473
1436.7545 894.75372 2142.3718 1381653
1431.7371 883.81897 2116.1899 1117970
1396.3933 854.51617 2046.0281 2170656
1378.1427 836.08783 2001.9039 2828587
1369.054 823.48499 1971.728 1578520
1379.0159 822.4574 1969.2675 591624
1383.5498 818.237 1959.1622 197124
1387.2797 813.61511 1948.0958 197124
1413.255 822.00848 1968.1927 723469
1453.1443 838.2912 2007.1794 592139
1433.0651 819.99567 1963.3733 986896
1438.9117 816.71008 1955.5063 789261
1443.5858 812.81671 1946.1842 1578521
1435.3966 801.7998 1919.8055 65537
1431.9143 793.5647 1900.0876 65537
1436.8197 790.07025 1891.7208 789260
1433.2061 781.98181 1872.354 1644313
1444.686 782.18976 1872.8519 1842201
1484.3752 797.55127 1909.6331 2828840
1487.9272 793.41077 1899.7191 1775899
1481.0432 783.80939 1876.7299 65537
1472.0396 773.23779 1851.4176 196610
1463.6617 763.14886 1827.261 196612
1461.8124 756.5871 1811.5497 131077
1455.5309 747.84381 1790.615 65540
1444.616 736.86365 1764.3245 65538
1435.4231 726.91339 1740.4999 591625
1406.3651 707.11694 1693.0999 2762795
1423.2019 710.51331 1701.2319 328708
1448.5101 718.0614 1719.3049 657417
1452.8384 715.17639 1712.3971 1380883
1465.3242 716.31927 1715.1335 4078137
1476.6161 716.8667 1716.4443 657414
1486.6771 716.81317 1716.3162 2499360
1491.1847 714.10089 1709.822 2828323
1495.8268 711.48932 1703.5688 2433564
1502.217 709.73859 1699.377 2038805
1495.5819 701.89832 1680.6044 2104853
1505.2449 701.75989 1680.2731 4999487
1512.7217 700.6109 1677.522 4472373
1522.0704 700.33826 1676.8691 3880234
1518.2535 694.05066 1661.8142 4603956
1490.3883 676.92151 1620.8008 3485220
1483.5837 669.51599 1603.0692 4011564
1476.5284 662.09235 1585.2943 2958618
1477.8107 658.4776 1576.6392 3419171
1496.6995 662.70404 1586.7588 5655619
1491.2134 656.15253 1571.072 5721668
1503.3951 657.40796 1574.0781 3155486
0 0 0 0
0 0 0 0
0 0 0 0
0 0 0 0
0 0 0 0
0 0 0 0
0 0 0 0
0 0 0 0
0 0 0 0
0 0 0 0
0 0 0 0
-1821.1755 886.48511 2092.8767 1578252
-1811.9836 888.0589 2096.592 1183494
-1786.228 881.48035 2081.061 1249030
-1783.0886 886.04871 2091.8464 1643788
-1765.5021 883.4516 2085.7151 1643787
-1746.5955 880.15283 2077.927 1446409
-1727.2076 876.56305 2069.4519 1841167
-1743.3562 891.08563 2103.7378 1183237
-1719.3713 885.15613 2089.7393 1117444
-1699.2916 881.16571 2080.3181 1314566
-1700.3691 888.16803 2096.8499 2828315
-1678.6545 883.28088 2085.3118 1906959
-1661.0181 880.48285 2078.7061 2696474
-1656.9177 884.87177 2089.0679 2235924
-1637.2903 880.97235 2079.8618 2301462
-1618.8961 877.68237 2072.0945 1972498
-1602.4749 875.41986 2066.7529 1183237
-1601.1621 881.4397 2080.9651 1446410
-1596.6411 885.77313 2091.1958 2893855
-1570.7891 878.24805 2073.4299 1380616
-1560.2556 879.23651 2075.7637 1643530
-1539.7471 874.57483 2064.7581 328448
-1555.7301 890.73169 2102.9023 2038545
-1531.8722 884.15442 2087.3743 1183494
-1523.2693 886.34656 2092.5496 1117445
-1513.0255 887.612 2095.5371 1117445
-1512.78 894.81244 2112.5364 2828062
-1497.6008 893.22601 2108.791 722944
-1475.0249 887.164 2094.4795 1182723
-1437.5297 871.94977 2058.5605 2432788
-1418.8414 867.98022 2049.189 1972236
-1437.6619 887.08624 2094.2959 2366994
-1429.3169 889.61713 2100.271 1642761
-1422.9919 893.46082 2109.3455 1643786
-1418.5975 898.59552 2121.4678 1840911
-1402.4631 896.31891 2116.093 1710096
-1388.9827 895.71271 2114.6619 1907477
-1374.5143 894.45251 2111.6868 4670785
-1364.8256 896.30817 2116.0676 2236959
-1361.7954 902.61163 2130.9492 2105371
-1354.5619 906.22089 2139.4702 1973785
-1328.2549 897.0174 2117.7419 723463
-1311.4407 894.11029 2110.8787 1118478
-1281.0977 881.83472 2081.8977 2762530
-1274.7107 885.9707 2091.6624 591876
-1265.8011 888.41754 2097.4387 2433562
-1254.894 889.49695 2099.9871 2170389
-1243.9658 890.5827 2102.5505 1775373
-1239.4568 896.3327 2116.1255 2563861
-1218.3612 890.08276 2101.3704 3155997
-1209.3373 892.61389 2107.3459 2497808
-1164.3436 868.37164 2050.113 2760978
-1182.4872 891.20239 2104.0134 2366220
-1164.4784 886.9826 2094.0513 1247745
-1136.1772 874.7478 2065.1663 2037254
-1121.0315 872.48517 2059.8247 2629133
-1109.1876 872.77081 2060.499 2826512
-1093.2871 869.83551 2053.5691 3023378
-1076.6787 866.26428 2045.1381 2694671
-1066.8418 868.12207 2049.5239 1576193
-1054.7455 868.1629 2049.6204 2497806
-1045.7598 870.7948 2055.834 2760723
-1045.4611 880.8078 2079.4731 2826517
-1034.765 882.19507 2082.7485 2168587
