# .PCD v0.7 - Point Cloud Data file format
VERSION 0.7
FIELDS x y z rgb
SIZE 4 4 4 4
TYPE F F F U
COUNT 1 1 1 1
WIDTH 1368
HEIGHT 1
VIEWPOINT 0 0 0 1 0 0 0
POINTS 1368
DATA ascii
5659.8774 393.81729 7013.998 19
6006.9863 414.92212 7389.8809 16
6057.8042 415.40381 7398.4595 17
6135.9692 417.7403 7440.0737 16
6185.2749 418.09277 7446.3511 15
6212.3198 416.9462 7425.9302 15
6338.519 422.42377 7523.4873 15
6444.9556 426.51688 7596.3872 15
7300.7837 479.80286 8545.4248 15
7465.9492 487.2774 8678.5498 15
7591.2183 492.06363 8763.793 15
7646.4463 492.27554 8767.5674 15
7726.8027 494.09146 8799.9092 15
7835.3184 497.67163 8863.6729 18
8005.5859 505.10019 8995.9775 18
8005.2461 501.73746 8936.0869 18
8033.4185 500.19431 8908.6025 16
8054.4307 498.22833 8873.5879 16
8087.5171 497.02994 8852.2441 16
6624.2358 404.47818 7203.8716 16
6684.0034 405.51416 7222.3223 16
6741.1333 406.37793 7237.707 16
8346.4502 499.97064 8904.6191 16
8402.8086 500.18414 8908.4219 16
8506.1807 503.17612 8961.71 16
8567.3438 503.64966 8970.1436 16
0 0 0 0
0 0 0 0
0 0 0 0
0 0 0 0
-5176.1133 352.43307 5677.6694 3156000
-5332.2368 365.43881 5887.1904 3024670
-5263.146 363.07938 5849.1802 2893084
-5391.0449 374.3681 6031.041 2893085
-5469.8765 382.37744 6160.0708 3090207
-5450.7036 383.59729 6179.7222 3024671
-5377.4609 381.00269 6137.9233 3156257
-5296.2827 377.80664 6086.4355 3287843
-5311.0586 381.45853 6145.2671 3222050
-5288.5166 382.46204 6161.4336 3024671
-5204.8306 379.02686 6106.0933 2761496
-5158.8188 378.30634 6094.4854 2366739
-5147.856 380.16397 6124.4116 2761497
-5094.4316 378.88995 6103.8872 2761496
-5147.7407 385.59262 6211.8672 2630167
-5099.5903 384.73727 6198.0874 2761239
-5078.0376 385.89072 6216.6694 2498067
-5043.9956 386.10498 6220.1211 3024411
-5051.1743 389.50101 6274.8306 3155997
-4936.8647 383.5098 6178.313 2761239
-4979.8711 389.74115 6278.6997 2827032
-4949.1724 390.25452 6286.9697 2959131
-4921.9243 391.04984 6299.7822 2959130
-4920.4502 393.92062 6346.0308 3156510
-4936.6763 398.2637 6415.9971 2762266
-4951.1289 402.52997 6484.7261 2893852
-4867.2485 398.80591 6424.7319 2828060
-4890.4282 403.86438 6506.2241 3025439
-4839.708 402.85199 6489.9141 3025439
-4936.8682 414.23132 6673.2344 3157027
-4859.7402 411.05261 6622.0254 2630683
-4921.0762 419.62924 6760.1938 2696733
-4783.6865 411.26178 6625.3955 2959648
-4781.9209 414.51227 6677.7603 2828062
-4701.2759 410.92236 6619.9272 2235668
-4613.0972 406.60803 6550.4238 2038546
-4669.8594 415.10428 6687.2974 2170131
-4627.5278 414.86209 6683.396 2301461
-4588.0518 414.87396 6683.5869 2301718
-4540.7681 414.17389 6672.3086 2235925
-4493.4087 413.4545 6660.7197 2301205
-4501.9766 417.91409 6732.5635 2629913
-4468.1821 418.48584 6741.7739 2629911
-4438.8906 419.49338 6758.0059 2760984
-4361.856 415.96631 6701.1846 2826776
-4299.9897 413.83423 6666.8374 2694932
-4298.3252 417.51019 6726.0566 2628883
-4297.6333 421.35028 6787.9204 2365712
-4199.9683 415.66574 6696.3428 2168589
-4221.729 421.80484 6795.2432 2102796
-4214.9121 425.17941 6849.6069 2037259
-4192.0142 426.98166 6878.6416 2103309
-4161.9736 428.08469 6896.4106 1971723
-4071.5796 422.94028 6813.5347 2037515
-4133.2632 433.64825 6986.0396 2827032
-4049.8333 429.19415 6914.2842 2301201
-4008.1738 429.12094 6913.1045 2169360
-4065.9382 439.80054 7085.1523 2103312
-4042.2534 441.80099 7117.3799 2300947
-3953.3523 436.64066 7034.2471 2300947
-3909.0359 436.34708 7029.5171 1840395
-3872.2185 436.89331 7038.3169 1906187
-3875.2622 441.9978 7120.5503 2038029
-3835.3259 442.25861 7124.7515 1906186
-3830.3313 446.59924 7194.6787 2037772
-3791.6738 447.06842 7202.2378 2234895
-3812.9705 454.69797 7325.1484 2366481
-3799.0767 458.25836 7382.5063 2892825
-3686.5728 449.86838 7247.3447 2301202
-3690.0249 455.59744 7339.6392 2235152
-3639.7568 454.7514 7326.0098 2235151
-3501.4602 442.75381 7132.7295 2365967
-3386.2041 433.41211 6982.2354 2431759
-3309.0823 428.78055 6907.6211 2365966
-3302.9182 433.34262 6981.1162 2300173
0 0 0 0
0 0 0 0
0 0 0 0
0 0 0 0
0 0 0 0
0 0 0 0
0 0 0 0
0 0 0 0
-892.94922 132.03999 2127.1541 8
-880.77197 132.10429 2128.1899 11
-868.64264 132.17778 2129.3735 657686
-843.14618 130.18936 2097.3406 1974318
-846.45898 132.65648 2137.0854 1908525
-833.99976 132.68918 2137.6123 1711146
-822.14014 132.81978 2139.7161 13
-816.23022 133.93069 2157.613 12
-805.88239 134.33722 2164.1621 1711146
-794.77094 134.62752 2168.8389 1711146
-783.20447 134.84904 2172.4075 1645353
-771.37982 135.03276 2175.3672 9
-761.56244 135.58006 2184.1843 9
-750.61072 135.94087 2189.9968 4
-723.51746 133.33958 2148.0903 2038554
0 0 0 0
-2352.0891 449.28485 7237.9438 2366483
-2398.501 466.66046 7517.8633 2497554
-2366.7578 469.19983 7558.7725 2300684
-2415.9072 488.1832 7864.5933 2497291
-2418.9773 498.41895 8029.4902 2628620
-2358.5337 495.71625 7985.9497 2497034
-2388.0227 512.19189 8251.3711 2562826
-2354.551 515.57007 8305.793 2562569
-2306.0164 515.72375 8308.2695 2694155
-2263.4426 517.2464 8332.7988 2957327
-2238.196 522.88483 8423.6338 2825226
-2180.6309 521.05811 8394.2051 2891018
-2140.5444 523.4201 8432.2568 2956811
-2106.9761 527.52692 8498.417 2759432
-2053.4031 526.70361 8485.1543 2693638
-2041.6141 536.82587 8648.2227 2693639
-1963.5867 529.60394 8531.8779 3022603
-1919.8816 531.50214 8562.458 2956811
-1870.327 531.84003 8567.9014 2891018
-1823.7548 533.06854 8587.6924 2693639
-1768.7441 531.83026 8567.7441 2891018
-1721.9579 533.06494 8587.6338 2693639
-1687.8209 538.40973 8673.7383 2693639
-1642.2357 540.32367 8704.5723 2759432
-1595.7174 542.04486 8732.2998 2825225
-1552.7307 545.12122 8781.8604 3219982
-1518.886 551.73175 8888.3555 2957067
-1482.5083 557.86414 8987.1475 3219467
-1431.8259 558.87018 9003.3545 3153674
-1395.5687 565.80237 9115.0322 3087625
-1355.187 571.55334 9207.6797 3153675
-1325.8145 582.62482 9386.04 3416847
-1281.6575 587.8844 9470.7725 3416847
-1241.2301 595.41498 9592.0889 3483153
-1182.3253 594.37939 9575.4053 3285774
-1140.8295 602.43237 9705.1387 3154447
-1100.949 612.23883 9863.1201 2825739
-1043.8031 613.00525 9875.4668 2957325
-984.56683 612.56213 9868.3281 3219982
-933.65729 617.57086 9949.0186 3352341
-877.62183 619.63574 9982.2832 3089684
-824.1203 623.91748 10051.262 3090454
-760.61615 620.70361 9999.4863 3617570
-712.18976 630.29059 10153.933 7699069
-677.47522 654.9021 10550.422 8292231
-620.64886 660.97003 10648.175 8095884
-567.94391 673.29724 10846.767 8227211
-504.69498 674.67596 10868.977 8291973
-415.89044 637.29742 10266.812 7829875
-349.21243 626.82434 10098.091 4670261
-282.67645 612.32715 9864.542 5722173
-221.86374 605.90027 9761.0059 5787709
-162.08667 598.76587 9646.0713 6840396
-103.34679 589.77661 9501.2549 6708553
-46.760571 586.26904 9444.749 6906188
9.1789541 584.22784 9411.8652 7103567
63.589722 571.9422 9213.9434 7037772
114.33211 553.25665 8912.9219 6379842
164.79984 545.47131 8787.5 5721141
215.10983 541.02808 8715.9199 5787448
264.28546 536.00482 8634.9961 5655349
303.38303 515.48743 8304.4619 4667940
362.15048 529.45435 8529.4678 4273695
411.24197 527.58643 8499.376 5985342
462.36557 528.44873 8513.2676 5919806
514.78229 530.47394 8545.8936 6972239
562.3761 527.61157 8499.7812 4932913
599.73706 516.40869 8319.3037 5459514
649.21735 516.5506 8321.5898 5459514
702.11975 519.20306 8364.3203 5525051
727.50208 502.4971 8095.1885 4472105
791.9137 513.1485 8266.7822 3287832
851.00775 519.3139 8366.1064 3814176
924.78003 533.26453 8590.8496 6643280
979.98657 535.61218 8628.6699 3880747
1075.163 558.48914 8997.2158 6249550
1086.812 537.86633 8664.9844 5788738
1150.1438 543.52832 8756.1992 6249031
1214.9587 549.37219 8850.3428 5393721
1263.2389 547.56512 8821.2314 5392951
1292.4504 537.96466 8666.5684 5393208
1341.0533 536.86096 8648.7881 4603692
1385.5951 534.27252 8607.0889 3682333
1413.0707 525.52106 8466.1025 2761232
1448.4005 520.19049 8380.2285 2761233
1512.6082 525.24103 8461.5918 3155477
1564.6123 525.86584 8471.6572 3550747
1610.3948 524.42566 8448.4561 3814175
1655.8027 522.95404 8424.749 4340520
1609.3934 493.41873 7948.937 5064241
1644.2045 489.75616 7889.9331 5130290
1703.9548 493.51926 7950.5566 4998704
1720.8899 485.01297 7813.5205 5985088
1736.5298 476.59689 7677.9385 5393722
1753.8665 469.06445 7556.5918 5460026
1847.7185 481.86127 7762.7476 5722429
1903.864 484.44186 7804.3208 4603691
1988.2786 493.92261 7957.0542 4207905
1997.5333 484.72559 7808.8911 4142112
2050.7976 486.38269 7835.5874 4141858
2095.0439 485.87503 7827.4092 4142372
2137.1428 484.90213 7811.7354 4274475
0 0 0 0
0 0 0 0
0 0 0 0
0 0 0 0
0 0 0 0
0 0 0 0
4153.5181 818.31995 13183.07 3619386
4146.6675 801.88715 12918.339 4936279
4179.2881 793.54468 12783.943 6384497
4247.2866 792.09711 12760.623 8161424
4221.6904 773.55066 12461.841 7898252
4195.4351 755.52319 12171.42 8490390
4344.5708 769.15613 12391.045 8490903
4439.5327 772.90436 12451.429 8622489
4518.2393 773.74634 12464.993 8556440
4493.3774 757.11047 12196.991 9016990
4623.4268 766.68988 12351.314 9016991
4588.9805 749.11798 12068.232 9148321
4833.4668 776.92047 12516.127 9279652
5557.9888 879.8761 14174.734 9477030
5404.0391 842.76709 13576.911 9147808
5083.1187 781.0896 12583.293 7831692
5342.3203 809.05035 13033.737 7502984
5300.6875 791.30457 12747.854 7042177
5328.1694 784.23016 12633.886 6845054
5311.0469 770.87756 12418.777 6713469
5410.6431 774.59979 12478.742 4804701
5368.1968 758.16071 12213.909 2764341
5422.585 755.65314 12173.514 592404
5344.5493 735.00006 11840.794 270
5381.4199 730.47986 11767.974 272
5074.4263 679.99597 10954.682 530
5563.2158 736.07886 11858.173 1302
5275.4404 689.29565 11104.499 1558
5732.5566 739.79462 11918.033 1301
5223.2788 665.86768 10727.076 1300
5220.6543 657.53052 10592.765 1301
5229.0122 650.75824 10483.664 1044
5220.5996 642.08234 10343.896 1044
5240.855 637.09283 10263.516 1043
5326.4839 640.07361 10311.536 1042
5313.9971 631.3302 10170.68 784
5397.0488 634.00604 10213.787 526
5489.0552 637.66272 10272.696 269
5877 675.24121 10878.083 12
5902.7041 670.83588 10807.114 12
5825.1172 654.91235 10550.587 12
5884.5347 654.56671 10545.019 12
5738.4185 631.60602 10175.123 12
5860.6489 638.35162 10283.794 12
5731.1255 617.81909 9953.0166 12
5745.5625 613.06586 9876.4424 12
5629.2852 594.60156 9578.9844 12
5660.4946 591.92896 9535.9287 12
5812.9502 601.86273 9695.9619 12
5873.4692 602.17633 9701.0137 12
5728.2998 581.6001 9369.5322 12
5810.8447 584.31702 9413.3018 14
5819.4844 579.62134 9337.6543 14
5709.6729 563.32745 9075.1611 14
5637.8994 551.05554 8877.4619 14
5382.6016 521.23859 8397.1123 14
5458.4424 523.74072 8437.4219 14
5511.5259 524.03369 8442.1416 14
5603.4004 527.97644 8505.6592 14
5510.6177 514.60486 8290.2441 14
5719.2456 529.36786 8528.0752 15
5571.2729 511.15472 8234.6631 16
5628.0254 511.87802 8246.3145 16
5748.9844 518.37817 8351.0322 16
5648.6118 504.98068 8135.1992 16
5799.9292 514.1203 8282.4375 13
5776.3096 507.72977 8179.4868 14
5771.1533 503.05502 8104.1772 66833
5529.3779 478.00226 7700.5786 66833
5502.9805 471.82617 7601.0825 66834
5509.8184 468.57684 7548.7363 198419
5310.1392 447.95825 7216.5723 198419
5279.9858 441.85587 7118.2637 132625
5487.9668 455.62061 7340.0127 66579
5129.8218 422.53766 6807.0488 66579
5418.7822 442.85651 7134.3838 66579
5633.457 456.83658 7359.6016 66579
5480.0923 440.9856 7104.2432 66579
5513.2041 440.26773 7092.6787 132115
5507.4805 436.48288 7031.7051 66579
6009.3242 472.67892 7614.8208 132372
5878.1812 458.9173 7393.1221 66581
5959.4258 461.81799 7439.8521 16
5619.1333 432.24957 6963.5063 19
5965.9902 455.58551 7339.4468 16
6042.166 458.06308 7379.3604 18
6098.4937 459.01114 7394.6333 18
6152.3447 459.76059 7406.707 18
6187.1226 459.08417 7395.8101 18
6381.1055 470.14725 7574.0352 18
6452.2104 472.06552 7604.939 18
7169.6548 520.91754 8391.9414 18
7350.3584 530.36786 8544.1846 18
7564.7119 542.10022 8733.1924 18
7670.7378 545.96301 8795.4209 18
7880.6196 557.1156 8975.0889 18
7700.1108 540.70526 8710.7197 18
7813.5879 545.0199 8780.2275 18
7885.7104 546.41187 8802.6523 18
7964.5259 548.24628 8832.2051 18
7977.3267 545.54224 8788.6426 18
8004.8955 543.87659 8761.8096 18
6519.2178 440.0806 7089.6636 18
6520.6738 437.36023 7045.8389 18
6624.1113 441.47113 7112.0649 16
8207.2119 543.52026 8756.0693 17
8286.6299 545.33179 8785.2529 17
8382.8193 548.21765 8831.7432 16
8461.0469 549.90021 8858.8486 16
0 0 0 0
0 0 0 0
0 0 0 0
0 0 0 0
-5182.229 386.53635 5684.3779 3156254
-5150.7437 386.7016 5686.8081 3025180
-5102.376 385.59326 5670.5088 3090974
-5195.1167 395.20468 5811.8535 2958875
-5196.2402 397.92828 5851.9072 2761498
-5255.6982 405.18576 5958.6353 2893084
-5158.5581 400.3869 5888.0635 3024671
-5131.2148 400.97693 5896.7407 3024670
-4903.4268 385.80405 5673.6089 2498327
-4961.6313 393.07892 5780.5928 2366484
-4899.5591 390.86002 5747.9614 2366739
-4953.8096 397.95453 5852.293 2366739
-4902.5791 396.61575 5832.6055 2564118
-4871.1333 396.86993 5836.3428 2564373
-4880.5566 400.48132 5889.4517 2761751
-4873.6865 402.7981 5923.522 3024411
-4839.3057 402.85828 5924.4072 3024411
-4787.2563 401.43774 5903.5171 3024411
-4794.0259 404.96497 5955.3877 2563860
-4767.9922 405.75287 5966.9751 2958875
-4729.5254 405.48666 5963.0596 2696215
-4699.0298 405.90497 5969.2114 2959131
-4698.1836 408.91025 6013.4067 2761752
-4717.0122 413.68686 6083.6519 2761752
-4676.606 413.30215 6077.9941 2893594
-4683.2617 417.10291 6133.8877 2630680
-4638.2178 416.32263 6122.4131 3091232
-4690.7637 424.35867 6240.5903 2959647
-4603.2266 419.74887 6172.7988 3354404
-4566.645 419.74887 6172.7988 3025696
-4669.6821 432.68564 6363.0469 2828061
-4591.8359 428.93631 6307.9092 2696476
-4600.918 433.31226 6372.2617 2696475
-4540.1772 431.1304 6340.1748 2696219
-4553.9536 436.04715 6412.481 2630683
-4416.1348 426.40909 6270.7441 2762267
-4442.5186 432.59698 6361.7427 3157024
-4378.7422 430.03607 6324.0825 3025439
-4320.0273 427.9324 6293.146 2958876
-4300.3091 429.68866 6318.9731 3024670
-4285.7144 431.99216 6352.8481 2695706
-4251.4839 432.33972 6357.9595 2695704
-4267.7334 437.8728 6439.3286 2761240
-4218.0547 436.68039 6421.793 2760983
-4181.6362 436.85156 6424.3101 2695446
-4115.647 433.90826 6381.0259 2431760
-4158.1675 442.45648 6506.7363 2365967
-4090.4106 439.32074 6460.6216 2497553
-3956.5049 428.95398 6308.1689 2234381
-4095.2712 448.23386 6591.6978 2234381
-4099.4678 453.01437 6661.9995 2234125
-4051.4346 452.06012 6647.9658 2168845
-3986.8591 449.22311 6606.2456 2300175
-3933.0996 447.56064 6581.7969 2629139
-3981.9146 457.65408 6730.231 2498067
-3940.5359 457.48065 6727.6802 2432274
-3903.5867 457.82318 6732.7173 2234895
-3816.1365 452.18869 6649.8569 2037516
-3832.6104 458.87946 6748.2515 1774600
-3801.4446 459.94736 6763.9556 2300687
-3785.1042 462.85092 6806.6548 2300688
-3774.5386 466.53067 6860.769 2563604
-3742.3191 467.58508 6876.2754 2168846
-3720.4312 469.96777 6911.3149 2103053
-3693.9624 471.81842 6938.5308 1905930
-3655.7317 472.19156 6944.0176 1840137
-3624.4734 473.48398 6963.0239 2103052
-3636.6123 480.54065 7066.7993 1971723
-3598.5112 481.04572 7074.2266 2103309
-3538.2412 478.56427 7037.7344 2103307
-3478.7224 476.1264 7001.8838 2102794
-3381.2988 468.37909 6887.9521 2037001
-3262.0178 457.37778 6726.1675 2037001
-3180.8567 451.51526 6639.9536 2168584
-3076.0674 442.10995 6501.6396 2365449
0 0 0 0
0 0 0 0
0 0 0 0
0 0 0 0
0 0 0 0
0 0 0 0
0 0 0 0
0 0 0 0
-896.77551 145.26576 2136.2688 6
-879.75513 144.54933 2125.7329 11
-868.54034 144.77982 2129.1226 11
-859.93829 145.45906 2139.1113 10
-849.63507 145.86658 2145.1042 10
-838.16705 146.08344 2148.2935 11
-828.05524 146.54703 2155.1108 11
-817.14471 146.88156 2160.0305 11
-805.92285 147.16989 2164.2708 11
-796.2774 147.76009 2172.95 11
-781.36554 147.37633 2167.3066 11
-775.51947 148.71829 2187.0413 11
-765.06348 149.20679 2194.2253 8
-756.13721 150.01572 2206.1211 5
0 0 0 0
0 0 0 0
0 0 0 0
-2262.7229 482.27335 7092.2798 2826518
-2278.1809 494.75824 7275.8823 2760207
-2296.7517 508.41391 7476.7017 2562570
-2283.3872 515.39844 7579.416 2430983
-2277.0437 524.27991 7710.0259 2562569
-2250.9141 528.87616 7777.6177 2496776
-2222.28 533.06378 7839.2012 2693383
-2191.1196 536.81128 7894.3115 2956554
-2147.1187 537.50787 7904.5552 2890761
-2114.8699 541.24316 7959.4858 2825225
-2080.6575 544.63483 8009.3638 2824712
-2029.5272 543.65308 7994.9263 2956041
-1998.2653 548.07373 8059.9355 2825225
-1948.1486 547.4129 8050.2178 2956811
-1916.3196 551.98651 8117.4775 3022604
-1862.6888 550.35419 8093.4722 2956810
-1834.6993 556.41174 8182.5542 2825225
-1777.9423 553.83704 8144.6909 2891018
-1728.9625 553.60883 8141.335 2891018
-1680.4972 553.53705 8140.2793 3088140
-1642.9232 557.15448 8193.4766 2759432
-1595.7139 557.62512 8200.3984 2759432
-1562.934 563.32623 8284.2383 3219983
-1525.4537 567.64801 8347.7939 3154190
-1476.9553 568.02191 8353.293 2825225
-1451.6584 577.65442 8494.9473 3153676
-1404.2528 578.86517 8512.7529 3087881
-1367.5128 584.72662 8598.9512 3219211
-1335.7251 593.24139 8724.1689 3087881
-1296.6326 599.06689 8809.8379 3219211
-1256.7234 604.98798 8896.9131 3153418
-1209.1831 607.5932 8935.2256 3219468
-1162.0126 610.63141 8979.9053 3219467
-1115.7461 614.45905 9036.1943 3022603
-1072.7892 620.58722 9126.3145 3154189
-1028.4702 626.53625 9213.8008 2957067
-989.79352 636.78235 9364.4795 3220240
-931.44385 634.83734 9335.876 3352083
-902.63873 654.05475 9618.4863 3549976
-843.5918 652.47253 9595.2178 2432011
-792.52917 657.28333 9665.9648 3155989
-743.83405 664.96008 9778.8594 2893849
-676.51569 655.87915 9645.3154 4342845
-643.59497 681.54797 10022.8 8029315
-600.97534 701.12146 10310.646 7963783
-540.94501 702.51459 10331.134 7964555
-484.60251 709.66388 10436.271 8226442
-412.46338 692.38782 10182.21 7896959
-342.89499 674.24561 9915.4111 6843238
-281.40503 667.76941 9820.1729 4472883
-218.60397 653.9939 9617.5908 5788224
-159.36226 644.90546 9483.9375 6906447
-101.7203 635.91492 9351.7227 6511688
-45.21513 621.01453 9132.5986 6643015
9.0197182 628.90186 9248.5889 7301203
61.50013 605.95728 8911.168 6840395
108.6876 576.15485 8472.8955 5984314
157.21605 570.0498 8383.1152 5918264
206.16411 568.03284 8353.4531 5194541
247.64124 550.1983 8091.1797 5918264
299.12146 556.7691 8187.8101 4272928
343.7569 550.54352 8096.2563 5457203
394.58926 554.552 8155.2051 4931118
438.18134 548.62061 8067.978 2826770
501.96469 566.64948 8333.1094 5130037
548.93243 564.16632 8296.5928 5656893
598.52216 564.5647 8302.4512 6380616
636.2561 554.56885 8155.4536 5393721
684.25214 554.29761 8151.4644 5787966
727.65222 550.58453 8096.8594 3879968
785.97949 557.92688 8204.8359 3814176
846.26526 565.72296 8319.4844 3616799
886.38287 559.92059 8234.1553 3617059
940.82684 563.30139 8283.873 4208938
995.37732 566.40747 8329.5508 6315084
1054.7708 571.84564 8409.5244 6775375
1104.01 571.53644 8404.9766 5591101
1144.2563 566.79926 8335.3125 4669998
1189.5016 564.82782 8306.3213 5393208
1210.1864 551.81427 8114.9438 5787709
1211.3544 531.23633 7812.3267 4076836
1270.9901 536.87048 7895.1816 2958359
1369.0809 557.7713 8202.5479 2431502
1436.8217 565.29803 8313.2354 2299914
1456.1765 553.91998 8145.9111 3287064
1559.9088 574.33887 8446.1895 3221528
1549.276 552.68951 8127.8154 4801070
1570.7446 543.45221 7991.9727 4998450
1582.3 531.42633 7815.1201 6051138
1575.2241 514.00482 7558.9209 5656637
1586.1578 503.26099 7400.9229 4998705
1621.1309 500.51733 7360.5747 4801069
1672.4948 502.84549 7394.8125 5458998
1700.2257 498.13077 7325.4785 5590327
1801.2905 514.6012 7567.6914 4668456
1781.9214 496.70108 7304.4531 5129006
1824.9242 496.62357 7303.3135 3023630
1961.8253 521.5105 7669.2988 4010526
1971.8595 512.30914 7533.9844 4405798
2030.1678 515.77966 7585.022 4537642
2065.155 513.30328 7548.604 4735279
2118.0234 515.28204 7577.7041 4143400
2126.2095 506.53387 7449.0537 4340780
2130.1399 497.14841 7311.0317 4340782
0 0 0 0
0 0 0 0
0 0 0 0
0 0 0 0
0 0 0 0
0 0 0 0
0 0 0 0
0 0 0 0
3890.8223 767.56122 11287.704 3291454
4066.5981 788.67798 11598.246 5002843
4046.4624 771.729 11348.996 6648441
4145.0928 777.61475 11435.551 8885148
4327.6304 798.79871 11747.081 8425110
4591.0244 834.00024 12264.753 8096146
4486.2329 802.26288 11798.024 8293011
4453.4463 784.17828 11532.074 8095632
4451.9634 772.06915 11353.998 8095375
4593.9019 784.82288 11541.553 8095375
4683.1431 788.33148 11593.15 8226961
4667.5327 774.34375 11387.448 8161681
4693.6606 767.58057 11287.989 8358803
4730.0005 762.65393 11215.538 8424083
4809.4082 764.71173 11245.801 8029580
4831.1177 757.66449 11142.164 7568774
4828.769 747.08514 10986.585 7042430
4863.3379 742.42297 10918.023 8029585
4891.2695 736.8833 10836.558 8424601
5046.145 750.36389 11034.802 8227222
5137.7251 754.20789 11091.331 6252921
5245.5254 760.30573 11181.006 3357513
5192.4575 743.22552 10929.825 2040362
5302.8252 749.67139 11024.618 856091
5392.2686 753.03827 11074.131 263699
5224.7979 720.8772 10601.172 272
5240.8887 714.50586 10507.476 1300
5186.5552 698.79565 10276.442 1045
5058.291 673.60492 9905.9893 1300
5174.4058 681.16235 10017.128 787
5410.9688 704.22437 10356.277 785
5369.3652 690.97247 10161.396 785
5404.5908 687.79187 10114.622 528
5284.9941 665.19434 9782.3037 271
5486.3838 683.04968 10044.884 15
5619.0527 692.05792 10177.358 271
5488.52 668.80249 9835.3652 14
5839.2588 704.0647 10353.929 14
5721.3789 682.6778 10039.414 13
5837.1553 689.3241 10137.154 12
5896.2261 689.20673 10135.429 13
5985.3706 692.57153 10184.911 13
6224.1812 713.01422 10485.54 12
5767.4331 654.1604 9620.04 14
5836.2661 655.48828 9639.5674 14
5959.3804 662.82776 9747.501 14
6555.0225 722.07825 10618.835 14
5974.6211 651.88507 9586.5791 14
5743.8623 620.80408 9129.5039 13
5656.7056 605.67889 8907.0742 14
5653.9087 599.78265 8820.3643 14
5546.3857 582.98651 8573.3613 14
5576.3218 580.81262 8541.3916 14
5636.1274 581.76093 8555.3379 14
5561.5078 568.94061 8366.8037 14
5692.188 577.16351 8487.7285 14
5473.3125 550.10938 8089.8716 14
5726.0913 570.51819 8390.0029 16
5499.5122 543.22607 7988.647 16
5612.3452 549.63977 8082.9668 16
5727.2451 556.14575 8178.6426 16
5614.5435 540.62659 7950.4189 14
5746.5415 548.73193 8069.6157 786
5585.3481 528.93793 7778.5269 784
5422.3052 509.29431 7489.6484 66577
5543.8203 516.47992 7595.3203 132627
5405.9233 499.57684 7346.7446 132626
5400.4116 495.0802 7280.6167 198419
5061.8921 460.36853 6770.1489 197908
5285.8828 476.95956 7014.1357 132372
5112.1353 457.68271 6730.6514 66579
5324.9473 473.04449 6956.5615 66579
5387.9307 474.96252 6984.7676 66579
5370.6265 469.82761 6909.2534 66579
5872.3999 509.83624 7497.6182 66579
5472.8452 471.57916 6935.0122 787
5961.0044 509.81396 7497.2905 198167
5856.0479 497.13217 7310.793 16
5648.0591 475.95428 6999.3521 18
5902.543 493.77301 7261.3936 16
6005.4326 498.74405 7334.4971 16
5986.2686 493.58008 7258.5562 16
6096.0288 499.04407 7338.9092 16
6135.1128 498.68579 7333.6401 16
6258.2983 505.12051 7428.269 18
6355.0659 509.34802 7490.4385 18
7063.7705 562.22241 8268.0059 18
7216.0098 570.38306 8388.0156 18
7445.1572 584.4696 8595.1709 18
7558.7573 589.35541 8667.0215 18
7722.7773 598.08002 8795.3252 18
7566.6333 582.05914 8559.7236 17
7483.7295 571.84821 8409.5615 17
7734.8262 587.12512 8634.2236 16
7868.8887 593.37598 8726.1484 16
7835.5752 587.00616 8632.4746 18
7883.5557 586.76965 8628.9961 16
6370.1074 471.06876 6927.5063 16
6437.2744 472.98746 6955.7222 16
6485.4033 473.49179 6963.1392 16
8115.3765 588.74817 8658.0918 16
8171.0586 589.06342 8662.7275 16
8273.0117 592.68964 8716.0547 16
8335.9883 593.49579 8727.9102 16
0 0 0 0
0 0 0 0
0 0 0 0
0 0 0 0
0 0 0 0
-5049.7983 412.1637 5575.3569 2761237
-5035.1323 413.67334 5595.7778 2761239
-5019.7446 415.14328 5615.6621 2761239
-5054.5371 420.81058 5692.3237 2958875
-4951.6206 415.01215 5613.8882 2629910
-4939.3818 416.78668 5637.8921 2498324
-4896.4546 415.97821 5626.9565 2300945
-4812.7539 411.67108 5568.6934 2432275
-4791.561 412.68811 5582.4507 2564118
-4738.998 410.99872 5559.5981 1905931
-4657.5288 406.76105 5502.2754 2564118
-4614.1299 405.81198 5489.437 3682086
-4627.4097 409.86969 5544.3257 2629653
-4662.4414 415.92587 5626.248 2827288
-4663.2056 418.99033 5667.7012 2695188
-4750.4819 429.9288 5815.6665 3484960
-4573.9648 416.97888 5640.4922 2629651
-4603.7544 422.7843 5719.0225 2827030
-4588.3809 424.49756 5742.1978 2695444
-4544.7842 423.60587 5730.1357 2696215
-4467.1489 419.50418 5674.6519 2630165
-4512.6489 426.99149 5775.9331 2630165
-4509.8755 429.99057 5816.502 2695957
-4424.7837 425.12689 5750.7109 3090716
-4419.1792 427.88403 5788.0068 2959131
-4474.834 436.66205 5906.7476 3485218
-4447.5405 437.42047 5917.0063 3682854
-4452.2642 441.36487 5970.3623 3419682
-4448.7285 444.54715 6013.4092 3288095
-4438.5005 447.10663 6048.0317 3353633
-4350.0073 441.75974 5975.7041 3222304
-4302.4609 440.51743 5958.8989 2893339
-4302.6636 444.18393 6008.4961 2564373
-4265.1704 443.98767 6005.8413 2630166
-4271.5942 448.39813 6065.502 2762008
-4201.0718 444.73773 6015.9873 2761752
-4166.7432 444.87903 6017.8989 2761495
-4141.0166 445.94913 6032.374 2827288
-4106.2407 446.0549 6033.8047 2827288
-4102.145 449.52444 6080.7373 2958363
-4067.791 449.71036 6083.2524 2695446
-4050.6946 451.82458 6111.8516 2563860
-4009.2561 451.2373 6103.9072 2694933
-4031.0969 457.82608 6193.0342 2629138
-3950.2219 452.763 6124.5459 2497552
-4032.6719 466.49951 6310.3599 2431759
-3984.0618 465.19016 6292.6484 2629138
-3909.4226 460.78812 6233.1021 2431759
-3917.8154 466.18219 6306.0674 2365966
-3881.2493 466.2789 6307.3755 2234380
-3853.6221 467.46179 6323.3765 2365966
-3816.354 467.48697 6323.7173 2629138
-3761.6416 465.35464 6294.873 2760724
-3745.7285 468.0275 6331.0293 2629139
-3731.1084 470.91763 6370.1245 2563858
-3702.4363 472.0752 6385.7827 2432274
-3687.1973 474.98715 6425.1724 2761239
-3726.1902 485.01892 6560.873 2300431
-3643.9736 479.31876 6483.7661 2366481
-3623.6887 481.7301 6516.3848 2695446
-3613.5955 485.56299 6568.2324 2103309
-3591.2322 487.81259 6598.6631 2300688
-3559.3933 488.81042 6612.1606 2366481
-3529.1963 490.05847 6629.0435 2234895
-3469.8889 487.24695 6591.0117 2695446
-3395.9744 482.29684 6524.0513 2300688
-3471.9229 498.76144 6746.7686 2366481
-3411.8813 495.84631 6707.3354 2169102
-3375.3635 496.32147 6713.7632 2563601
-3343.0696 497.43637 6728.8447 2234379
-3258.6929 490.73505 6638.1948 2168587
-3158.304 481.42905 6512.3125 3352604
-3137.1641 484.12244 6548.7466 2628622
-3090.8813 482.95474 6532.9507 2365450
0 0 0 0
0 0 0 0
0 0 0 0
0 0 0 0
0 0 0 0
0 0 0 0
0 0 0 0
0 0 0 0
-898.66449 158.25842 2140.7688 9
-876.87689 156.63275 2118.7783 11
-864.65961 156.6942 2119.6094 11
-854.17169 157.07545 2124.7668 12
-843.61377 157.45508 2129.9019 12
-840.05066 159.1716 2153.1213 12
-830.71729 159.83086 2162.0393 12
-818.92108 160.02948 2164.7261 12
-809.31952 160.67015 2173.3923 12
-798.64734 161.11554 2179.4172 12
-789.34894 161.85725 2189.4504 12
-778.33655 162.26645 2194.9856 11
-767.19171 162.66147 2200.3291 8
-754.40125 162.71523 2201.0562 5
-738.37952 162.06165 2192.2153 2301470
0 0 0 0
0 0 0 0
-2189.8718 507.42313 6863.9355 2694417
-2188.2852 516.65234 6988.7798 2562828
-2185.0552 525.84222 7113.0913 2497034
-2237.0422 548.94318 7425.5796 2365191
-2182.7327 546.36401 7390.6909 2102018
-2155.946 550.70959 7449.4731 2299397
-2127.5774 554.82428 7505.1328 2365190
-2134.2832 568.4566 7689.5381 2233605
-2076.8445 565.22638 7645.8428 1904640
-2033.1979 565.68939 7652.1064 2496517
-1967.3856 559.86578 7573.3301 2825225
-1945.045 566.43005 7662.125 2890762
-1910.4871 569.6651 7705.8853 3088140
-1858.0851 567.6076 7678.0537 2890762
-1842.8595 577.08856 7806.3032 2891018
-1776.7142 570.70172 7719.9082 2956811
-1747.8698 576.27545 7795.3042 3088397
-1693.1088 573.37512 7756.0713 2956811
-1642.9089 571.90063 7736.126 2825225
-1592.5258 570.27588 7714.1475 2825225
-1552.7368 572.461 7743.7056 2891018
-1525.5188 579.55493 7839.6655 2956811
-1504.0271 589.33832 7972.0059 3088397
-1454.2783 588.32489 7958.2979 2956811
-1411.3606 590.09979 7982.3062 3022604
-1381.011 597.43463 8081.5254 3022604
-1345.8463 603.13873 8158.6851 3087881
-1318.4604 612.88403 8290.5098 3219211
-1272.4961 614.41315 8311.1943 3285004
-1245.9877 625.83777 8465.7354 3022089
-1200.5973 628.33905 8499.5713 2956809
-1152.2753 629.45801 8514.707 3088395
-1100.697 628.81921 8506.0654 3088395
-1054.4266 631.29688 8539.5811 3088395
-1027.3748 646.11078 8739.9697 3285775
-977.44171 647.34381 8756.6494 3154189
-936.86078 655.25623 8863.6807 3220240
-880.06323 652.09271 8820.8877 3615255
-844.39813 665.17682 8997.877 3878941
-804.26428 676.26721 9147.8965 4010786
-757.89307 683.33698 9243.5303 3090201
-714.89246 694.78424 9398.3779 2301457
-652.2796 687.49469 9299.7725 2829086
-610.5188 702.86603 9507.7002 7633785
-571.97705 725.44562 9813.1357 8094854
-517.43756 730.5498 9882.1807 8029578
-463.54688 737.98987 9982.8223 8161164
-404.26517 737.76831 9979.8252 8160907
-343.37802 734.03894 9929.3779 8160388
-277.728 716.47986 9691.8555 7566959
-215.08821 699.55499 9462.9121 5197118
-159.42841 701.40033 9487.874 6051395
-97.489853 662.58319 8962.793 6709069
-44.032734 657.48114 8893.7773 6445638
8.6978254 659.31091 8918.5283 6840395
58.822823 630.08844 8523.2354 6774600
107.98605 622.3241 8418.2061 6116157
152.46216 600.9906 8129.6274 5918777
197.52464 591.65875 8003.395 5918264
240.44083 580.75665 7855.9209 5852469
289.5173 585.85724 7924.9175 4865577
339.29828 590.76062 7991.2456 6512199
388.54337 593.64417 8030.251 4998705
431.68365 587.58875 7948.3398 4472105
476.43771 584.70538 7909.3364 5788222
520.96045 582.08002 7873.8228 6051651
565.45471 579.85712 7843.7534 5854273
603.22253 571.59814 7732.0337 4866863
644.28326 567.40527 7675.3169 4406055
706.93402 581.52539 7866.3198 4998704
743.35175 573.65405 7759.8447 4998193
799.30707 580.89893 7857.8467 5064243
850.50909 584.08191 7900.9019 4801074
909.77411 592.18091 8010.4575 4998965
937.01312 579.66431 7841.1455 6577997
1000.0705 589.44196 7973.4082 4933171
1030.7727 580.1275 7847.4106 6248516
1073.4396 578.06042 7819.4497 4208934
1118.0171 577.1507 7807.1436 4011298
1151.9165 571.02002 7724.2134 3419162
1169.8756 557.75818 7544.8198 3090455
1229.8644 564.77338 7639.7153 4209709
1315.92 582.83575 7884.0459 2630421
1377.8301 589.33185 7971.9185 4406573
1429.2378 591.05402 7995.2148 4604462
1432.8323 573.52728 7758.1294 7170391
1457.3954 565.22253 7645.791 5262393
1450.9648 545.7608 7382.5312 5459513
1474.9502 538.54401 7284.9097 5393207
1513.1544 536.78174 7261.0713 4932656
1527.3015 526.81885 7126.3027 4142882
1544.5614 518.43689 7012.9194 3682331
1609.1321 525.95807 7114.6592 4734503
1650.4918 525.70227 7111.1987 4471844
1676.6139 520.72656 7043.8921 5129005
1724.3995 522.55756 7068.6597 4076317
1755.1786 519.27026 7024.1924 4406053
1795.1526 518.7926 7017.731 5524534
1862.7484 526.13843 7117.0981 5919293
1911.2632 527.88879 7140.7754 4208677
1950.7339 527.11945 7130.3687 3945248
1993.4303 527.2359 7131.9443 4339748
2028.8416 525.46069 7107.9307 4339749
2065.554 524.08783 7089.3599 4339237
2068.3853 514.34454 6957.562 4536615
2095.0605 510.7955 6909.5537 4273700
2107.3015 503.93079 6816.6943 4010785
0 0 0 0
0 0 0 0
0 0 0 0
0 0 0 0
0 0 0 0
0 0 0 0
0 0 0 0
3991.6238 827.61548 11195.192 1644828
4091.2512 834.40332 11287.012 2236967
4135.0503 829.76984 11224.334 1909031
4047.5989 799.36243 10813.012 2239025
4198.4092 816.22382 11041.097 6319220
4285.4131 820.35339 11096.957 8227475
4388.7441 827.43634 11192.769 8819613
4453.8271 827.20453 11189.634 8622490
4491.811 822.02039 11119.507 8556696
4587.8906 827.46411 11193.145 8359317
4614.4351 820.39014 11097.455 7898252
4610.8511 808.23401 10933.018 7634567
4758.2319 822.51031 11126.135 7766153
4773.9424 813.94696 11010.298 8029326
4836.1816 813.44073 11003.449 8160912
4871.6826 808.51038 10936.757 8293269
4883.0591 799.7583 10818.367 8424857
5088.3906 822.58795 11127.184 8556443
4938.2412 788.10144 10660.685 8424604
4723.6621 744.33386 10068.638 8095638
4636.9375 721.55353 9760.4873 8226968
4405.062 677.02594 9158.1611 8358554
4256.6055 646.24719 8741.8145 8424343
4478.3921 671.74365 9086.707 8753308
4985.9917 738.99597 9996.4316 8358807
5149.8789 754.32391 10203.773 5727087
5465.1826 791.21722 10702.832 3160389
5194.0864 743.34247 10055.228 1316891
5154.5522 729.31757 9865.5117 461072
5516.7915 771.81647 10440.396 269
5117.6304 708.03186 9577.5791 789
5228.7314 715.46777 9678.165 1043
5316.9946 719.65118 9734.7539 786
5341.5825 715.21881 9674.7979 785
5382.2314 713.00848 9644.8975 270
5503.437 721.40393 9758.4639 271
5326.1367 690.90289 9345.875 14
5276.7075 677.44629 9163.8467 271
5336.0044 678.08044 9172.4248 14
5520.5073 694.45203 9393.8838 14
5437.7979 677.21838 9160.7637 14
5818.6626 717.48785 9705.4902 14
6066.6177 740.74048 10020.03 14
5834.4712 705.48981 9543.1924 14
6189.0806 741.18378 10026.026 14
6028.6245 715.10303 9673.2305 14
5611.3511 659.33734 8918.8857 13
5512.3359 641.65887 8679.749 13
5491.4731 633.32068 8566.957 13
5528.5703 631.75824 8545.8223 13
5517.9604 624.8222 8451.998 14
5466.3667 613.4118 8297.6494 14
5432.5454 604.18158 8172.7915 14
5380.0151 593.05206 8022.2417 14
5499.2705 600.888 8128.2393 14
5560.6323 602.31696 8147.5684 16
5463.189 586.66791 7935.8833 16
5579.0508 593.9964 8035.0161 16
5621.8418 593.48688 8028.124 16
5597.3535 585.94299 7926.0776 15
5395.6748 560.13037 7576.9092 786
5386.4126 554.55389 7501.4756 66579
5379.6543 549.3244 7430.7358 66579
5372.5034 544.14008 7360.6074 198165
5294.394 531.91028 7195.1743 198165
5309.2612 529.14233 7157.7319 198165
5222.3882 516.35876 6984.8081 198165
5260.5859 516.04523 6980.5674 198165
5243.1367 510.3205 6903.1284 198166
5448.6191 526.2146 7118.1284 132372
5308.1553 508.71039 6881.3486 132372
5547.0576 527.5528 7136.2305 132373
5648.0747 533.0957 7211.2095 132372
5767.9272 540.31982 7308.9307 197908
5890.1113 547.65302 7408.1265 66582
5788.771 534.24847 7226.8032 16
5682.0757 520.55023 7041.5068 18
5881.6265 534.90332 7235.6616 16
6071.8745 548.20868 7415.6436 17
6083.4937 545.31091 7376.4453 17
6019.6733 535.74054 7246.9858 16
6219.168 549.57428 7434.1162 16
6144.4092 539.14868 7293.0889 16
6186.7515 539.07214 7292.0537 16
6959.0195 602.15643 8145.397 16
7087.228 609.02563 8238.3174 16
7291.0586 622.25482 8417.2695 16
7455.5557 631.97015 8548.6885 16
7653.9453 644.40784 8716.9336 16
7545.4805 631.01691 8535.7949 16
7670.4614 637.19714 8619.3945 18
7727.5205 637.69049 8626.0684 18
7738.5552 634.4043 8581.6162 18
7738.5327 630.2605 8525.5625 18
6290.8154 509.02856 6885.6523 18
6289.1094 505.61084 6839.4209 18
6260.0747 500.05386 6764.2515 18
6291.8569 499.39478 6755.3354 19
8010.9751 631.82379 8546.709 19
8096.5347 634.55981 8583.7197 18
8156.9741 635.30524 8593.8027 18
8213.2568 635.7196 8599.4082 18
0 0 0 0
0 0 0 0
0 0 0 0
0 0 0 0
0 0 0 0
-4784.9141 421.8515 5282.9048 2432274
-4784.3062 424.5759 5317.0229 2366225
-4765.9814 425.75378 5331.7734 2366225
-4823.1626 433.73746 5431.7544 2432532
-4680.3447 423.72202 5306.3296 2366739
-4683.6294 426.8876 5345.9722 2432532
-4705.6685 431.81729 5407.7075 2498325
-4633.0366 428.06747 5360.748 2300689
-4609.2988 428.81464 5370.105 2235153
-4537.3008 425.05115 5322.9746 2366739
-4515.644 425.98404 5334.6567 2827032
-4485.1328 426.08881 5335.9692 2892825
-4494.937 430.05225 5385.6035 2827032
-4538.3013 437.30621 5476.4463 2827286
-4564.2886 442.97818 5547.4771 2695444
-4470.0474 436.97925 5472.3516 2695444
-4435.4189 436.76279 5469.6411 2629651
-4441.6128 440.59256 5517.6016 2695189
-4417.3325 441.43381 5528.1367 2827545
-4395.4834 442.53238 5541.8945 2761753
-4362.6035 442.52863 5541.8472 2959132
-4358.6201 445.47818 5578.7847 3287837
-4299.0083 442.74377 5544.5415 3287837
-4280.3735 444.21988 5563.0269 3353887
-4297.9927 449.51059 5629.2832 3288096
-4297.895 453.0166 5673.1895 3156509
-4268.0308 453.41559 5678.1865 3090974
-4260.1577 456.17581 5712.7529 3090974
-4271.729 461.07901 5774.1562 3419682
-4221.3501 459.32065 5752.1362 3485475
-4146.5713 454.85715 5696.2393 3288097
-4134.2744 457.23056 5725.9614 3024924
-4115.7295 458.9465 5747.4507 2827545
-4092.6279 460.17874 5762.8823 2695959
-4082.8462 462.94202 5797.4868 3221790
-3998.2209 457.19388 5725.5024 2958618
-3987.2236 459.83878 5758.6245 3155997
-3898.2432 453.45795 5678.7168 2958618
-3940.2715 462.3382 5789.9253 2827032
-3932.8313 465.51901 5829.7588 2958362
-3914.4282 467.44696 5853.9033 2892825
-3860.9287 465.18088 5825.5249 2498067
-3824.5706 464.95786 5822.7319 2497554
-3889.3694 477.1405 5975.2964 2300174
-3791.9602 469.46478 5879.1724 2299918
-3854.7903 481.6691 6032.0088 2300174
-3871.4558 488.27954 6114.7925 2431760
-3664.167 466.5022 5842.0718 2234380
-3767.4104 484.22186 6063.9771 2497552
-3661.9165 475.19559 5950.9399 2563345
-3660.2598 479.59946 6006.0903 2827028
-3667.3188 485.24301 6076.7656 2958614
-3619.1863 483.62341 6056.4829 3353116
-3590.5286 484.59973 6068.71 2958613
-3560.7974 485.44958 6079.3525 2432272
-3572.2146 491.98395 6161.1831 2827030
-3530.21 491.2197 6151.6123 2695444
-3544.4275 498.34433 6240.835 2498065
-3531.6975 501.79044 6283.9912 2497808
-3500.5457 502.66473 6294.9399 2563861
-3510.1331 509.47086 6380.1743 2432274
-3471.3213 509.32391 6378.334 2431503
-3423.126 507.7818 6359.0215 2497551
-3412.0012 511.76556 6408.9111 2563345
-3374.0205 511.76556 6408.9111 2826261
-3366.0298 516.36615 6466.5249 2694930
-3320.9136 515.31189 6453.3218 2694927
-3282.3633 515.26373 6452.7188 2826770
-3274.988 520.16602 6514.1108 2497806
-3221.8872 517.83606 6484.9321 2366220
-3177.0347 516.7915 6471.8516 2168841
-3135.3906 516.24969 6465.0664 2629135
-3010.7788 501.86472 6284.9209 2759949
-2895.8816 488.75888 6120.7949 2694412
0 0 0 0
0 0 0 0
0 0 0 0
0 0 0 0
0 0 0 0
0 0 0 0
0 0 0 0
0 0 0 0
-886.46771 168.62497 2111.7139 8
-878.73834 169.54825 2123.2761 11
-872.54395 170.7988 2138.937 12
-861.74017 171.17065 2143.5938 12
-851.51758 171.67078 2149.8569 12
-843.65295 172.66872 2162.3542 11
-833.29401 173.17906 2168.7454 11
-821.07794 173.31339 2170.4275 65803
-810.17621 173.73384 2175.6929 131596
-798.55652 174.01143 2179.1692 263181
-785.44269 173.96722 2178.6157 394765
-772.9176 174.05412 2179.7039 394767
-767.23944 175.71202 2200.4661 657679
-746.64203 173.95142 2178.4177 1183249
-729.11371 172.85648 2164.7056 2169881
0 0 0 0
-2102.3933 516.60931 6469.5698 2168587
-2105.7139 527.0365 6600.1514 2431243
-2105.9216 537.06458 6725.7339 2562570
-2132.5383 554.34442 6942.1318 2496776
-2091.7029 554.42523 6943.1445 2299397
-2081.9131 562.90338 7049.3169 2365190
-2062.8059 569.15808 7127.645 2233604
-2045.5499 576.19556 7215.7769 2430467
-2060.668 592.84753 7424.312 2890760
-2004.0815 589.14691 7377.9683 2824968
-1929.7312 579.94257 7262.7012 2693382
-1888.9543 580.63831 7271.4141 2891018
-1859.2057 584.83563 7323.9775 2956810
-1817.9196 585.51758 7332.5176 3022860
-1772.7017 584.93561 7325.229 3153933
-1746.5049 590.75824 7398.1475 3153677
-1704.5208 591.4032 7406.2241 3153677
-1651.7678 588.24719 7366.7007 3285004
-1609.4591 588.74023 7372.875 3153675
-1573.8793 591.79089 7411.0791 3153677
-1519.592 587.7807 7360.8594 2693639
-1509.3503 601.07385 7527.3311 2693639
-1476.8492 606.04236 7589.5522 2825225
-1446.7554 612.34174 7668.4404 3088397
-1410.5284 616.36981 7718.8843 3088397
-1360.7341 614.54047 7695.9751 2891017
-1329.0673 621.05493 7777.5566 2891017
-1286.399 622.71204 7798.3091 2956295
-1257.4813 631.39697 7907.0713 3022088
-1220.6791 636.64197 7972.7559 3285004
-1175.9236 637.99438 7989.6924 3022089
-1140.093 644.50568 8071.2339 3022601
-1088.8879 642.51532 8046.3081 3154188
-1063.7804 656.44708 8220.7773 3154187
-1004.8947 649.87158 8138.4321 3088396
-974.15381 661.7522 8287.2139 3154190
-917.77386 656.55273 8222.1006 3351569
-886.37646 669.64417 8386.0469 3022861
-850.12439 680.40527 8520.8096 2957325
-792.51904 674.35608 8445.0547 3155218
-756.90088 687.46136 8609.1738 3352855
-714.28192 695.64301 8711.6338 3616541
-656.4375 689.11603 8629.8955 3155734
-628.44568 715.47272 8959.9639 3287835
-582.96698 724.94855 9078.6309 3684138
-548.14117 750.9455 9404.1943 7370869
-490.41354 747.901 9366.0674 7701125
-440.81119 758.05219 9493.1924 7700867
-391.11124 770.98114 9655.1035 8029063
-333.17487 769.32288 9634.3369 8094340
-274.08627 763.76788 9564.7705 8093822
-214.49869 753.56317 9436.9766 8026996
-153.75078 730.64648 9149.9873 5262656
-94.99646 697.39398 8733.5615 4208936
-42.784615 690.05713 8641.6807 6906191
8.3887672 686.85883 8601.6279 7103570
57.831711 669.13147 8379.626 6445636
102.2111 636.26318 7968.0117 5918520
145.95128 621.4458 7782.4521 5655349
190.66069 616.88037 7725.2783 6050107
235.29308 613.88196 7687.7285 6247485
283.54044 619.75787 7761.3135 6050107
324.50006 610.28748 7642.7144 6181694
371.76038 613.53528 7683.3872 6445380
412.06497 605.84753 7587.1123 6445892
439.76865 582.96838 7300.5933 5985598
488.06296 589.03833 7376.6084 5854270
533.49524 590.94006 7400.4243 5722685
562.68542 575.92865 7212.4341 6314821
603.8728 574.44934 7193.9087 6314820
651.80249 579.15607 7252.8511 6183235
688.98291 574.32001 7192.2891 6051649
722.74988 567.36786 7105.2261 5656634
779.85815 578.49573 7244.582 4537899
848.02252 596.23566 7466.7417 4274727
892.10437 596.1236 7465.3389 4669485
931.06207 592.75989 7423.2144 5130037
994.51746 604.59247 7571.395 3287064
1006.0368 585.19318 7328.4551 3089944
1033.6852 576.39319 7218.2515 4274477
1059.1003 567.0968 7101.8315 3814699
1107.5277 570.36206 7142.7231 3682850
1155.7355 573.27795 7179.2388 5591359
1274.5455 609.7641 7636.1602 3946793
1356.7054 626.81537 7849.6953 5196861
1359.1884 607.14453 7603.355 6512721
1388.0742 600.15186 7515.7847 5985862
1373.2411 575.27917 7204.3008 5722430
1407.3344 571.78467 7160.5386 5459514
1449.2244 571.56976 7157.8477 5393207
1435.3616 550.00366 6887.772 4669483
1500.4542 559.04791 7001.0347 3155989
1477.9851 535.85901 6710.6362 3419418
1514.1447 534.58478 6694.6792 4405285
1538.6447 529.3642 6629.3008 2958609
1573.865 528.00006 6612.2178 6379844
1638.9385 536.474 6718.3384 6380355
1693.4093 541.15765 6776.9927 5590582
1703.8611 531.8833 6660.8481 5195569
1755.5819 535.61987 6707.6416 4602661
1794.2308 535.29108 6703.5244 3944730
1835.8959 535.85693 6710.6104 3878940
1923.093 549.4068 6880.2969 3023632
1954.7745 546.8631 6848.4419 3878940
1985.7096 544.21826 6815.3203 4273441
2004.9353 538.53369 6744.1318 3878685
1988.6631 523.72278 6558.6528 3878939
2002.6431 517.29407 6478.145 4603178
0 0 0 0
0 0 0 0
0 0 0 0
0 0 0 0
0 0 0 0
0 0 0 0
0 0 0 0
0 0 0 0
3773.5703 831.30829 10410.589 1710618
3769.0068 816.94635 10230.732 1447706
3715.0349 792.49933 9924.5791 789777
3706.7485 778.40826 9748.1143 460812
4339.231 897.24451 11236.317 1250329
4305.8867 876.89319 10981.454 1579294
4368.2891 876.35626 10974.731 1185310
4281.9326 846.42938 10599.952 5660261
4486.8027 874.10352 10946.52 7173759
4576.7188 878.91315 11006.751 7700360
4330.9341 820.02539 10269.292 8226705
4627.0972 863.96106 10819.504 8029839
4743.9253 873.66827 10941.069 8293012
4793.5327 870.901 10906.414 7438216
4839.8901 867.62463 10865.384 7700621
4766.1753 843.19226 10559.413 7569289
4981.4331 869.85309 10893.291 7437705
4799.5952 827.37854 10361.376 7306119
4991.7266 849.62933 10640.025 7503499
5026.8228 844.92987 10581.174 7766670
5056.7793 839.49304 10513.087 7898513
4975.895 816.01129 10219.022 7964562
5022.291 813.71649 10190.284 7964305
4965.2896 794.92261 9954.9258 7832976
4883.084 772.5824 9675.1562 7832976
4979.9336 778.76135 9752.5361 7766927
5076.0474 784.68481 9826.7168 7635084
5038.3091 770.01691 9643.0283 8160913
4742.6479 716.70123 8975.3486 8226706
0 0 0 0
0 0 0 0
5112.0757 747.38232 9359.5723 2041140
5017.1206 725.62677 9087.125 263177
5097.1987 729.37958 9134.1211 7
5378.1392 761.49365 9536.291 15
5596.4634 784.16614 9820.2217 1046
5340.6421 740.61945 9274.8799 274
5261.2935 722.18311 9043.999 273
5354.9702 727.62909 9112.2002 530
5355.4189 720.42523 9021.9844 273
5406.02 720.04358 9017.2051 272
5555.6538 732.73077 9176.0889 15
5469.6421 714.39417 8946.457 272
5480.7715 708.97552 8878.5986 15
5517.5737 706.94928 8853.2236 14
5384.2729 683.37177 8557.959 16
5484.6343 689.61395 8636.1309 16
5408.9346 673.80811 8438.1924 16
5407.4795 667.45612 8358.6455 15
5399.8257 660.4613 8271.0479 15
5353.7466 648.93463 8126.6987 15
5346.0044 642.21906 8042.5981 15
5316.7896 633.06537 7927.9653 16
5360.9331 632.73029 7923.769 15
5308.8911 621.14709 7778.7114 16
5467.1382 634.15576 7941.6201 16
5487.5366 631.08905 7903.2158 16
5492.4355 626.30701 7843.3291 16
5502.5439 622.19415 7791.8232 15
5326.1313 597.23462 7479.2524 786
5347.8403 594.71979 7447.7578 132372
5407.9243 596.47864 7469.7847 132372
5343.4062 584.57739 7320.7432 198165
5344.9956 580.04175 7263.9429 263959
5309.957 571.63544 7158.6699 329752
5257.3174 561.48267 7031.5249 263701
5240.5298 555.28839 6953.9536 263958
5245.8838 551.51874 6906.7451 263958
5266.8154 549.43237 6880.6177 198165
5281.6821 546.75031 6847.0298 263958
5327.6582 547.30493 6853.9756 263958
5230.3906 533.24725 6677.9292 198165
5250.2134 531.24866 6652.9004 198165
5848.0747 587.33331 7355.2563 197910
5565.7241 554.84076 6948.3477 16
5587.9736 552.96771 6924.8911 18
5816.2866 571.36469 7155.2793 16
6012.2295 586.3385 7342.7979 16
5933.9448 574.54541 7195.1118 16
5943.3496 571.35046 7155.1011 16
6053.5122 577.81824 7236.0981 16
6243.4907 591.76007 7410.6934 16
6336.6655 596.39612 7468.7515 16
6926.9893 647.43408 8107.9062 16
7048.5781 654.26007 8193.3896 16
7188.0825 662.64435 8298.3867 16
7356.8184 673.59106 8435.4736 17
7443.7031 676.94629 8477.4922 18
7461.5596 674.02112 8440.8594 18
7329.939 657.72211 8236.7451 18
7477.3135 666.50763 8346.7676 18
7609.8921 673.86749 8438.9355 18
7662.9932 674.13928 8442.3398 18
6177.188 539.90308 6761.2808 17
6217.5894 539.93201 6761.6431 17
6199.0015 534.87067 6698.2593 17
6262.8799 536.94397 6724.2241 18
7879.5161 671.27411 8406.459 18
7971.7568 674.86548 8451.4336 18
8047.0308 676.98456 8477.9717 18
8141.6562 680.69531 8524.4414 18
0 0 0 0
0 0 0 0
0 0 0 0
0 0 0 0
0 0 0 0
-4531.1343 429.12473 5002.7134 2827545
-4642.8262 442.59854 5159.79 3025181
-4587.1143 440.18668 5131.6724 2827288
-4616.0596 445.92059 5198.5186 2695959
-4579.4038 445.35187 5191.8882 2959131
-4585.375 448.94897 5233.8232 3419683
-4512.1108 444.78442 5185.2729 2959131
-4489.8999 445.62985 5195.1289 3156510
-4481.0137 447.8186 5220.6455 3090717
-4426.8223 445.47864 5193.3662 3024923
-4390.2549 444.89178 5186.5249 2695700
-4429.6533 452.04913 5269.9648 2695443
-4425.6792 454.85052 5302.623 2958359
-4382.0283 453.5849 5287.8687 3024409
-4428.2451 461.67038 5382.1284 2958870
-4358.208 457.66507 5335.4346 3090456
-4288.5811 453.64459 5288.5645 3155993
-4239.5391 451.75842 5266.5757 2893333
-4303.3662 461.96063 5385.5122 3222041
-4190.3887 453.19373 5283.3081 3419421
-4175.6016 454.99411 5304.2969 3353371
-4184.9673 459.47363 5356.519 3221785
-4127.9292 456.67529 5323.896 2827283
-4126.7183 460.05762 5363.3271 2827284
-4115.1855 462.33282 5389.8516 3221788
-4045.0317 458.0062 5339.4116 3353374
-4105.5229 468.52048 5461.9868 2958616
-4151.5767 477.54111 5567.1489 3419167
-4085.3997 473.69342 5522.2925 3551010
-4074.8638 476.28711 5552.5298 3090715
-4073.4841 480.00198 5595.8374 3551265
-4071.1436 483.66367 5638.5254 3550752
-3976.6738 476.35022 5553.2651 3155995
-3953.5378 477.53073 5567.0278 2563858
-3987.0845 485.63516 5661.5088 2629651
-3871.7124 475.58469 5544.3408 2760724
-3815.1973 472.65375 5510.1719 3089689
-3864.1641 482.85284 5629.0728 3221275
-3816.8296 481.09128 5608.5366 3550240
-3746.043 476.31683 5552.8765 3484447
-3723.6494 477.66556 5568.5996 2958103
-3762.8601 487.01163 5677.5552 2958103
-3719.2065 485.70474 5662.3198 2629138
-3729.2507 491.4505 5729.3037 2563345
-3717.4565 494.39749 5763.6597 2431758
-3746.052 502.8205 5861.8545 2431502
-3661.6345 496.08987 5783.3892 2497295
-3640.4976 497.88651 5804.334 2365709
-3654.2327 504.53204 5881.8076 2497295
-3535.0813 492.78162 5744.8218 2628881
-3526.2031 496.32391 5786.1177 2563346
-3496.3958 496.96103 5793.5449 2694929
-3482.3174 499.86859 5827.4414 2826259
-3454.2542 500.80682 5838.3794 2563089
-3445.564 504.60123 5882.6143 2366479
-3422.6621 506.37067 5903.2422 2497808
-3409.6882 509.66058 5941.5957 2563858
