# .PCD v0.7 - Point Cloud Data file format
VERSION 0.7
FIELDS x y z rgb
SIZE 4 4 4 4
TYPE F F F U
COUNT 1 1 1 1
WIDTH 1350
HEIGHT 1
VIEWPOINT 0 0 0 1 0 0 0
POINTS 1350
DATA ascii
-2369.5637 963.31494 2779.8748 3222042
-2337.4541 956.914 2761.4033 3222299
-2340.0833 964.74463 2784.0005 3617057
-2315.0046 961.18225 2773.7202 3946022
-2300.6707 962.06189 2776.2588 4011815
-2278.3987 959.6109 2769.1858 3880229
-2146.5203 910.62579 2627.8276 3287835
-2196.584 938.6745 2708.7688 2892820
-2187.4897 941.66998 2717.4131 3155479
-2170.0071 941.07208 2715.6877 3221273
-2140.9116 935.39148 2699.2949 2892564
-2136.1655 940.34399 2713.5867 2695441
-2101.2417 931.98657 2689.4692 2235147
-2077.7034 928.58984 2679.6672 2168587
-2073.2937 933.75592 2694.5752 2366479
-2044.5852 927.97375 2677.8894 2103307
-2051.5579 938.42236 2708.0413 2498065
-2045.7886 943.16125 2721.7166 2103050
-2043.5856 949.63269 2740.3914 2036999
-2039.4373 955.29669 2756.7361 3418651
-2016.948 952.39166 2748.3528 3616285
-2004.5682 954.25183 2753.7209 2695183
-1987.601 953.9408 2752.8232 2892820
-1984.9037 960.52997 2771.8381 2629135
-1962.1211 957.42847 2762.8879 1773569
-1933.4734 951.38879 2745.459 1773315
-1918.9008 952.23114 2747.8899 2233607
-1902.4026 952.12433 2747.5815 2431243
-1897.6825 957.96124 2764.4253 2233864
-1877.6827 956.11932 2759.1101 2168584
-1861.7915 956.35553 2759.7917 2300427
-1843.6868 955.44891 2757.1753 2694157
-1816.6323 949.8465 2741.0083 1970435
-1798.64 948.92395 2738.3462 2036483
-1776.3896 945.71777 2729.094 2694413
-1762.7455 947.07654 2733.0149 2036483
-1754.2756 951.26642 2745.1057 1970690
-1748.3879 956.94788 2761.501 2233861
-1728.2329 954.854 2755.4585 2497034
-1718.6104 958.59491 2766.2539 2562571
-1711.4763 963.80933 2781.3013 2431500
-1691.8105 961.99933 2776.0781 2168841
-1699.2368 975.71008 2815.6438 2168842
-1686.3881 977.93536 2822.0654 1840135
-1670.7764 978.58691 2823.9456 1905927
-1643.7767 972.51416 2806.4214 2366479
-1622.4944 969.73444 2798.3997 2629651
-1601.7058 967.19543 2791.0728 1774342
-1581.3821 964.88715 2784.4116 2169100
-1562.7563 963.57697 2780.6309 2629651
-1540.6938 960.09735 2770.5896 2629649
-1515.9758 954.87012 2755.5051 2498575
-1513.7422 963.84552 2781.4058 3484446
-1497.1744 963.79108 2781.2488 2892310
-1485.4276 966.87347 2790.1436 2826516
-1473.0348 969.59985 2798.0115 3418654
-1462.5474 973.65704 2809.7192 2300175
-1434.6727 966.09906 2787.9089 2102795
-1435.999 978.25787 2822.9961 2497296
-1417.376 976.95282 2819.23 2759953
-1411.5277 984.52692 2841.0869 3088918
-1395.6753 985.22192 2843.0925 2497038
-1378.6351 985.08514 2842.6978 2563088
-1366.5236 988.51013 2852.5815 2826003
-1359.6996 995.89386 2873.8889 3023379
-1324.3364 982.29663 2834.6509 2562828
-1315.1656 988.02722 2851.188 2826001
-1298.1014 987.89972 2850.8201 3154966
-1292.819 996.85352 2876.6582 2825744
-1275.0596 996.29736 2875.0535 2628364
-1272.144 1007.4819 2907.3291 2365705
-1257.2285 1009.3397 2912.6899 3023891
-1236.4366 1006.4658 2904.3965 2497291
-1214.7852 1002.8009 2893.821 2102276
-1188.6814 995.30334 2872.1848 2497035
-1170.1414 994.01312 2868.4614 1839620
-1145.631 987.53833 2849.7771 1510401
-1137.7395 995.40967 2872.4917 1839365
-1126.1515 1000.2369 2886.4219 1905418
-1120.4196 1010.4948 2916.0232 1050625
-1084.4932 993.41522 2866.7361 2234640
0 0 0 0
0 0 0 0
0 0 0 0
0 0 0 0
0 0 0 0
-672.07831 679.50348 1960.8691 65536
-660.13977 679.17627 1959.9249 0
-641.71619 672.04584 1939.3484 1972758
0 0 0 0
0 0 0 0
-902.98621 999.35925 2883.8892 1905417
-899.65118 1014.8766 2928.6682 2300172
-884.96521 1017.9477 2937.5305 2300173
-868.53528 1019.0957 2940.8435 3221272
-840.52679 1006.427 2904.2849 2957586
-820.9624 1003.5507 2895.9846 2694414
-805.74139 1005.9743 2902.9785 2102277
-794.59064 1013.6965 2925.2625 2036226
-778.22095 1014.9564 2928.8982 2562571
-761.95496 1016.412 2933.0989 1970692
-748.61774 1021.9337 2949.0332 1444096
-734.66193 1026.8547 2963.2341 1378560
-718.0545 1028.2201 2967.1738 1905416
-710.24799 1042.5725 3008.5913 2497808
-694.18567 1045.2334 3016.27 2826517
-665.49542 1028.5186 2968.0354 3024666
-646.87366 1026.8794 2963.3052 1971723
-636.34534 1038.3553 2996.4216 1576709
-628.79596 1055.4905 3045.8691 1773832
-608.43225 1051.4927 3034.3325 1313539
-584.34998 1040.6293 3002.9836 458752
-570.13605 1047.2092 3021.9719 721920
-551.11823 1045.1063 3015.9033 985349
-536.26868 1051.0317 3033.0027 1380361
-512.35388 1038.9851 2998.239 1511691
-489.13898 1027.5432 2965.2207 459521
-478.33051 1042.2821 3007.7532 393216
-461.35657 1044.2074 3013.3091 1050881
-449.5723 1058.5067 3054.5732 1379589
-429.48456 1053.6354 3040.5156 2695191
-418.42538 1071.4565 3091.9431 1576966
-397.60345 1064.7659 3072.6355 2432020
-376.6951 1057.1904 3050.7747 1116417
-357.71182 1054.5261 3043.0864 1576966
-338.76819 1051.7021 3034.9373 2563604
-321.12857 1052.8368 3038.2114 2431758
-302.91376 1052.1084 3036.1094 2037001
-285.00223 1052.4078 3036.9734 2497038
-266.80331 1051.6149 3034.6853 2365452
-249.63074 1055.0452 3044.5842 2431243
-231.12321 1052.9283 3038.4756 2364680
-213.31792 1053.9231 3041.3462 2891279
-194.0316 1047.1091 3021.6829 2167812
-176.82188 1051.2555 3033.6482 2759949
-159.34399 1054.5657 3043.2004 2759948
-141.46942 1055.7604 3046.6479 2957585
-123.23125 1054.1941 3042.1282 2760206
-105.46108 1056.7808 3049.5925 2628622
-87.58062 1059.1034 3056.2952 2036486
-69.528564 1060.0212 3058.9438 2037001
-51.431278 1060.6536 3060.7686 1773830
-33.283207 1060.3573 3059.9133 2037002
-15.435376 1080.366 3117.6533 1576710
3.02033 1073.1982 3096.9692 1971467
21.729977 1091.0909 3148.6028 2300431
40.249149 1087.3058 3137.6797 1576710
58.831127 1087.0732 3137.0088 2102795
77.095184 1082.4886 3123.7786 2431761
96.434898 1091.858 3150.8164 2563347
113.16549 1073.4388 3097.6633 2629141
131.54901 1073.6519 3098.2781 787714
151.47887 1084.8876 3130.7017 1774089
171.14114 1091.964 3151.1223 2432019
190.0128 1093.0999 3154.3999 1971724
208.57988 1092.4369 3152.4868 1642501
228.64967 1099.1064 3171.7334 2431503
249.4447 1107.9841 3197.3521 3287068
266.57819 1100.4926 3175.7334 3550497
285.48303 1100.8195 3176.6768 3352347
304.13419 1100.1882 3174.8552 2365196
324.11771 1104.1694 3186.344 2233866
343.60974 1106.1301 3192.002 2497038
362.59354 1106.3357 3192.595 2234639
383.23245 1111.3202 3206.979 1905417
403.11481 1113.7437 3213.9724 2102796
430.90057 1136.799 3280.5039 2168590
448.94037 1133.2618 3270.2971 2431761
467.80453 1132.0125 3266.6917 2563347
488.2222 1134.4722 3273.7898 2892311
506.20316 1131.2982 3264.6304 2563347
527.19147 1134.8315 3274.8267 1773832
552.47321 1147.0278 3310.022 2892568
570.07367 1142.9869 3298.3608 2760726
591.9928 1147.5857 3311.6318 2628882
604.97137 1135.1141 3275.6423 2431760
626.61108 1139.1637 3287.3284 2629141
649.84491 1145.7799 3306.4209 3352864
678.50537 1161.2966 3351.198 3551529
706.09741 1174.1543 3388.3018 5461329
726.97003 1175.4363 3392.0012 6317671
754.58545 1187.2581 3426.1162 6975859
777.69208 1191.5522 3438.5081 7173496
804.7746 1201.5635 3467.3977 7173497
832.70306 1212.3077 3498.4028 7239546
855.61639 1215.406 3507.3435 7436670
865.74347 1200.625 3464.6895 7239289
900.43085 1219.8004 3520.0247 6647153
906.35413 1200.0234 3462.9536 7173497
933.69269 1208.8485 3488.4204 7634046
939.38007 1189.8668 3433.6443 7963011
972.17908 1205.3031 3478.189 6383463
983.0224 1193.4426 3443.9631 6974830
1015.4595 1207.7477 3485.2437 6250848
1037.5917 1209.4703 3490.2148 5789782
1049.7906 1199.7733 3462.2317 6250588
1069.415 1198.7716 3459.3411 5329485
1097.293 1206.8856 3482.7559 6513246
1117.7821 1206.7233 3482.2876 5394765
1093.2753 1158.8712 3344.1987 1249295
1101.9573 1147.2767 3310.7402 2367772
1117.4221 1143.0261 3298.4741 1446668
0 0 0 0
1113.7065 1100.7151 3176.3755 4538680
1095.209 1064.442 3071.7009 4077870
1105.1659 1056.5581 3048.95 3879979
1125.8888 1059.0547 3056.1545 2300948
1132.9091 1048.7871 3026.5251 525056
1144.9753 1043.4381 3011.0891 4143154
1140.8439 1023.7183 2954.1831 2695962
1135.9697 1003.9385 2897.1035 2959133
1173.2742 1021.4688 2947.6914 4077356
1177.0593 1009.7305 2913.8179 6050375
1188.8218 1005.076 2900.3862 3682082
1206.6815 1005.6356 2902.001 3879718
1198.6849 984.93384 2842.2612 3814179
1206.3931 977.53119 2820.8992 5458490
1202.7065 961.22418 2773.8413 5524539
1232.8184 972.00488 2804.9517 4866350
1222.4528 951.00928 2744.3638 3746843
1211.8541 930.38593 2684.8503 3548691
1238.6859 938.66162 2708.7317 3943706
1252.0009 936.61377 2702.822 3614485
1261.2004 931.57764 2688.2893 3878169
1288.5894 939.93512 2712.4067 5326127
1281.2698 923.08124 2663.7708 5062701
1293.6329 920.6452 2656.741 3352082
1334.1237 938.0448 2706.9517 3681048
1357.1929 942.927 2721.0405 4075806
1373.2803 942.90088 2720.9651 3812379
1379.6064 936.25104 2701.7754 4405285
1406.1091 943.28925 2722.0857 5326132
1407.9912 933.83826 2694.8127 6247235
1419.9933 931.23608 2687.3035 4668974
1436.8127 931.81573 2688.9763 6708557
1445.5957 927.22809 2675.7375 4997682
1462.3429 927.79297 2677.3674 6708812
1469.3402 922.22607 2661.303 4932146
1486.0098 922.78381 2662.9124 2628620
1508.8502 927.12152 2675.4299 5260342
1540.8258 936.92383 2703.7168 2299659
1560.8127 939.30945 2710.6011 1510657
0 0 0 0
1573.7998 928.02307 2678.0315 5063989
1575.8422 919.95032 2654.7358 5853506
1611.339 931.37451 2687.7029 3682080
1623.3905 929.15576 2681.3003 1773829
1629.9901 923.88995 2666.1045 3813414
1645.6018 923.78424 2665.7996 3418655
1649.8611 917.36835 2647.2849 1577737
1670.9833 920.36121 2655.9214 4405547
1692.2207 923.36115 2664.5786 6445901
1701.382 919.77716 2654.2361 3879974
1680.1635 899.98578 2597.1233 3485215
1695.0148 899.69916 2596.2964 3813156
1724.8143 907.28094 2618.1753 3484446
1744.5427 909.47699 2624.5125 2694931
1771.7883 915.51862 2641.947 3088920
1764.798 903.91888 2608.4734 3549472
1785.2388 906.44873 2615.7737 2891542
1755.0704 883.45959 2549.4331 1575939
1794.5664 895.6308 2584.5562 2036234
1806.0299 893.72418 2579.054 2430991
1824.684 895.37775 2583.8259 2102026
1837.0917 893.96436 2579.7471 1838853
1868.2955 901.64526 2601.9124 1707012
1885.9667 902.72314 2605.0225 1443841
1886.1139 895.46362 2584.0735 1444867
1915.9347 902.29559 2603.7888 1708039
1878.5112 877.60327 2532.5332 2037520
1880.2858 871.46967 2514.8333 1840399
1874.8877 862.1344 2487.894 2893601
1948.5352 889.00885 2565.4468 3485738
2033.4115 920.55066 2656.4683 2433822
2098.967 942.92828 2721.0442 3683632
2103.6489 937.82648 2706.3218 3157289
2088.2466 923.9162 2666.1802 2433566
2094.2944 919.63367 2653.822 4209977
2053.2234 894.87878 2582.3857 4604733
0 0 0 0
1943.2404 834.5036 2408.1589 4275508
1926.4771 821.27332 2369.9797 4143919
1926.2678 815.24054 2352.5708 4011564
1959.8091 823.47595 2376.3359 4143405
1986.4789 828.72705 2391.4893 3485990
2017.913 835.87726 2412.123 4735802
2129.4075 875.85712 2527.4941 4012080
0 0 0 0
0 0 0 0
2622.4417 1056.3578 3048.3721 3092268
2913.4373 1165.5459 3363.4602 3158061
2925.8818 1162.5706 3354.8743 4342336
0 0 0 0
0 0 0 0
2776.199 1081.0579 3119.6499 3947577
3034.0349 1173.6439 3386.8291 2039070
0 0 0 0
0 0 0 0
0 0 0 0
3141.752 1183.9822 3416.6624 2302757
3104.4487 1162.4326 3354.4761 2960687
3127.4373 1163.5895 3357.8145 2631722
3123.7202 1154.8585 3332.6191 2894894
3107.5889 1141.6761 3294.5786 2763310
3152.5312 1150.9562 3321.3582 1578780
3157.2275 1145.5186 3305.6665 1907745
0 0 0 0
0 0 0 0
0 0 0 0
0 0 0 0
0 0 0 0
0 0 0 0
0 0 0 0
0 0 0 0
0 0 0 0
-2354.5615 940.87903 2669.4785 3222042
-2327.3831 936.30945 2656.5137 3090456
-2308.106 934.87811 2652.4524 2761491
-2292.4231 934.89276 2652.4941 3024663
-2294.9375 942.38025 2673.7375 3616800
-2345.5068 969.84186 2751.6523 2958870
-2300.313 957.81372 2717.5259 3090456
-2284.2083 957.81372 2717.5259 2958870
-2262.061 955.26202 2710.2861 4077351
-2243.1333 954.04291 2706.8274 3221785
-2198.052 941.60278 2671.532 2169098
-2180.2295 940.74396 2669.0952 1971976
-2145.3306 932.45038 2645.5645 1774086
-2138.2637 936.22076 2656.262 2103308
-2117.219 933.88159 2649.6252 2103307
-2105.3296 935.57599 2654.4326 2629651
-2088.6746 935.16217 2653.2585 3024662
-2038.1134 919.44617 2608.6687 3155993
-2012.8081 914.97058 2595.9705 2827283
-2018.3601 924.56085 2623.1802 2695697
-2010.193 927.96704 2632.8442 2893077
-1988.0966 924.94586 2624.2727 2958870
-2007.9865 941.56488 2671.4246 2695441
-2014.5826 952.16504 2701.4993 2958357
-2003.6582 954.58777 2708.373 2629392
-2002.9421 961.95239 2729.2681 2432013
-1958.2264 948.13318 2690.0601 2892565
-1977.8224 965.48108 2739.2798 2365966
-1929.1111 949.49573 2693.926 2037001
-1947.387 966.48938 2742.1406 1971208
-1919.8311 960.8313 2726.0874 1708550
-1901.6501 959.80896 2723.1868 2300685
-1880.2554 957.13318 2715.595 2301196
-1864.1039 957.10327 2715.51 2497806
-1834.3796 950.04327 2695.4795 3024150
-1813.3754 947.41516 2688.0229 2168841
-1815.3286 956.84113 2714.7664 1971462
-1791.3698 952.65564 2702.8911 2233864
-1776.4281 953.23309 2704.5295 2102278
-1758.2842 952.0871 2701.2781 2233861
-1745.8169 954.02216 2706.7683 2365448
-1726.463 952.19495 2701.5842 2102019
-1708.8881 951.32379 2699.1125 2430984
-1696.8513 953.54852 2705.4246 2234632
-1689.5879 958.5235 2719.5398 3747871
-1669.1547 956.05109 2712.5249 2498573
-1671.6295 966.7793 2742.9631 2563856
-1657.3522 967.93451 2746.2407 3024406
-1657.9832 977.90582 2774.5315 2366477
-1628.1633 969.93665 2751.9211 2038025
-1601.7854 963.87738 2734.7297 3617313
-1603.9065 975.01874 2766.3403 3551263
-1589.5308 976.25836 2769.8572 1774597
-1555.5269 965.34271 2738.8872 2432523
-1530.2717 959.68347 2722.8308 2168582
-1528.8922 969.03644 2749.3672 2432267
-1496.0259 958.41895 2719.2432 2563852
-1489.5265 964.64612 2736.9109 3155734
-1478.1108 967.79144 2745.835 3155735
-1459.5054 966.24695 2741.4526 2300426
-1450.5342 971.11761 2755.272 2431503
-1434.0979 971.04456 2755.0647 2629140
-1423.1204 974.70844 2765.46 2300173
-1414.3839 980.01068 2780.5034 2563602
-1393.4556 976.89062 2771.6511 2563345
-1387.8171 984.54309 2793.363 3023383
-1372.0396 985.10052 2794.9446 2497038
-1352.3053 982.79614 2788.4065 2233866
-1331.8981 979.93951 2780.3018 2957589
-1324.6735 986.83203 2799.8572 3154966
-1308.8539 987.41516 2801.5117 3418138
-1289.9521 985.65826 2796.5269 2299401
-1293.1459 1000.9585 2839.937 1708294
-1271.9688 997.54919 2830.2642 2694414
-1263.2162 1003.9232 2848.3486 1905669
-1241.8365 1000.2987 2838.0649 1840132
-1224.7349 1000.0678 2837.4099 1510916
-1222.2416 1011.9252 2871.052 2168841
-1185.1646 995.08038 2823.2595 1445120
-1164.718 991.91632 2814.2825 1905669
-1151.7998 995.16492 2823.4993 1971206
-1142.4651 1001.6511 2841.9019 1641987
-1119.1813 995.91846 2825.6372 2760724
-1100.0602 993.77216 2819.5479 1774344
-1084.647 994.96112 2822.9211 1774344
-1063.9825 991.29462 2812.5186 2037004
0 0 0 0
0 0 0 0
0 0 0 0
0 0 0 0
0 0 0 0
-671.50006 690.52936 1959.182 65536
-660.57129 691.2428 1961.2061 0
-644.36084 686.3559 1947.3409 3090982
0 0 0 0
-898.46942 992.57922 2816.1631 2168330
-890.49005 1002.3834 2843.9797 2365963
-877.55902 1006.8846 2856.7505 2103047
-863.13232 1009.8129 2865.0588 1839620
-848.3775 1012.4672 2872.5898 1510657
-829.87225 1010.6628 2867.4702 1707523
-808.67542 1005.4364 2852.6418 1510403
-793.36029 1007.4559 2858.3713 1378816
-780.44794 1012.681 2873.1963 1313024
-763.32733 1012.5571 2872.8447 1444353
-750.9035 1018.7999 2890.5571 1313281
-735.86182 1021.6995 2898.7839 1971208
-725.54028 1031.4481 2926.4424 1510659
-706.85016 1029.4856 2920.8745 1774344
-693.08038 1034.7708 2935.8696 1511171
-679.11975 1040.0358 2950.8079 2037516
-658.23962 1034.7021 2935.6753 2300687
-644.50848 1040.6219 2952.4707 2498068
-627.28082 1041.0688 2953.7388 2366481
-611.21368 1043.5228 2960.7012 1642758
-591.51318 1039.7352 2949.9551 1708808
-573.11829 1038.0819 2945.2642 2038032
-564.23688 1054.0975 2990.7041 591361
-544.23907 1049.7109 2978.2583 657154
-520.3241 1037.2219 2942.8242 2499098
-511.70425 1055.4135 2994.4375 2301719
-486.64511 1039.7872 2950.1025 460033
-474.31799 1051.2139 2982.5222 985603
-454.43661 1046.1348 2968.1121 1906444
-437.61227 1047.9675 2973.312 3090204
-419.77863 1047.4357 2971.803 1840137
-403.04721 1049.728 2978.3066 2234895
-391.38287 1066.0316 3024.5635 1971723
-368.73911 1052.5597 2986.3408 2761495
-350.69952 1051.5345 2983.4324 3221789
-330.82773 1044.6152 2963.8008 2498067
-314.31561 1048.1232 2973.7537 2234894
-295.3848 1043.5035 2960.6465 1971208
-280.80173 1054.6295 2992.2131 2168586
-261.5217 1048.4255 2974.6113 2167816
-244.48622 1050.9734 2981.8401 2431245
-226.62462 1050.0902 2979.3345 2496525
-207.47151 1042.568 2957.9922 1970179
-189.87375 1042.1943 2956.9319 2299144
-173.61621 1049.849 2978.6499 2101509
-155.68076 1047.9418 2973.2385 1575424
-137.60246 1044.4634 2963.3699 1707522
-120.7598 1050.7185 2981.1169 1970693
-103.28728 1052.6979 2986.7329 2431243
-86.046738 1058.3494 3002.7673 2431243
-68.41555 1060.8901 3009.9761 2430986
-51.182865 1073.5818 3045.9851 2496781
-33.119133 1073.1743 3044.8291 2102794
-15.148256 1078.4019 3059.6604 2037003
2.9666841 1072.1639 3041.9622 852992
21.322144 1088.9221 3089.509 1510918
39.200386 1077.084 3055.9216 2827033
57.387798 1078.5381 3060.0474 2103310
75.410469 1076.9412 3055.5164 1313795
93.413803 1075.74 3052.1082 3024155
111.10899 1071.9554 3041.3708 3945513
129.49081 1074.9276 3049.8032 1971723
148.9509 1085.0259 3078.4543 2629654
165.28015 1072.6028 3043.2073 2169102
183.8299 1075.6163 3051.7576 3616549
204.47618 1089.2587 3090.4636 2037258
224.41063 1097.1775 3112.9312 3616033
244.53134 1104.735 3134.3733 3155482
261.55063 1098.203 3115.8408 1905160
278.32623 1091.5767 3097.0403 3154711
295.4325 1086.9869 3084.0183 2628881
319.83743 1108.2216 3144.2654 2365709
337.45016 1104.8789 3134.782 2103051
359.22116 1114.7899 3162.9014 2234382
376.2717 1109.795 3148.7297 2498068
398.60706 1120.1229 3178.0325 1905673
419.34302 1125.2273 3192.5146 2103054
436.87897 1121.675 3182.436 1774089
460.77698 1134.0752 3217.6179 2037261
479.17508 1132.4913 3213.124 2629140
501.87567 1140.8083 3236.7214 2234382
521.42456 1141.6128 3239.0037 2958105
542.77411 1146.1624 3251.9119 1971210
558.49554 1138.9229 3231.3718 2431761
580.12061 1143.8032 3245.2185 2563088
594.63019 1134.7913 3219.6497 2497552
621.5387 1149.2661 3260.7178 3024151
634.49237 1137.8425 3228.3069 3419165
653.62402 1137.8425 3228.3069 3222045
670.79254 1134.5223 3218.8867 3683625
701.6969 1153.975 3274.0779 5724499
724.91864 1160.0863 3291.4172 6711914
749.05383 1167.3009 3311.8865 7305337
777.68976 1180.9816 3350.7017 7173496
802.41809 1188.1951 3371.1677 7239289
827.31732 1195.3048 3391.3398 7371132
852.06982 1201.8704 3409.9678 7305082
870.39673 1199.2782 3402.6133 7173495
890.28137 1198.9012 3401.5437 7436667
906.68536 1193.9574 3387.5168 7305081
926.67621 1193.8489 3387.209 6318443
953.98969 1202.9786 3413.1123 7304311
979.51599 1209.5226 3431.6787 7370102
1002.9169 1213.2291 3442.1948 7501687
1009.8663 1197.2832 3396.9529 6975086
1033.5824 1201.4506 3408.7766 5395795
1054.7489 1202.5513 3411.8994 7040106
1086.5309 1215.4858 3448.5979 6908776
1096.3727 1203.8519 3415.5896 6842981
1116.8646 1204.1218 3416.3555 5724499
1104.0818 1169.1465 3317.1228 3420717
1115.6312 1160.7103 3293.1877 2499356
1104.567 1129.4413 3204.4705 2959906
1105.2491 1111.0372 3152.2542 2893856
1113.7286 1100.9528 3123.6426 3222821
1107.0903 1076.4982 3054.2593 1511950
1124.1178 1075.4718 3051.3474 591621
1129.2755 1063.3016 3016.8181 5327687
1130.6296 1047.9854 2973.3623 920586
1138.7258 1039.2925 2948.6987 2104339
1123.0209 1009.4678 2864.0798 3813927
1137.9579 1007.6649 2858.9644 5590339
1150.1897 1003.5544 2847.302 1315080
1182.223 1016.59 2884.2871 2695698
1192.0864 1010.462 2866.9004 4537904
1193.5103 997.453 2829.9912 4077348
1192.0515 982.42883 2787.3643 5787709
1197.6049 973.51544 2762.075 4932399
1211.9303 971.87695 2757.4263 4470568
1212.4108 959.32715 2721.8198 3944222
1214.1108 948.0592 2689.8501 4273187
1234.5781 951.54816 2699.749 3483669
1243.7306 946.3385 2684.968 3023118
1264.496 949.98486 2695.3137 4733736
1267.8188 940.59979 2668.686 3286290
1259.6757 923.04382 2618.8762 3154704
1283.5051 929.05865 2635.9414 3417876
1327.6129 949.43066 2693.7412 4207137
1351.6848 955.16022 2709.9973 4076321
1380.7827 964.2652 2735.8301 4010528
1375.2018 949.22205 2693.1494 6971985
1376.0137 938.88599 2663.8237 5195573
1384.0917 933.68604 2649.0703 3616287
1389.0126 926.49695 2628.6733 4340266
1443.9399 952.45245 2702.3149 6115651
1432.8654 934.77997 2652.1741 5655359
1415.9938 913.75024 2592.5081 4471342
1460.5853 932.40863 2645.446 2431244
1493.7565 943.45758 2676.7944 3417883
1508.6237 942.83508 2675.0281 3154968
1524.5852 942.90228 2675.219 985349
1547.6232 947.29974 2687.6953 3944998
0 0 0 0
1502.2162 900.961 2556.2224 5195063
1594.5532 946.79291 2686.2576 4076837
1598.434 939.71545 2666.1772 4142885
1609.1021 936.72772 2657.7004 1971720
1608.0405 927.03589 2630.2024 4800306
1628.5322 929.83618 2638.1475 3747618
1655.9293 936.48853 2657.0217 3747874
1675.9875 938.90424 2663.8755 3024664
1682.7909 933.91858 2649.7302 6314059
1667.0093 916.60687 2600.613 3484447
1703.9995 928.36304 2633.968 3813412
1714.963 925.8548 2626.8516 2892312
1705.6725 912.5556 2589.1189 3484192
1718.8054 911.38342 2585.793 2694932
1730.2056 909.32123 2579.9421 2497554
1756.7321 915.17529 2596.5513 3155485
1757.6013 907.67755 2575.2786 1774089
1768.0216 905.19891 2568.2461 2892056
1764.6039 895.73804 2541.4038 1839371
1797.103 904.51514 2566.3062 1970956
1822.4347 909.5675 2580.6409 1641736
1848.5868 914.94183 2595.8892 1510407
1871.2733 918.52655 2606.0596 918272
1871.3207 911.03076 2584.7925 984064
1885.2437 910.35712 2582.8811 1115651
1878.2427 899.67188 2552.5647 1247749
1851.5059 879.77942 2496.1255 1643020
1839.8207 867.29767 2460.7122 2169364
1844.2966 862.5708 2447.301 2038292
1878.2795 871.61029 2472.948 2169878
1863.9868 858.28107 2435.1301 2499099
1872.0891 855.38934 2426.9255 2565151
2038.5222 924.33417 2622.5371 4933699
2067.2942 930.2879 2639.429 3683631
2079.5811 928.78937 2635.1775 3486251
2035.5381 902.34271 2560.1426 3617838
2061.8521 907.2453 2574.0522 3485738
0 0 0 0
1939.0133 840.75403 2385.4019 3749418
1921.8362 827.27472 2347.1584 3814185
1942.8607 830.31543 2355.7854 3288096
1950.6968 827.71649 2348.4119 4274991
1967.5035 828.93396 2351.866 4011563
1989.5879 832.3421 2361.5356 3683371
1997.1884 829.68561 2353.9985 3420199
0 0 0 0
0 0 0 0
0 0 0 0
0 0 0 0
0 0 0 0
0 0 0 0
0 0 0 0
0 0 0 0
0 0 0 0
0 0 0 0
0 0 0 0
3039.9604 1165.2134 3305.9639 2960687
3055.6345 1163.7213 3301.7305 2894895
0 0 0 0
3016.9719 1134.4677 3218.7317 2763308
2971.1133 1110.2043 3149.8911 3552824
0 0 0 0
3122.8477 1152.4215 3269.6704 1710366
0 0 0 0
0 0 0 0
0 0 0 0
0 0 0 0
0 0 0 0
0 0 0 0
0 0 0 0
0 0 0 0
0 0 0 0
-2287.1633 929.31384 2593.0659 3156249
-2263.0801 925.74841 2583.1172 3221785
-2248.1943 925.92236 2583.6025 3485214
-2219.1252 920.21729 2567.6836 2564111
-2221.9873 927.76581 2588.7463 2827284
-2208.9072 928.71649 2591.3992 2695698
-2209.2031 935.34387 2609.8914 2761235
-2193.8252 935.38171 2609.9971 2366479
-2202.6458 945.81097 2639.0977 2827799
-2149.7698 929.70746 2594.1641 1905928
-2138.0864 931.31488 2598.6492 1840137
-2145.2981 941.23566 2626.3313 1971721
-2116.0525 935.18903 2609.4595 3287581
-2107.3076 938.1806 2617.8066 2958616
-2090.1001 937.4209 2615.687 2827030
-2050.1941 926.39331 2584.9167 3287579
-2028.6071 923.53979 2576.9543 3287579
-2015.5862 924.5722 2579.8352 3748385
-1982.9823 916.56879 2557.5032 3024662
-1985.662 924.87634 2580.6838 2959125
-1969.7242 924.5741 2579.8403 3024662
-1959.385 926.91541 2586.3735 2892820
-1949.2495 929.39099 2593.281 2761491
-1933.4753 929.19598 2592.7368 2497806
-1954.156 946.65765 2641.4602 2168584
-1939.8016 947.29224 2643.231 2365709
-1919.116 944.82025 2636.3333 1642246
-1924.7837 955.38824 2665.8213 1707781
-1900.7054 951.24445 2654.2588 1510401
-1902.4972 960.08655 2678.9309 1971721
-1885.1172 959.32104 2676.7949 1642756
-1870.5592 959.99097 2678.6643 3616799
-1854.7146 960.00629 2678.707 3024406
-1820.7396 950.55664 2652.3396 2563341
-1807.8186 952.02966 2656.45 2497803
-1779.3918 945.2915 2637.6482 2234120
-1765.2747 946.10291 2639.9124 2497035
-1747.0986 944.73413 2636.093 2891791
-1725.6749 941.5686 2627.2603 2562827
-1729.0482 951.99847 2656.3628 2694413
-1713.7388 952.23895 2657.0337 2825999
-1702.9062 954.99445 2664.7224 2957584
-1689.1005 956.11847 2667.8589 2760206
-1675.7074 957.49982 2671.7131 2300681
-1650.2234 951.93274 2656.1792 2826512
-1645.4679 958.33069 2674.0317 2695183
-1635.9624 962.06 2684.4375 3353114
-1620.054 962.06 2684.4375 3089943
-1600.269 959.73523 2677.9507 2300940
-1582.521 958.59766 2674.7766 2432526
-1564.2988 957.14703 2670.7288 2761491
-1565.4609 967.64856 2700.0312 2432269
-1565.4102 977.6095 2727.8254 2892564
-1535.9918 969.24683 2704.4907 2168841
-1520.1187 969.34515 2704.7651 2169096
-1500.8391 967.25031 2698.9199 2760976
-1491.3062 971.45929 2710.6643 2037255
-1477.6858 973.06848 2715.1545 2826769
-1470.7291 979.14954 2732.1223 2826257
-1442.3334 970.93372 2709.1978 3023637
-1426.3107 970.95587 2709.2595 3550495
-1418.5443 976.66302 2725.1843 2497552
-1402.4259 976.68506 2725.2456 2563345
-1379.9498 972.22833 2712.8103 2694931
-1376.0651 980.91931 2737.0605 2563089
-1363.402 983.48535 2744.2207 2628623
-1342.0527 979.77203 2733.8594 2760208
-1336.2942 987.48901 2755.3921 2628622
-1321.6692 988.76385 2758.9492 2826001
-1306.8573 989.92908 2762.2007 2891794
-1287.6965 987.78778 2756.2258 2629394
-1275.582 991.0661 2765.3733 2563601
-1251.5417 985.0434 2748.5681 2563601
-1241.7203 990.20062 2762.9583 1774090
-1248.2277 1008.6909 2814.5518 2892821
-1223.5571 1002.1461 2796.2898 4997940
-1207.1945 1002.3193 2796.7732 3155993
-1187.1274 999.37903 2788.5688 2563858
-1165.009 994.60431 2775.2458 1313792
-1147.8198 993.96124 2773.4517 1379587
-1129.5898 992.38531 2769.0542 1511172
-1114.97 993.98114 2773.5071 2103309
-1101.4174 996.59052 2780.7881 1642758
-1087.3073 998.76703 2786.8611 2103054
-1061.025 989.65723 2761.4421 2103054
-1046.603 991.4978 2766.5779 2103054
0 0 0 0
0 0 0 0
0 0 0 0
0 0 0 0
-674.95148 693.75348 1935.7814 65536
-670.88208 701.49371 1957.3789 65536
-659.72601 701.96594 1958.6965 131072
-642.85156 696.26154 1942.7797 1643536
0 0 0 0
-893.28339 1003.4428 2799.908 590848
-880.58057 1007.8953 2812.3318 1642243
-860.11908 1003.4678 2799.9778 1971208
-840.77722 1000.1981 2790.8542 1510659
-833.87958 1011.8979 2823.5002 1708550
-815.0946 1009.3564 2816.4087 2102795
-798.55957 1009.5532 2816.9578 2431759
-787.28699 1016.5532 2836.4897 2102794
-760.38373 1003.2358 2799.3306 1576451
-740.75574 999.13739 2787.8948 1247232
-727.32788 1003.4055 2799.804 984576
-715.36981 1009.9481 2818.0596 1971208
-708.7204 1024.4771 2858.5999 2300173
-703.57837 1041.9501 2907.3547 2169099
-672.38715 1020.7548 2848.2136 2827029
-663.48596 1033.1781 2882.8782 2761237
-647.11957 1034.3259 2886.0811 1445377
-625.32098 1026.6178 2864.5732 1642758
-614.37634 1036.7963 2892.9741 2169101
-591.36859 1026.6173 2864.572 2103309
-583.39178 1042.7018 2909.4524 2300689
-569.00043 1047.9521 2924.1023 2169360
-552.80066 1050.0969 2930.0872 3354660
-534.41663 1048.097 2924.5066 1972753
-519.10614 1052.193 2935.9355 2564887
-499.57111 1047.7133 2923.4358 2761753
-478.625 1039.8459 2901.4836 2893338
-462.34787 1041.9139 2907.2539 3090203
-442.72226 1036.304 2891.6006 2366479
-429.28003 1045.299 2916.6992 2365966
-412.43542 1046.4163 2919.8169 2234380
-397.64835 1053.0804 2938.4119 2366222
-377.48782 1045.4728 2917.1843 2366479
-362.56564 1052.3391 2936.3433 2892825
-346.46982 1056.3196 2947.45 2695447
-326.14294 1047.1379 2921.8308 2366481
-309.23502 1048.5198 2925.686 2300688
-290.14157 1042.2148 2908.0935 2629139
-275.08408 1050.5266 2931.2861 2234380
-258.2558 1052.7407 2937.4639 2037001
-238.32355 1041.7074 2906.6777 2497553
-221.08148 1041.6298 2906.4612 2168070
-205.47058 1049.8737 2929.4641 2168071
-188.15137 1050.1049 2930.1091 2036486
-171.02483 1051.5676 2934.1907 2036487
-153.57159 1051.1256 2932.9573 2036487
-136.14799 1050.7993 2932.0471 2102023
-119.00614 1052.8704 2937.8257 1970437
-101.41459 1050.9907 2932.5811 2299401
-84.555443 1057.4935 2950.7256 2299657
-67.331711 1061.6387 2962.292 2957587
-50.047287 1067.4133 2978.405 2431759
-32.567413 1073.0404 2994.1064 2497552
-14.936673 1081.2183 3016.9248 2366481
2.9538589 1085.4781 3028.8115 1379588
20.9203 1086.364 3031.2832 722178
38.54071 1076.7639 3004.4958 1576710
56.425762 1078.2882 3008.7493 2037516
73.786301 1071.4641 2989.7078 3287581
91.426346 1070.5553 2987.1721 2892823
110.57888 1084.7789 3026.8604 3682338
126.16474 1064.9268 2971.4666 2563858
144.36763 1069.3215 2983.7295 3419424
162.95447 1075.2909 3000.3857 2958616
181.51013 1079.9001 3013.2471 2695443
201.66162 1092.3279 3047.9241 2234637
221.22478 1099.7874 3068.7385 3813669
240.46008 1104.6077 3082.1885 3813412
258.23526 1102.5133 3076.3447 3616290
276.88101 1104.167 3080.959 3024153
298.51324 1116.7891 3116.1782 3024409
316.68018 1115.7313 3113.2268 2826517
331.18756 1102.6066 3076.6047 2760981
350.18668 1105.0254 3083.3538 2827032
369.31729 1107.5985 3090.5337 2761497
392.91443 1122.6908 3132.646 2038034
411.83029 1123.6489 3135.3193 2169878
432.77548 1129.8221 3152.5444 1248775
456.80386 1143.2004 3189.8738 1116934
475.04633 1141.6108 3185.4387 2498072
493.01947 1139.5204 3179.6055 1181699
510.85916 1137.2867 3173.373 1839881
526.55249 1130.6033 3154.7239 2958106
553.14301 1146.9739 3200.4028 3024154
568.92798 1140.5958 3182.6062 2365969
586.35486 1137.8134 3174.8423 2037260
599.17389 1126.5404 3143.3872 1971468
614.5932 1120.6888 3127.0598 2300689
636.35657 1126.4092 3143.0215 2432019
656.5257 1129.0627 3150.4255 2497813
681.09991 1138.9355 3177.9736 3223081
704.85132 1146.9382 3200.3037 7566707
733.53912 1162.3436 3243.2893 7634559
759.69806 1173.0574 3273.1838 7634560
785.87994 1183.2723 3301.6868 7634562
808.81641 1188.223 3315.5007 7371133
828.13782 1187.7543 3314.1924 7305081
851.16357 1192.4968 3327.4258 7370875
871.71326 1193.6344 3330.5996 7370619
893.73993 1196.6989 3339.1506 7502974
907.4198 1188.6968 3316.8225 7765890
930.33203 1192.8717 3328.4717 7502717
954.86609 1198.9095 3345.3191 7567997
973.78033 1197.7893 3342.1931 7436154
993.61279 1197.8204 3342.28 7041650
1005.2539 1188.1686 3315.3486 7041137
1027.4365 1191.1077 3323.5496 7040879
1047.6418 1191.6869 3325.1655 6514277
1069.825 1194.4529 3332.8838 6842984
1077.4904 1181.2036 3295.9143 6579553
1089.1479 1172.7247 3272.2556 6842723
1114.5961 1179.1315 3290.1321 5592143
1110.0046 1154.0853 3220.2458 2434333
1115.7512 1140.4528 3182.207 2696479
1129.0477 1134.8621 3166.6074 2630685
1109.069 1096.5546 3059.7178 4670012
1130.7375 1099.9945 3069.3164 2367515
1133.8793 1085.5878 3029.1169 3485997
1125.0919 1060.3867 2958.7988 2828323
1130.048 1048.7137 2926.2278 2564892
1142.1377 1043.9137 2912.834 3814703
1136.601 1023.3858 2855.5549 3485989
1175.5488 1042.9263 2910.0786 1446149
1191.1533 1041.4912 2906.0745 5327419
1189.4364 1025.1678 2860.5273 5393209
1180.5424 1003.2042 2799.2422 5327417
1187.8387 995.41705 2777.5137 4866354
1190.6266 984.11621 2745.981 4866098
1188.8951 969.43494 2705.0159 2497036
1200.8037 966.11871 2695.7625 2760206
1215.5177 965.11688 2692.967 4273445
1225.6378 960.54083 2680.1985 3681563
1260.3164 975.08228 2720.7734 4931629
1255.389 959.00104 2675.9021 2759949
1259.0265 949.78217 2650.1787 2825742
1269.1453 945.61957 2638.5637 3615259
1266.0542 931.83575 2600.1025 3154707
1308.3394 951.37927 2654.635 4865325
1333.7151 958.30847 2673.9697 1576197
1368.2616 971.58722 2711.0212 5062704
1383.0662 970.7019 2708.5508 3944483
1366.226 947.88171 2644.8757 3681054
1379.7819 946.42883 2640.8218 2103051
1400.228 949.6817 2649.8982 6708817
1412.5225 947.3949 2643.5176 4800820
1415.9092 939.24945 2620.7891 3484960
1421.0885 932.45685 2601.8357 4668464
1449.036 940.58923 2624.5276 2891793
1463.4226 939.83984 2622.4365 3878689
1470.1128 934.21527 2606.7424 3484702
1461.6936 919.20605 2564.8621 4011047
1490.1561 927.46051 2587.8945 4273962
1536.4314 946.52045 2641.0774 2826516
1519.1298 926.42438 2585.0032 3287324
1534.4816 926.44391 2585.0579 3353115
1558.2924 931.51978 2599.2212 3155736
1568.1868 928.25879 2590.1218 2827028
1593.1658 933.9035 2605.8723 4668974
1621.4329 941.34869 2626.6467 2958357
1613.0284 927.5647 2588.1851 3024406
1625.912 926.1665 2584.2837 3682079
1644.9736 928.28076 2590.1831 5655870
1653.3479 924.38068 2579.3008 4274220
1671.5961 926.02185 2583.8801 3747876
1695.8969 930.95587 2597.6477 1840397
1703.9771 926.97705 2586.5454 4866615
1715.1215 924.72113 2580.2507 2826776
1729.0679 924.00256 2578.2458 2629141
1745.1749 924.44104 2579.4692 2300433
1750.5547 919.23889 2564.9536 2694937
1757.996 915.19952 2553.6826 1904910
1765.0178 911.01257 2541.9998 1115910
1775.074 908.44952 2534.8481 1905425
1783.2805 904.99072 2525.197 655616
1833.3754 922.67035 2574.5286 2103058
1856.7034 926.69855 2585.7683 1116164
1870.262 925.82471 2583.3301 1905679
1869.1239 917.74902 2560.7964 1839885
1858.5631 905.21399 2525.8198 1576457
1859.8096 898.58405 2507.3203 1445385
1840.8817 882.38898 2462.1313 1248262
1815.5406 863.3988 2409.1431 1775119
1845.7753 870.92841 2430.1528 2104341
1782.2637 834.44971 2328.3662 3157286
1828.5502 849.5437 2370.4829 3354665
1884.0278 868.64508 2423.7817 4275767
2064.1604 944.49579 2635.428 3815216
2096.8816 952.26276 2657.1001 4275254
2053.7732 925.73395 2583.0769 3551531
0 0 0 0
1906.0687 846.53717 2362.094 3354147
1891.6289 833.99915 2327.1091 3682854
1924.1184 842.18341 2349.9458 3419683
1934.1162 840.47632 2345.1824 3617060
1902.6028 820.88342 2290.5122 4143147
1940.3217 831.22699 2319.3738 3879978
1976.906 840.94244 2346.4829 3879723
2007.7676 848.10474 2366.4678 2894112
2059.6887 864.00189 2410.8257 2828064
0 0 0 0
0 0 0 0
0 0 0 0
0 0 0 0
0 0 0 0
0 0 0 0
0 0 0 0
0 0 0 0
0 0 0 0
0 0 0 0
0 0 0 0
0 0 0 0
0 0 0 0
0 0 0 0
0 0 0 0
0 0 0 0
0 0 0 0
0 0 0 0
0 0 0 0
0 0 0 0
0 0 0 0
0 0 0 0
0 0 0 0
0 0 0 0
0 0 0 0
0 0 0 0
-2260.3252 933.59583 2562.6382 2630161
-2209.574 918.80707 2522.0444 2498321
-2188.4307 916.21259 2514.9229 4932660
-2167.0095 913.46533 2507.3818 3222042
-2161.8223 917.57062 2518.6504 2169100
-2138.5054 913.98438 2508.8066 1905928
-2154.1106 927.09949 2544.8064 2629652
-2139.0295 927.09949 2544.8064 2497810
-2126.4143 928.1759 2547.761 1840137
-2136.7102 939.33978 2578.405 1708550
-2107.8391 933.3219 2561.8865 2169099
-2100.4634 936.80365 2571.4434 2432272
-2095.2854 941.32349 2583.8501 2827030
-2062.7988 933.55121 2562.5156 2563858
-2047.9545 933.70691 2562.9431 2498065
-2022.7877 929.12366 2550.3625 2892823
-1975.1302 914.06293 2509.0222 2629392
-1981.7021 924.06079 2536.4656 2168584
-1956.1354 919.11078 2522.8779 2365963
-1949.907 923.24078 2534.2146 2168841
-1925.4075 918.71674 2521.7966 2103048
-1922.0197 924.27435 2537.0515 2168842
-1915.308 928.30859 2548.1252 2037257
-1892.9622 924.7691 2538.4097 1511434
-1895.79 933.56952 2562.5662 1840136
-1891.3513 938.90485 2577.2112 1576967
-1905.6361 953.69745 2617.8154 1708552
-1868.6084 942.8421 2588.0186 1971723
-1859.3516 945.93561 2596.5098 2169100
-1853.5834 950.87018 2610.0547 2234636
-1824.243 943.69379 2590.3562 2827029
-1812.276 945.45911 2595.2019 2432526
-1819.0483 957.11475 2627.1956 3222298
-1785.4727 947.55859 2600.9648 2432011
-1777.6353 951.61444 2612.0979 2300425
-1755.4734 948.00604 2602.1931 2103046
-1737.6304 946.68652 2598.571 2826768
-1715.2379 942.84277 2588.0203 2300425
-1705.583 945.99438 2596.6711 3484185
-1678.3254 939.35126 2578.4365 3879202
-1669.2404 942.85065 2588.0417 2300425
-1658.4015 945.4151 2595.0811 2366475
-1677.903 965.48572 2650.1731 2234121
-1650.2153 958.52594 2631.0691 2432013
-1632.5385 957.30347 2627.7136 2168841
-1627.6182 963.60999 2645.0244 2234634
-1612.9697 964.22357 2646.7087 2168841
-1589.8519 959.73669 2634.3926 2563343
-1579.2272 962.77716 2642.7383 2498319
-1553.1062 956.33655 2625.0596 2103817
-1524.6888 948.33734 2603.1025 2564112
-1506.8364 946.81311 2598.9185 2103560
-1517.5721 963.40607 2644.4646 1971718
-1508.0042 967.32123 2655.2117 2103304
-1492.515 967.48096 2655.6499 3221783
-1478.1116 968.35516 2658.0496 3353112
-1469.8091 973.28827 2671.5906 2300424
-1466.1979 981.46906 2694.0461 2563597
-1435.1261 971.24561 2665.9836 2432012
-1417.6337 970.08691 2662.8032 3945508
-1404.2146 971.72089 2667.2883 2892565
-1392.3871 974.5061 2674.9333 2365710
-1374.4128 973.00385 2670.8098 2629138
-1350.6632 967.3302 2655.2363 2168587
-1344.1112 973.98492 2673.5027 2234635
-1332.4275 977.03534 2681.876 2168843
-1320.7235 980.14447 2690.4102 2628622
-1308.4731 982.91907 2698.0261 2628365
-1291.5992 982.24615 2696.1792 2431243
-1266.2524 975.0321 2676.3772 2628622
-1254.5243 978.25464 2685.2229 2760208
-1242.2648 981.14032 2693.1438 1510658
-1234.8401 987.96936 2711.8889 2365966
-1224.6719 992.75452 2725.0237 1444865
-1202.3302 987.66754 2711.0603 1576710
-1193.297 993.52325 2727.1338 1314568
-1185.109 1000.2531 2745.6067 722177
-1151.2981 985.24316 2704.4055 1774604
-1151.1188 998.9964 2742.157 984576
-1142.5781 1005.7832 2760.7861 1445635
-1116.2416 996.87433 2736.3323 2695445
-1102.7922 999.38177 2743.2148 2234894
-1084.1884 997.22308 2737.2893 2103309
-1067.9554 997.21252 2737.2605 1708295
-1047.9705 993.64417 2727.4658 2694934
-1036.8303 998.48181 2740.7446 2761497
-1000.9352 979.2547 2687.9678 1182722
0 0 0 0
0 0 0 0
0 0 0 0
-681.38019 711.94244 1954.2192 0
-674.71643 717.16919 1968.5662 65537
-663.1272 717.25232 1968.7944 0
0 0 0 0
0 0 0 0
-891.86279 1018.4135 2795.4553 2366480
-868.72998 1010.7734 2774.4841 2168587
-847.83038 1005.4872 2759.9736 2892310
-826.11627 999.00806 2742.189 2694931
-818.23077 1009.327 2770.5137 2037771
-809.95697 1019.5798 2798.6567 2432016
-795.65869 1022.519 2806.7246 2366223
-770.47229 1011.2925 2775.9089 2234380
-758.06024 1016.709 2790.7766 2760726
-733.90979 1006.2725 2762.1294 2563602
-723.31305 1014.3675 2784.3494 1971464
-715.42084 1026.7217 2818.2605 2695444
-696.69189 1023.7427 2810.0835 1445639
-687.61218 1035.1439 2841.3787 2498067
-662.70502 1022.6924 2807.2004 2235152
-649.10022 1027.4907 2820.3716 2169359
-627.72314 1019.9144 2799.5752 1708807
-618.47467 1032.1681 2833.2104 1971725
-600.91809 1030.8535 2829.6021 1379844
-580.65826 1024.6929 2812.6917 1445638
-568.70648 1033.2627 2836.2151 1445637
-560.34497 1049.0762 2879.6216 1774603
-545.92316 1054.1807 2893.6331 2564118
-526.83374 1050.3108 2883.0105 1643273
-511.66718 1054.2644 2893.8628 4274736
-493.06021 1051.1575 2885.3345 1511687
-475.14508 1049.3552 2880.3877 2432274
-453.83853 1039.6499 2853.7471 2629396
-437.54755 1041.1273 2857.8027 2365709
-420.14102 1039.9624 2854.6052 2300172
-404.79901 1044.0245 2865.7554 2366223
-387.28745 1042.6018 2861.8501 1379586
-374.77066 1055.1108 2896.186 3419169
-353.6395 1043.4041 2864.0522 1971722
-334.01892 1035.1986 2841.5291 2432272
-318.54193 1039.6455 2853.7354 2760981
-302.55667 1042.8392 2862.502 3023896
-283.83319 1036.4138 2844.8647 2694931
-267.25592 1037.5087 2847.8696 2497551
-251.44553 1041.9286 2860.0022 2300173
-234.2074 1040.6439 2856.4758 2037001
-219.31064 1050.3728 2883.1807 1904899
-202.42381 1051.4092 2886.0254 2694415
-184.57907 1047.202 2874.4773 2628622
-167.5619 1047.312 2874.7793 2497035
-150.46614 1046.9 2873.6482 2826000
-135.56915 1063.6339 2919.5813 2365450
-116.27243 1045.6948 2870.3403 2497036
-99.256828 1045.6384 2870.1855 2497036
-82.590401 1049.9979 2882.1519 2233863
-66.064507 1058.8831 2906.5405 2957586
-49.262905 1068.0579 2931.7249 3286551
-31.973351 1070.8871 2939.4907 2563342
-14.687215 1080.7411 2966.5391 1971722
2.8701568 1072.1603 2942.9856 2827032
20.431688 1078.5355 2960.4849 1839882
37.924976 1077.082 2956.4954 3484960
55.845654 1084.8496 2977.8167 3024152
72.659019 1072.5415 2944.032 3221273
89.679199 1067.4614 2930.0876 3089433
107.5812 1072.8234 2944.8054 2761237
124.74927 1070.391 2938.1289 3813926
142.42989 1072.4137 2943.6812 3748390
161.54175 1083.5956 2974.3743 2892825
185.29276 1120.6343 3076.0425 4076843
201.69989 1110.6012 3048.5024 327680
218.36134 1103.5028 3029.0181 1247492
237.04095 1106.9071 3038.3623 1379850
257.1806 1116.1671 3063.7805 853506
274.66379 1113.4373 3056.2874 3221278
293.83664 1117.4711 3067.3594 3024154
307.54013 1101.4463 3023.3728 2037516
323.64746 1095.3213 3006.5603 2892825
345.81967 1109.2898 3044.9028 2235154
364.3591 1110.798 3049.0425 2103569
383.4787 1113.8488 3057.4165 1314055
408.12839 1131.9622 3107.1362 1117192
432.28619 1147.2063 3148.98 1117450
446.08932 1134.8466 3115.0537 2893346
466.20145 1138.8813 3126.1289 2235157
487.5321 1145.4708 3144.2163 1379591
504.9205 1142.6536 3136.4832 1445127
526.54822 1149.2893 3154.698 1314056
544.88135 1148.5258 3152.6021 1774091
559.80151 1140.8573 3131.5525 2168848
579.30078 1142.7135 3136.6477 2366739
600.09692 1146.9329 3148.2297 1971982
613.76929 1137.6931 3122.8674 2235153
633.07886 1139.1377 3126.8328 1708553
647.03223 1131.1364 3104.8696 1774861
665.87085 1131.8818 3106.9158 1907220
690.4231 1142.0381 3134.7937 3026475
720.33051 1160.288 3184.8882 5001296
738.87024 1159.7628 3183.4468 7172982
767.29596 1174.3948 3223.6104 7370619
790.13654 1179.9753 3238.9282 7239033
812.0155 1183.8889 3249.6709 7173753
833.93756 1187.6829 3260.0847 7173753
854.24158 1189.0526 3263.8447 7239289
873.99005 1189.6056 3265.3623 7436412
896.27484 1193.5121 3276.0852 7765376
917.05121 1195.2866 3280.9565 7567997
936.70636 1195.5565 3281.6975 7633789
957.34814 1197.0492 3285.7947 7502460
976.12408 1196.1958 3283.4521 7634046
996.40173 1197.1801 3286.1538 7173752
1012.4903 1193.1899 3275.2014 7041652
1016.5219 1175.4083 3226.3923 7173236
1041.2068 1181.724 3243.728 6777708
1054.8159 1175.4678 3226.5557 6184801
1079.8326 1181.9208 3244.2683 6316128
1105.7803 1189.1488 3264.1089 5526863
1108.1115 1171.1682 3214.7537 4539969
1108.5975 1151.8783 3161.8042 3025959
0 0 0 0
1136.5519 1142.3092 3135.5381 1578002
1118.382 1105.9655 3035.7778 1775380
1143.397 1112.8018 3054.543 1446158
1143.9203 1095.9603 3008.3145 1709330
1135.4232 1071.126 2940.1465 1973015
1140.9346 1060.058 2909.7656 3420458
1144.2399 1047.3002 2874.7466 2894111
1151.2762 1038.2817 2849.9917 2696215
1162.5105 1033.2551 2836.1941 5590849
1181.2751 1034.9695 2840.8999 4998198
1157.1724 999.60529 2743.8284 2498065
1167.0565 994.17358 2728.9189 3155483
1177.839 989.64502 2716.4883 2563348
1189.7209 986.14996 2706.8948 3352862
1197.8683 979.69354 2689.1724 4537646
1218.0845 983.14764 2698.6536 4273701
1231.3896 981.00653 2692.7764 4536616
1253.7205 986.01862 2706.5342 2825999
1258.1278 976.98572 2681.7397 2693389
1269.9185 973.84027 2673.1057 1707526
1278.9283 968.66602 2658.9028 1904648
1289.6732 964.91595 2648.6091 3155484
1305.0547 964.68317 2647.9702 3352606
1343.9451 981.62714 2694.48 1510661
1351.8812 975.82947 2678.5657 2957590
1342.1891 957.58929 2628.4983 3746850
1357.2822 957.24817 2627.5618 4076330
1380.5269 962.59833 2642.2476 656128
1372.6747 946.38892 2597.7542 2037778
1373.5813 936.51074 2570.6396 5326908
1424.0004 960.23682 2635.7654 4537132
1419.0787 946.53534 2598.156 4273193
1435.4246 947.16132 2599.8743 3944483
1432.5977 935.2572 2567.1985 2891794
1445.9078 934.0274 2563.823 2563342
1417.6184 906.23022 2487.5222 3155223
1414.7053 895.06055 2456.8623 3484701
1456.2922 911.9859 2503.3208 2497806
1462.7189 906.77319 2489.0125 4208424
1510.9481 927.32025 2545.4124 3418908
1542.4135 937.27435 2572.7354 3287321
1550.4119 932.9129 2560.7637 3155736
1567.6975 934.17029 2564.2151 3484702
1588.63 937.55566 2573.5076 3813666
1554.8337 908.88483 2494.8086 3221783
0 0 0 0
1512.1638 867.44501 2381.0601 6050629
1644.6091 934.69946 2565.6677 3024152
1659.2126 934.36096 2564.7385 2892310
1666.1564 929.75415 2552.0933 1313539
1685.2986 931.97614 2558.1924 5129788
1703.3661 933.5694 2562.5659 2760985
1726.8854 938.09619 2574.9915 1510919
1735.6943 934.62256 2565.4565 1708300
1740.4803 929.06171 2550.1924 1182216
1761.9497 932.42548 2559.4258 1182472
1760.3962 923.65228 2535.344 787458
1766.6873 919.10846 2522.8716 1248009
1769.6753 912.93695 2505.9314 459264
1824.1284 933.19702 2561.5435 1313802
1842.5503 934.84161 2566.0579 721922
1838.1499 924.97504 2538.9749 853250
1829.838 913.31622 2506.9727 2037524
1844.9756 913.4552 2507.354 1971985
1842.1514 904.77008 2483.5142 1643019
1825.2883 889.3822 2441.2756 1774349
1835.9417 887.53821 2436.2141 1511689
1825.8724 875.78357 2403.9487 2828063
1804.6049 858.8811 2357.553 3420199
1831.6853 865.07233 2374.5471 4012080
1847.1705 865.73468 2376.3652 3025440
1899.3387 883.44952 2424.991 3814957
1873.8047 865.02759 2374.4246 3946287
1866.4851 855.22626 2347.5208 4012083
0 0 0 0
2043.7689 922.70319 2532.7388 3617576
0 0 0 0
1868.8481 831.51801 2282.4436 3354146
1849.1385 816.83643 2242.144 4603440
1857.9729 814.8833 2236.783 4405548
1953.6674 850.78381 2335.3267 3089948
1946.2352 841.58563 2310.0784 3090205
1994.488 856.4267 2350.8159 3155998
0 0 0 0
2072.1855 877.5307 2408.7444 5986126
0 0 0 0
0 0 0 0
0 0 0 0
0 0 0 0
0 0 0 0
0 0 0 0
0 0 0 0
0 0 0 0
0 0 0 0
0 0 0 0
0 0 0 0
0 0 0 0
0 0 0 0
0 0 0 0
0 0 0 0
0 0 0 0
0 0 0 0
0 0 0 0
0 0 0 0
0 0 0 0
0 0 0 0
0 0 0 0
0 0 0 0
0 0 0 0
0 0 0 0
-2214.6138 929.59509 2510.8132 2169611
-2181.5598 921.91461 2490.0686 1642756
-2157.5339 917.97089 2479.4167 1906183
-2146.8921 919.70654 2484.1045 1642755
-2122.2319 915.41949 2472.5254 1248514
-2106.7761 915.07068 2471.5833 1643014
-2098.0959 917.68048 2478.6323 1708551
-2100.104 925.03503 2498.4968 1971723
-2089.6914 926.98419 2503.7615 2169102
-2080.4548 929.48663 2510.5205 2300688
-2071.8921 932.32843 2518.196 2103306
-2065.5872 936.23486 2528.7471 3090202
-2046.8651 934.52899 2524.1396 2761237
-2054.3816 944.86591 2552.0593 3221788
-2016.7389 934.43207 2523.8779 2432274
-2013.5472 939.92419 2538.7119 1840138
-1977.7229 930.15137 2512.3159 2037259
-1942.1475 920.34814 2485.8376 1379329
-1905.5875 909.92511 2457.6853 1642243
-1893.7698 911.24689 2461.2554 2168331
-1887.9003 915.47363 2472.6716 2432272
-1878.2224 917.90533 2479.2395 2432272
-1865.8744 919.06012 2482.3586 2432272
-1864.6322 925.74713 2500.4199 4142889
-1850.829 926.255 2501.7917 1905929
-1846.1898 931.39423 2515.6729 2366478
-1842.6132 937.15759 2531.2395 2695444
-1821.6635 934.10706 2523 3616546
-1823.03 942.54401 2545.7881 2234893
-1807.9432 942.54401 2545.7881 2235148
-1793.6882 942.98145 2546.9695 2235146
-1764.0284 935.25879 2526.1108 2761235
-1782.8625 953.33466 2574.9333 2827027
-1768.6976 953.92505 2576.5281 2760719
-1754.1204 954.30145 2577.5447 2629390
-1730.5796 949.7652 2565.2922 2037253
-1712.1135 947.95819 2560.4116 2431757
-1672.4948 934.30231 2523.5276 1379072
-1660.1886 935.79547 2527.5603 1641728
-1656.9255 942.45941 2545.5596 2365965
-1652.6738 948.67822 2562.3564 2300428
-1647.496 954.47589 2578.0159 1379328
-1623.6831 949.48492 2564.5354 1839878
-1623.1655 958.1507 2587.9414 1971208
-1604.095 955.9256 2581.9314 1905415
-1598.1991 961.58447 2597.2158 1773829
-1577.8894 958.59668 2589.146 2037000
-1563.6428 959.26978 2590.9639 1971462
-1549.313 959.90466 2592.6787 2366476
-1528.554 956.52905 2583.5613 2432013
-1517.1604 959.00519 2590.2493 2497806
-1493.1731 953.48981 2575.3525 2103048
-1488.2021 960.12933 2593.2856 2431754
-1470.308 958.48285 2588.8384 2761230
-1455.0486 958.53723 2588.9854 4208420
-1459.1145 971.45923 2623.8875 2958610
-1443.3685 971.32727 2623.531 2892817
-1427.2 970.90485 2622.3899 3089684
-1408.8832 968.99561 2617.2332 4800561
-1401.1919 974.43317 2631.9199 2497550
-1377.6941 968.87708 2616.9131 2365966
-1348.5386 959.17029 2590.6953 2958104
-1345.8188 968.25946 2615.2449 2497295
-1337.8551 973.74353 2630.0571 1708038
-1307.7866 963.07861 2601.2515 2037001
-1290.3564 961.57727 2597.1965 2168330
-1292.0796 974.48511 2632.0603 2694160
-1280.2733 977.37988 2639.8789 2168587
-1267.3513 979.48407 2645.5623 1839623
-1248.0491 976.64807 2637.9023 1444866
-1234.9198 978.63196 2643.2607 2102794
-1229.5656 986.90747 2665.6128 2892310
-1212.2666 985.68622 2662.3142 2431758
-1202.2695 990.4483 2675.1763 2168586
-1196.6633 999.00305 2698.2825 1905670
