# .PCD v0.7 - Point Cloud Data file format
VERSION 0.7
FIELDS x y z rgb
SIZE 4 4 4 4
TYPE F F F U
COUNT 1 1 1 1
WIDTH 1355
HEIGHT 1
VIEWPOINT 0 0 0 1 0 0 0
POINTS 1355
DATA ascii
964.21362 880.98151 5220.7739 3153936
985.04907 872.0368 5167.7666 3351315
1014.9308 871.39844 5163.9839 3417108
1045.8906 871.69586 5165.7466 3219729
1082.1515 876.26898 5192.8467 3022349
1107.4653 871.96997 5167.3706 3088143
1139.0245 872.68732 5171.6216 3088142
1166.2479 870.13208 5156.4795 3153935
1210.0383 879.75244 5213.4902 3088141
1224.3584 868.00067 5143.8486 3088397
1268.4633 877.42291 5199.6855 2956811
1300.7288 878.40283 5205.4927 3351569
1347.1135 888.65143 5266.2266 3877913
1386.0602 893.64026 5295.791 3351569
1418.5892 894.36224 5300.0693 3548948
1443.8604 890.57623 5277.6328 2759175
1476.1396 891.18164 5281.2207 2496260
1515.8792 896.17242 5310.7964 3417363
1530.9333 886.66327 5254.4443 3483413
1581.6299 897.76453 5320.2314 3615256
1625.7559 904.77509 5361.7769 3615770
1665.4932 909.12146 5387.5337 3222041
1736.0033 929.78571 5509.9922 4276793
1759.2931 924.86328 5480.8213 7239547
1804.2736 931.31549 5519.0576 7569542
1864.7708 945.40454 5602.5503 7700614
1903.7169 948.26587 5619.5068 7831943
1922.9619 941.38409 5578.7246 7963532
1973.6165 949.85144 5628.9033 8160651
2013.8706 953.11517 5648.2446 8226443
2033.054 946.46295 5608.8228 7963271
2053.0061 940.37695 5572.7568 7700100
2092.322 943.21265 5589.5615 8094088
2102.5095 933.03363 5529.2397 8159620
2123.9683 928.09229 5499.9565 8092796
2178.7009 937.61987 5556.418 4144441
2122.7371 899.93402 5333.0879 4341300
2175.5002 908.77228 5385.4648 3814697
2172.3936 894.35413 5300.021 4867125
2116.2688 858.83081 5089.5068 4801330
2071.4482 828.82898 4911.7134 3879970
2025.9941 799.40857 4737.3657 3682591
2017.9064 785.33472 4653.9629 5195573
2039.1833 782.91461 4639.6211 5590328
2054.7385 778.39142 4612.8159 5786680
2063.0881 771.29315 4570.751 5392176
2061.6335 760.76093 4508.3359 4733989
2028.7626 739.05359 4379.6968 4404771
2030.911 730.49066 4328.9521 4996908
2045.0542 726.40192 4304.7217 4075805
2094.8596 734.92505 4355.2305 3812634
2123.9517 736.0625 4361.9712 4075805
2136.1587 731.39136 4334.2896 3878428
2153.6479 728.61829 4317.856 3352597
2219.2815 742.0072 4397.1997 2628878
2226.134 735.66016 4359.5869 2497553
2245.8406 733.6579 4347.7212 1905417
2268.4854 732.64996 4341.748 1379588
2272.429 725.69257 4300.5181 2103054
2308.7971 729.12921 4320.8838 2892314
2305.5132 720.10553 4267.4087 2629141
2318.1267 716.18933 4244.2007 2234126
2320.5471 709.2417 4203.0288 2629652
2416.8296 730.82452 4330.9307 2760982
2419.979 724.0874 4291.0054 3024410
2437.79 721.83154 4277.6372 4143404
2444.0208 716.22852 4244.4331 2695702
2526.4626 732.84601 4342.9102 4670262
2547.2583 731.42725 4334.502 5459777
2566.4431 729.57874 4323.5479 7960169
2630.02 740.26172 4386.856 5657415
2615.5627 728.98651 4320.0381 7696484
2581.7625 712.591 4222.877 6446673
2640.729 721.86914 4277.8599 5854791
2626.9727 711.28027 4215.1094 6052426
2621.0034 702.97943 4165.918 6578512
2646.7861 703.27032 4167.6416 6117191
2683.0654 706.31903 4185.7085 5261882
2659.7874 693.77698 4111.3833 4208936
2674.0757 691.17242 4095.9487 5853762
2630.9097 673.89807 3993.5793 6577228
2603.2893 660.87817 3916.4221 5919555
2609.9258 656.70801 3891.7095 3156760
2642.7043 659.13116 3906.0693 6052166
2731.7036 675.41284 4002.5559 2565399
2787.2507 683.21436 4048.7883 6710097
2826.8613 687.0097 4071.2798 4933686
2836.4131 683.49738 4050.4656 5328443
2821.134 674.11072 3994.8391 5131064
2822.6487 668.85968 3963.7214 4999478
2845.4409 668.6958 3962.75 6511950
2729.5498 636.2099 3770.2358 5196604
2620.48 605.82849 3590.1929 5460287
2776.6997 636.77478 3773.5835 4669745
2803.3806 637.75708 3779.4045 5459261
2925.4478 660.25177 3912.7102 5065017
2967.3928 664.4519 3937.6006 4209964
3021.8931 671.37585 3978.6326 4538421
3105.157 684.53363 4056.6067 6315089
3187.9075 697.37689 4132.7168 5526342
0 0 0 0
0 0 0 0
2710.1941 579.51727 3434.2703 5854792
2806.4683 595.63049 3529.7588 6840656
2720.3003 573.07123 3396.0706 6840913
2734.741 571.88239 3389.0254 5722174
2747.4944 570.3606 3380.0071 4800558
2784.2607 573.80969 3400.4465 4734507
2801.5283 573.21954 3396.9495 4997679
2869.1616 582.86963 3454.1367 4931883
2866.8306 578.27039 3426.8813 4339749
2938.9575 588.64917 3488.387 3879712
3045.4497 605.71808 3589.5386 5261365
3076.5532 607.65985 3601.0457 5919038
3160.3958 619.91974 3673.699 4010787
3122.7485 608.34442 3605.1025 4932401
3216.0625 622.26575 3687.6013 5063986
3188.0254 612.67767 3630.7817 4998452
3146.6597 600.67383 3559.646 4537902
3128.2039 593.17413 3515.2021 4472108
3148.1548 593.00824 3514.219 4669487
3098.2424 579.771 3435.7739 7169622
3094.8066 575.34698 3409.5569 6381388
3107.9199 574.03699 3401.7937 6973270
3090.6421 567.16681 3361.0803 5394494
3064.5632 558.77985 3311.3784 5064503
3110.2551 563.50275 3339.3667 4472365
3064.8181 551.75995 3269.7778 4867124
3111.1772 556.58691 3298.3828 5195832
3119.9575 554.67285 3287.04 4932660
3151.6753 556.83502 3299.8533 5130039
0 0 0 0
0 0 0 0
0 0 0 0
0 0 0 0
0 0 0 0
-4274.6841 824.37537 4719.5728 3684665
-4169.5981 809.40533 4633.8691 3487797
-4133.7188 807.76044 4624.4521 3553333
-3986.877 784.26587 4489.9453 3355952
-3914.7786 775.25739 4438.3711 3290159
-3866.5466 770.88531 4413.3408 2829094
-3899.4297 782.7359 4481.186 3092266
-3885.4202 785.27179 4495.7036 2894116
-3838.9116 781.229 4472.5586 2894115
-3818.1277 782.40137 4479.2705 2894113
-3804.2644 785.01825 4494.2524 2828320
-3774.2405 784.31378 4490.2192 2762271
-3749.5688 784.71942 4492.5415 3025184
-3726.7144 785.51392 4497.0903 2629911
-3710.9937 787.83429 4510.3745 2630167
-3733.2539 798.31018 4570.3491 2827544
-3648.6653 785.92383 4499.437 2959130
-3633.3726 788.39136 4513.5635 2893594
-3624.7234 792.34784 4536.2144 3090717
-3576.4934 787.64655 4509.2993 2761752
-3569.3159 791.9834 4534.1279 2564373
-3537.7864 790.94165 4528.1641 2498580
-3515.1431 791.88599 4533.5703 2761752
-3480.4697 790.11383 4523.4248 2630166
-3500.9998 800.9433 4585.4238 2564373
-3424.3574 789.53772 4520.1265 2498579
-3429.4651 796.94946 4562.5591 2432530
-3318.6414 777.32452 4450.2056 2366480
-3265.3462 770.96802 4413.8145 2366224
-3296.9465 784.71509 4492.5166 2432531
-3271.3667 784.96558 4493.9507 3222303
-3232.9749 782.12067 4477.6636 3156767
-3195.4656 779.44397 4462.3394 2433301
-3167.2458 779.00739 4459.8398 3025694
-3121.7002 774.26617 4432.6963 2893596
-3129.5989 782.8125 4481.6245 2959645
-3096.9514 781.27667 4472.8315 2235151
-3115.2844 792.6861 4538.1514 1971979
-3084.5845 791.70929 4532.5591 2103565
-3056.2458 791.32672 4530.3687 2695959
-3059.7808 799.26318 4575.8052 2104079
-3040.1421 801.23419 4587.0894 2235409
-3023.6345 804.07343 4603.3438 2761752
-2963.2068 795.17828 4552.4189 3354145
-2972.2434 804.93182 4608.2578 2893596
-2972.3608 812.42828 4651.1758 2827544
-2919.8921 805.5575 4611.8398 2762008
-2885.8447 803.68695 4601.1309 2564373
-2877.738 809.07397 4631.9717 2235408
-2835.6699 804.92438 4608.2158 2893338
-2702.9697 774.71759 4435.2808 3288094
-2759.2598 798.61731 4572.1074 4143403
-2664.8499 778.9411 4459.4604 3090715
-2577.4822 760.94977 4356.4595 2367248
-2631.426 784.7359 4492.6357 2892824
-2626.6833 791.328 4530.376 2827031
-2602.3887 792.10516 4534.8252 2892824
-2594.5286 797.95312 4568.3047 2432274
-2583.4004 802.90863 4596.6753 2234894
-2548.4705 800.49341 4582.8481 2366480
-2495.9136 792.42981 4536.6836 2498067
-2462.9873 790.49103 4525.584 2761239
-2454.0959 796.30835 4558.8882 3024154
-2421.6982 794.54285 4548.7812 2761239
0 0 0 0
0 0 0 0
0 0 0 0
0 0 0 0
0 0 0 0
0 0 0 0
0 0 0 0
0 0 0 0
0 0 0 0
0 0 0 0
0 0 0 0
0 0 0 0
0 0 0 0
0 0 0 0
0 0 0 0
0 0 0 0
0 0 0 0
0 0 0 0
0 0 0 0
0 0 0 0
-421.31085 180.39963 1032.7931 13
-415.64645 180.59781 1033.9277 14
-409.49716 180.5881 1033.8722 14
-404.38895 181.04419 1036.4833 14
-397.34232 180.63315 1034.13 13
-391.58096 180.80266 1035.1005 13
-383.38943 179.8376 1029.5756 1052959
-381.59274 181.88954 1041.3229 1645354
-374.04031 181.22029 1037.4915 1514025
-369.37225 181.94949 1041.6661 1514025
-363.5849 182.14276 1042.7726 1514025
-358.14575 182.52016 1044.9332 1579818
-352.43674 182.77089 1046.3687 1514025
-348.89331 184.17375 1054.4001 526872
-342.65866 184.18127 1054.4431 15
-337.00571 184.50752 1056.3109 16
-330.95261 184.62288 1056.9714 16
-325.6553 185.17247 1060.1178 272
-319.01764 184.96654 1058.9388 1316648
-313.05423 185.15112 1059.9956 1514027
-307.02853 185.30568 1060.8804 1579821
-301.19324 185.58398 1062.4738 1645869
-294.85364 185.55682 1062.3182 1712176
-289.16354 185.94615 1064.5471 1645613
-282.00586 185.38809 1061.3522 1053477
-277.58405 186.64407 1068.5427 13
-271.60297 186.88582 1069.9268 14
-265.21036 186.84918 1069.717 14
-259.52652 187.32234 1072.4259 14
0 0 0 0
0 0 0 0
0 0 0 0
0 0 0 0
0 0 0 0
-889.01733 752.20123 4306.374 2365711
-909.7804 792.51935 4537.1963 2365966
-880.10449 790.01709 4522.8711 2563088
-843.61328 781.04785 4471.522 2365452
-834.83557 797.98712 4568.4995 2562831
-808.40485 798.6225 4572.1372 2431245
-798.78162 816.48187 4674.3828 2562831
-758.22467 802.86951 4596.4512 2365450
-728.26257 799.87915 4579.3315 2299658
-704.6087 803.85413 4602.0884 2233865
-676.97144 803.42181 4599.6133 2233865
-654.60907 809.47601 4634.2739 2694417
-625.85718 807.81335 4624.7549 2628624
-597.70184 806.80347 4618.9736 2957589
-573.20703 810.87512 4642.2837 2891796
-553.28986 822.1593 4706.8862 3088918
-522.48383 817.60248 4680.7983 2825745
-486.5199 804.01093 4602.9858 2957330
-463.56461 811.57935 4646.3154 2759695
-440.00415 818.97723 4688.6685 2891534
-392.90756 780.61194 4469.0259 2759949
-376.91406 802.96124 4596.9766 2759949
-352.11432 808.57098 4629.0923 2891535
-326.12131 812.15704 4649.623 2891535
-298.95462 813.2124 4655.6646 2825742
-271.96896 815.02478 4666.0405 2628107
-245.91418 820.35291 4696.5444 2957074
-218.72134 822.76001 4710.3247 2957587
-193.21907 833.16101 4769.8711 2957586
-164.18507 829.28827 4747.6997 2562830
-137.095 835.66302 4784.1953 2036745
-109.29738 839.9245 4808.5923 1642243
-81.867867 851.01849 4872.1055 1510402
-52.059265 835.99615 4786.1025 1970694
-23.733789 837.33643 4793.7754 2299657
4.7012124 842.00507 4820.5034 2497036
32.849304 831.39441 4759.7568 2694413
61.017155 830.85669 4756.6787 2628362
89.874863 837.08411 4792.3311 2825485
121.86832 862.51392 4937.9175 3549721
152.6925 871.42279 4988.9209 2825742
176.40483 843.43762 4828.7051 2891535
210.65428 866.6134 4961.3872 2890764
237.90714 858.85413 4916.9648 2627593
263.25598 846.66455 4847.1792 2693129
295.32123 856.34912 4902.6235 2627849
323.71262 854.59985 4892.6089 2167298
355.21848 860.68439 4927.4434 2365190
384.90985 861.78217 4933.728 2233605
417.39511 868.53857 4972.4087 2496521
444.80591 864.54102 4949.5225 2693899
473.13184 862.70667 4939.0205 2694155
491.71518 844.35651 4833.9653 2693899
519.15704 842.40063 4822.7686 2891279
554.4729 852.75909 4882.0708 2694156
591.15887 864.09271 4946.9561 3023121
620.89545 864.67749 4950.3037 2957073
656.84076 873.46576 5000.6172 2167815
686.84564 873.93671 5003.3135 2430985
712.03473 868.49469 4972.1577 2233607
735.01727 860.90082 4928.6821 2562315
773.62897 871.49353 4989.3262 3088143
797.81183 865.65076 4955.876 2824972
830.26379 868.87646 4974.3433 3087887
860.71625 869.86029 4979.9756 2824972
898.98895 878.42017 5028.981 3219730
934.0979 883.4386 5057.7114 3153935
956.88715 876.85559 5020.0234 3219729
986.29578 876.55243 5018.2881 3351315
1006.2301 868.09326 4969.8594 4667175
1045.3385 876.18671 5016.1948 3088143
1079.0093 879.40094 5034.5962 2759178
1106.0822 877.20953 5022.0503 3022093
1129.2756 872.1369 4993.0093 3154191
1158.5 871.862 4991.4355 2891018
1188.1506 871.91364 4991.731 2890762
1224.2855 876.60547 5018.5918 2891018
1240.9625 867.47314 4966.3091 3154190
1306.8842 892.39001 5108.959 4206877
1320.8256 881.48822 5046.5459 3746584
1380.183 900.70764 5156.5776 4141341
1416.6993 904.51117 5178.353 3614742
1462.9905 914.26202 5234.1768 2956557
1486.3937 909.60162 5207.4956 3219729
1494.4331 895.9201 5129.1689 3220498
1542.2611 906.16205 5187.8042 3680280
1568.132 903.3548 5171.7324 3417878
1576.8275 890.95062 5100.7183 3352598
1656.7158 918.4823 5258.3379 3024665
1684.425 916.60333 5247.5806 4079420
1722.5259 920.34479 5269.001 7436668
1809.5414 949.62286 5436.6187 8029065
1854.9342 956.41553 5475.5068 7832201
1879.9652 952.65656 5453.9863 8160911
1917.9642 955.48492 5470.1792 8160911
1949.6675 955.13507 5468.1763 8160655
2017.2067 972.06543 5565.103 8292495
2033.6636 964.23126 5520.2524 8226445
2048.9241 956.08691 5473.6255 7897220
2051.1799 942.2226 5394.252 7567225
2118.5532 958.237 5485.9346 6316898
2150.2788 957.88708 5483.9316 6316124
2102.9556 922.85809 5283.3896 4473662
2171.803 939.08911 5376.3125 1907477
2160.01 920.48584 5269.8081 2893857
2085.3352 875.99786 5015.1133 1643016
2060.2214 853.28693 4885.0928 3288095
2056.5974 839.98267 4808.9253 3485214
2029.7223 817.67517 4681.2144 5195573
2020.6648 803.05048 4597.4873 5392950
2037.145 798.82898 4573.3193 5720887
2050.2273 793.40344 4542.2578 5655094
2001.769 764.612 4377.4258 4931627
1996.5398 752.85797 4310.1338 4339493
2019.0273 751.72046 4303.6216 5260340
2027.1348 745.32416 4267.0024 5590330
2043.2955 742.01001 4248.0288 6050881
2050.6145 735.60468 4211.3584 4932400
2086.4138 739.44714 4233.3564 5194802
2137.5886 748.58289 4285.6587 4076834
2152.2537 744.86841 4264.3931 3221527
2182.8396 746.68628 4274.8008 4208679
2179.1921 736.88641 4218.6963 4340011
2197.541 734.6626 4205.9648 3616292
2216.2881 732.6203 4194.2725 2563348
2223.5244 726.86047 4161.2974 2169615
2260.8616 730.95886 4184.7607 3156253
2275.3379 727.65741 4165.8599 2893081
2298.9717 727.32391 4163.9507 2827032
2283.9707 714.90454 4092.8491 3616805
2329.0139 721.34302 4129.71 4012588
2320.8137 711.32855 4072.3767 3157024
2374.2874 720.22864 4123.3301 2959900
2434.6165 731.00586 4185.0298 2762266
2385.0637 708.90576 4058.5061 5262400
2428.5088 714.61249 4091.1772 9472893
2486.1582 724.34491 4146.8955 4078381
2510.1052 724.16351 4145.8574 5591101
2539.5747 725.56354 4153.8726 3485471
2552.165 722.16052 4134.3901 7169365
2547.7847 714.06592 4088.0481 5920325
2526.7915 701.5116 4016.1743 5328188
2625.5801 722.13617 4134.2505 5919558
2629.3066 716.47534 4101.8423 4274989
2601.7952 702.48401 4021.7415 2827030
2589.8401 692.90875 3966.9229 5853762
2567.6868 680.80182 3897.6104 5787969
2596.6934 682.35443 3906.499 4208936
2567.5657 668.73816 3828.5454 4998452
2615.8484 675.34583 3866.3748 3814179
2670.3572 683.43231 3912.6699 3222300
2732.6396 693.35193 3969.46 4670516
2717.9919 683.74933 3914.4849 8552304
2639.2839 658.33032 3768.9604 6052426
2729.6084 675.14685 3865.2354 4144429
2697.04 661.53979 3787.3347 5131324
2778.5864 675.91687 3869.6438 5920071
2714.3911 654.89581 3749.2976 5525310
2664.7063 637.68854 3650.7854 4867123
2688.5874 638.22162 3653.8374 4208938
2737.5278 644.64734 3690.6248 5196090
2710.813 633.29663 3625.6416 4670258
2802.8562 649.65045 3719.2676 4999734
2841.3535 653.43488 3740.9338 5328442
2879.4177 657.06195 3761.6987 7631198
2885.6013 653.41425 3740.8154 6710096
2700.9722 606.94397 3474.772 6249544
2735.5034 610.05255 3492.5686 6249288
2804.2405 620.68549 3553.4426 5985602
2795.6433 614.17053 3516.144 5853503
2765.988 603.15991 3453.1079 4602922
2762.3645 597.94592 3423.2578 4536615
2766.4351 594.46124 3403.3081 4273186
2772.6489 591.48438 3386.2651 4142370
2796.4758 592.28046 3390.823 4733994
2815.1831 591.98877 3389.1528 4471079
2841.9451 593.38287 3397.1343 4536871
2905.0249 602.28705 3448.1108 5063473
2882.7307 593.49023 3397.7488 3616285
3001.9028 613.73816 3513.6689 3616541
3083.6987 626.11823 3584.5452 3090456
3111.0613 627.35223 3591.6099 5722176
3060.5088 612.9646 3509.2402 5919555
3147.4958 626.13196 3584.6235 4932660
3133.906 619.24902 3545.2188 4998453
3119.7241 612.34161 3505.6736 4867893
3115.5002 607.46716 3477.7673 8025957
3081.3792 596.86572 3417.0737 7499357
3084.928 593.65173 3398.6736 4603951
3086.8484 590.16815 3378.7297 5722435
3092.0623 587.35504 3362.6248 5590849
3047.4568 575.17511 3292.8943 3945511
3064.4734 574.70667 3290.2124 4142889
3004.3745 559.87347 3205.292 4735280
3049.6118 564.73303 3233.113 4537645
3075.2498 565.92511 3239.9377 6379592
3085.7598 564.33575 3230.8386 4076838
0 0 0 0
0 0 0 0
0 0 0 0
0 0 0 0
0 0 0 0
-4043.1211 806.17242 4463.9102 3355182
-3973.1689 797.44202 4415.5684 3618354
-3940.6365 796.15613 4408.4482 3486768
-3918.2986 796.92639 4412.7134 3289388
-3835.6831 785.36499 4348.6963 3157801
-3816.209 786.66315 4355.8843 3025700
-3776.3994 783.75854 4339.8008 3288872
-3728.2588 779.07312 4313.8569 3222823
-3715.9609 781.86456 4329.3135 3354406
-3678.9053 779.44934 4315.9404 2828062
-3671.918 783.41559 4337.9019 2696476
-3708.1472 796.72314 4411.5879 2301716
-3623.2078 784.00085 4341.1426 3354404
-3632.615 791.65753 4383.5391 3156255
-3600.5347 790.31793 4376.1216 2498580
-3583.7034 792.33044 4387.2651 2630166
-3554.0896 791.5257 4382.8091 2564372
-3534.2803 792.90863 4390.4663 2432787
-3509.2893 793.14087 4391.7524 2498324
-3506.5874 798.45197 4421.1606 2300944
-3445.6147 790.47479 4376.9897 2432530
-3406.1604 787.35059 4359.6904 2498067
-3373.0449 785.65515 4350.3027 2301201
-3376.9048 792.6123 4388.8257 2695959
-3341.7654 790.4527 4376.8672 2695959
-3317.0264 790.73853 4378.4502 1906443
-3288.2725 790.06421 4374.7163 2169615
-3235.8335 783.64325 4339.1626 2761752
-3206.8147 782.83673 4334.6968 3024924
-3190.9595 785.25659 4348.0957 2827802
-3138.0168 778.51477 4310.7651 2762009
-3102.1001 775.92084 4296.4023 3419682
-3104.4709 782.94 4335.2686 3288353
-3060.9978 778.41821 4310.2305 2630165
-3044.3049 780.68787 4322.7979 3024924
-3042.1575 786.75769 4356.4077 2564372
-3009.1729 784.88812 4346.0557 2564116
-3006.3887 790.93158 4379.519 2499094
-2982.3679 791.44458 4382.3599 2499095
-2966.8889 794.2533 4397.9121 3880747
-2948.6594 796.36896 4409.627 4143920
-2961.7751 807.06378 4468.8457 3354404
-2887.1453 793.82581 4395.5449 3025437
-2811.74 780.13171 4319.7183 3025181
-2808.8521 786.49103 4354.9312 3288093
-2841.3013 802.95465 4446.0928 2959128
-2803.5537 799.703 4428.0884 3024409
-2691.0681 774.86993 4290.583 3484959
-2731.3132 793.95996 4396.2881 3419165
-2722.9688 799.15735 4425.0664 3419421
-2667.2344 790.41223 4376.6431 3353628
-2593.5618 776.12714 4297.5444 3090456
-2588.5447 782.30786 4331.7681 3484957
-2597.999 793.02972 4391.1372 3024663
-2535.5681 781.80383 4328.9775 3155993
-2517.3181 784.11035 4341.7485 3748131
-2507.9875 789.27124 4370.3257 3090202
-2484.9426 790.17908 4375.3521 2892822
-2493.6409 801.30615 4436.9648 2695446
-2449.2666 795.43439 4404.4521 2761238
-2456.415 806.34918 4464.8892 2892825
-2427.7419 805.61481 4460.8228 3155996
-2396.0708 803.8584 4451.0972 2827032
-2393.8613 812.05695 4496.4941 2893338
-2350.686 806.38715 4465.0991 3090717
-2318.3984 804.36566 4453.9058 2564373
0 0 0 0
0 0 0 0
0 0 0 0
0 0 0 0
0 0 0 0
0 0 0 0
0 0 0 0
0 0 0 0
0 0 0 0
0 0 0 0
0 0 0 0
0 0 0 0
0 0 0 0
0 0 0 0
0 0 0 0
0 0 0 0
-431.05344 185.44528 1026.8412 5987680
-428.21826 186.86354 1034.6943 1053726
0 0 0 0
-415.98865 186.87881 1034.7789 14
-409.76254 186.83606 1034.5422 14
-404.57596 187.27319 1036.9626 11
-397.81543 186.98399 1035.3613 12
-391.4032 186.85201 1034.6305 12
-385.29434 186.86296 1034.6912 855837
-381.21875 187.87633 1040.3024 1579561
-375.63626 188.16815 1041.9182 1579818
-370.09552 188.491 1043.7058 1579818
-364.67514 188.88715 1045.8994 1579819
-358.21246 188.7478 1045.1278 1645611
-352.76086 189.14568 1047.3309 1711148
-349.05551 190.51089 1054.8904 658457
-342.65125 190.42601 1054.4203 15
-337.06274 190.79974 1056.4897 14
-331.01367 190.92195 1057.1665 14
-325.93906 191.62178 1061.0415 16
-317.75812 190.487 1054.7581 1448234
-313.32254 191.59695 1060.9041 1514284
-307.37961 191.81174 1062.0934 1580077
-301.40875 192.01773 1063.234 1646639
-294.9007 191.883 1062.4879 1712176
-289.16663 192.25694 1064.5586 1645870
-283.48135 192.68076 1066.9053 1053476
-277.59436 192.98366 1068.5825 13
-271.6293 193.24516 1070.0305 14
-265.22208 193.19708 1069.7643 14
-259.52252 193.67479 1072.4094 14
0 0 0 0
0 0 0 0
0 0 0 0
0 0 0 0
0 0 0 0
-909.43268 795.58124 4405.2651 2300175
-870.37683 783.91821 4340.6851 2497551
-871.55438 808.88525 4478.9316 2431759
-797.87634 763.7655 4229.0962 2431244
-809.63055 800.15112 4430.5693 2365452
-791.46484 808.41522 4476.3291 2299658
-765.40894 808.91382 4479.0898 2562831
-736.32239 806.13031 4463.6768 2299659
-714.06677 810.89655 4490.0684 2562831
-684.68634 807.6275 4471.9673 2760210
-661.09314 811.19653 4491.7295 2431245
-635.93982 813.07043 4502.1055 2760210
-611.70844 816.33875 4520.2026 3615519
-578.68573 807.6369 4472.0195 2760210
-558.37115 816.68689 4522.1309 2628623
-530.98895 815.7912 4517.1709 2167814
-501.40903 811.24445 4491.9946 2496523
-473.93204 809.78101 4483.8916 2364680
-450.38486 815.2572 4514.2144 2628106
-424.42355 816.77924 4522.6421 2693899
-397.05386 815.61353 4516.187 2693642
-368.70599 812.12457 4496.8682 2956813
-341.49222 810.78448 4489.4482 3022094
-317.24051 816.84497 4523.0059 3088914
-289.87238 815.25916 4514.2251 2759949
-267.10257 827.59857 4582.5503 2693899
-243.31949 839.23615 4646.9897 3615517
-215.03693 836.34454 4630.978 3089173
-187.92294 837.81653 4639.1289 3089429
-160.043 835.79303 4627.9243 3089943
-135.60403 854.61865 4732.165 3023896
-107.0971 850.93896 4711.79 2037001
-80.075218 860.62469 4765.4214 2102794
-50.340885 835.82874 4628.1221 2168841
-23.001757 839.04279 4645.9189 2365450
4.5048914 834.21759 4619.2007 2825743
32.204357 842.72467 4666.3062 2825741
61.907051 871.57446 4826.0522 2957327
88.070618 848.1098 4696.1245 2825741
119.8968 877.35034 4858.0342 2562570
143.3688 845.97211 4684.2876 2759949
179.96204 889.63861 4926.0762 2694158
208.19498 885.55505 4903.4648 1838594
227.8269 850.36847 4708.6309 2167558
253.21223 841.992 4662.2495 2496523
284.08304 851.7099 4716.0586 2628109
311.84369 851.19745 4713.2212 2496523
345.31775 865.08252 4790.105 2562573
371.03525 858.9024 4755.8848 2694415
404.30475 869.84283 4816.4639 2562829
430.80261 865.73218 4793.7021 2628622
457.8623 863.18927 4779.6221 2760208
484.04568 859.38696 4758.5679 2168072
507.05731 850.68201 4710.3672 2431245
547.58295 870.73529 4821.4053 3352347
573.96454 867.42389 4803.0698 2826004
602.43311 867.43036 4803.106 2628881
628.74689 864.47375 4786.7344 2628879
651.8136 857.50067 4748.123 3220759
673.24689 849.04468 4701.3013 2628108
711.13483 861.1875 4768.5376 2562316
737.62927 859.13184 4757.1553 2628364
780.15588 875.2132 4846.2002 3286294
798.78278 864.29272 4785.7319 2562571
832.5896 869.98291 4817.2393 2957328
861.70898 870.56006 4820.4355 2627593
909.85883 889.70935 4926.4678 3417109
934.1748 885.08643 4900.8701 3548695
956.78137 879.17151 4868.1182 3088144
980.16406 874.29517 4841.1172 2627593
1023.5254 887.01013 4911.522 3219730
1050.9653 885.60553 4903.7446 3153936
1074.8036 881.3233 4880.0332 2627592
1105.2953 882.57819 4886.9814 2956813
1119.2238 870.88104 4822.2124 2825225
1153.9958 875.58118 4848.2378 3285776
1189.4099 880.52808 4875.6299 3351569
1225.3595 885.6275 4903.8662 3219983
1255.9449 886.70355 4909.8242 3022604
1285.7235 887.17401 4912.4297 3614741
1326.2795 894.89581 4955.186 4536100
1347.0254 889.20569 4923.6792 4075805
1394.8617 901.2608 4990.4307 4405030
1436.9019 909.14813 5034.104 4141858
1486.6654 921.50189 5102.5088 2694414
1475.2131 896.17523 4962.2705 1575936
1492.1039 888.72003 4920.9902 1839622
1533.6798 895.97174 4961.144 1971208
1529.6154 876.78918 4854.9268 2826517
1559.3297 877.31976 4857.8647 3157280
1693.9877 935.80481 5181.7061 5988184
1689.0042 916.43896 5074.4741 7897732
1780.7721 949.3288 5256.5908 7897994
1836.6146 962.2652 5328.2217 7963789
1861.6097 958.87537 5309.4517 7963532
1893.8461 959.26611 5311.6152 8029325
1931.8926 962.53888 5329.7373 8160651
1955.6326 958.69293 5308.4419 8094859
1988.0625 959.1615 5311.0361 8094603
2005.2955 952.39777 5273.584 8160137
2029.9822 949.32721 5256.582 7765379
2067.8254 952.4093 5273.6479 7633792
2087.9675 947.36804 5245.7339 7699325
2124.8711 949.96826 5260.1318 7435380
2127.228 937.27185 5189.8296 1447186
2086.3997 906.18079 5017.6733 2433305
2066.9351 885.112 4901.0117 2827803
2016.4901 851.54443 4715.1426 4406575
2027.7622 844.60065 4676.6938 4866865
2034.4515 835.96118 4628.8555 5655866
2020.4691 819.17047 4535.8823 4865580
1948.193 779.49658 4316.2017 3878942
1975.0576 780.00439 4319.0137 4602408
1967.5586 767.10175 4247.5693 6840140
1966.4446 756.98297 4191.54 5195316
2014.3083 765.73541 4240.0039 6708811
2054.2354 771.29218 4270.7725 6906190
2053.3274 761.56824 4216.9297 4603435
2066.3384 757.17859 4192.623 4997164
2125.9333 769.76044 4262.291 5655607
2117.8127 757.8161 4196.1533 4932140
2133.0229 754.40063 4177.2412 4931885
2170.7793 758.94611 4202.4102 4997680
2167.9226 749.35028 4149.2769 4997936
2176.9751 744.04016 4119.8735 4998193
2179.3015 736.5744 4078.5344 5129779
2256.6123 754.3382 4176.8955 4603435
2264.6936 748.82568 4146.3716 5919554
2288.6282 748.617 4145.2163 4669747
2274.0498 735.94897 4075.0713 2630166
2269.8926 726.88422 4024.8784 5064505
2277.1218 721.61639 3995.7097 4932663
2344.7839 735.41107 4072.0928 3616803
2384.2361 740.16699 4098.4272 3748646
2381.6526 731.909 4052.7014 4669491
2427.167 738.4494 4088.9167 2827032
2391.6348 720.44635 3989.2307 3090203
2443.9763 729.00739 4036.6345 4997687
2462.9263 727.53864 4028.502 4537135
2420.5303 708.15076 3921.1482 3944741
2488.9753 721.25092 3993.6855 3748131
2535.5413 727.82385 4030.0813 3748132
2562.9788 728.83459 4035.678 3353117
2598.3687 732.06726 4053.5776 2432273
2541.1069 709.37598 3927.9321 3484960
2538.4229 702.19421 3888.1658 5129528
2547.6309 698.40179 3867.1665 5063733
2587.978 703.13721 3893.3875 4471853
2533.646 682.2926 3777.9673 3879715
2523.4409 673.59216 3729.7915 3682336
2543.0244 672.92529 3726.0989 4143144
2554.3545 670.10474 3710.481 3222301
2522.1809 656.01703 3632.4751 5656640
2560.6672 660.39093 3656.6941 4933943
2675.6482 684.2536 3788.8254 8486508
2680.6172 679.81946 3764.2729 5261883
2712.5051 682.22888 3777.6145 5919812
2641.946 659.04321 3649.2314 5722433
2640.0549 653.22437 3617.0115 3617058
2645.6541 649.33765 3595.49 3814690
2646.0271 644.2406 3567.2668 6775375
2663.5645 643.3703 3562.448 5722943
2665.5547 638.7879 3537.0745 5262135
2680.1519 637.2746 3528.6951 3880483
2774.2891 654.55109 3624.3577 7828063
2767.4722 647.92645 3587.676 6709582
2709.8557 629.60022 3486.2007 5920065
2736.9658 631.08746 3494.4358 6182723
2754.9497 630.46393 3490.9829 5130292
2729.6887 620.02692 3433.1917 5655351
2754.2803 620.98413 3438.4919 5391922
2727.1118 610.34314 3379.571 4339492
2733.1716 607.23975 3362.387 4273187
2738.5256 604.02557 3344.5896 3747612
2770.198 606.62085 3358.9602 4207907
2782.4438 604.95538 3349.7383 4536872
2816.6169 608.04718 3366.8582 3616540
2881.0183 617.57526 3419.6165 5195572
2842.4458 605.05084 3350.2666 3616285
2912.3203 615.62439 3408.8142 4998194
3010.6077 632.01697 3499.5828 4998451
3040.1958 633.86188 3509.7983 4537901
3068.3433 635.38342 3518.2234 4669744
3096.3738 636.86041 3526.4016 4406576
3153.8667 644.33667 3567.7988 5328447
3088.6902 626.81891 3470.8 7697252
3061.9395 617.27948 3417.9785 8683890
3073.2292 615.48383 3408.0359 5788228
3072.6177 611.34369 3385.1113 4142890
3089.615 610.7381 3381.7581 3616548
3050.6675 599.15277 3317.6079 3287582
3052.2625 595.62732 3298.0869 3024411
3030.2998 587.57886 3253.5215 4537650
3021.0557 582.08282 3223.0889 4998199
3020.7979 578.37634 3202.5654 5261114
3036.2427 577.70386 3198.8418 4142377
3072.2051 580.91937 3216.6467 4537391
0 0 0 0
0 0 0 0
0 0 0 0
0 0 0 0
0 0 0 0
0 0 0 0
-3900.155 808.47437 4334.4248 3421228
-3839.1616 801.10699 4294.9268 3223079
-3754.9016 788.75391 4228.6987 2564892
-3703.9385 783.27618 4199.3315 2762527
-3694.2832 786.51886 4216.7163 2433306
-3637.6157 779.72852 4180.3115 2630429
-3623.7693 782.08691 4192.9551 2169878
-3643.8315 791.84644 4245.2783 2564890
-3608.8516 789.69727 4233.7563 1775374
-3634.0681 800.78253 4293.187 2433561
-3617.4043 802.73059 4303.6309 3025439
-3607.8516 806.29547 4322.7432 2828060
-3546.1211 798.16724 4279.1655 2564117
-3532.6829 800.86957 4293.6538 2366737
-3506.0723 800.60345 4292.2271 2366737
-3455.7493 794.87927 4261.5381 3485475
-3465.0376 802.88318 4304.4492 2432787
-3442.6199 803.6048 4308.3179 2235408
-3431.2053 806.92487 4326.1177 2038285
-3387.1389 802.55835 4302.7075 1840393
-3307.0425 789.52356 4232.8252 3024924
-3368.238 810.27954 4344.103 2498580
-3245.9988 786.88751 4218.6924 2827545
-3276.1562 800.36261 4290.9355 2695959
-3232.9102 795.97583 4267.417 2630166
-3198.281 793.65826 4254.9922 3024924
-3169.9626 792.88226 4250.8315 2761752
-3161.0115 796.97681 4272.7837 2432530
-3091.6316 785.77881 4212.7485 2630166
-3070.6235 786.79285 4218.1851 2893082
-3039.0376 785.09094 4209.0605 3024924
-2998.3047 780.97833 4187.0117 3024924
-2961.3679 777.79407 4169.9404 3024668
-2971.9355 787.13818 4220.0361 2498580
-2956.7712 789.76752 4234.1333 2564373
-2944.0833 793.10925 4252.0488 2696216
-2952.6326 802.27905 4301.2104 3354146
-2894.1006 793.22278 4252.6577 3946283
-2888.8037 798.7265 4282.1641 2564630
-2885.4663 804.87421 4315.1235 3090717
-2861.2151 805.24597 4317.1167 3419682
-2786.2576 791.22528 4241.9482 2959131
-2773.0166 794.6347 4260.2271 3419681
-2808.4968 812.19659 4354.3804 3484960
-2783.5183 812.43774 4355.6733 2827030
-2784.8477 820.43396 4398.543 2892823
-2722.9475 809.77753 4341.4111 3222044
-2713.2063 814.57715 4367.1436 2498321
-2555.0881 774.49359 4152.2456 3090457
-2595.7817 794.47992 4259.397 3485470
-2559.3777 791.03003 4240.9014 3090456
-2574.0344 803.44971 4307.4863 3814178
-2526.8054 796.60785 4270.8057 3353627
-2484.325 791.13983 4241.4902 3024409
-2473.0137 795.58728 4265.334 2629651
-2432.1804 790.53119 4238.2271 2892823
-2441.2817 801.76904 4298.4761 2761236
-2422.6536 804.04095 4310.6562 2958618
-2437.2488 817.50507 4382.8408 2958618
-2371.8801 804.14886 4311.2349 2958618
-2360.0752 808.85938 4336.4893 2892824
-2340.3169 810.91791 4347.5254 3155997
-2313.2087 810.44708 4345.001 3156510
-2233.623 791.37292 4242.7397 2630166
-2225.0759 797.31989 4274.623 2695959
0 0 0 0
0 0 0 0
0 0 0 0
0 0 0 0
0 0 0 0
0 0 0 0
0 0 0 0
0 0 0 0
0 0 0 0
0 0 0 0
0 0 0 0
0 0 0 0
0 0 0 0
0 0 0 0
0 0 0 0
0 0 0 0
0 0 0 0
-426.03751 192.0125 1029.425 1120032
-422.43073 193.15277 1035.5383 13
-416.0087 193.02045 1034.8289 14
-410.05334 193.10391 1035.2764 13
-404.22623 193.25124 1036.0662 11
-398.49326 193.44881 1037.1254 11
-390.5206 192.54828 1032.2975 11
-385.27176 192.98344 1034.6305 658459
-381.26059 194.06267 1040.4165 1513768
-375.75012 194.40169 1042.234 1514025
-370.21405 194.73856 1044.04 1514025
-364.84531 195.17641 1046.3875 1448233
-358.85724 195.29234 1047.009 1514025
-352.81366 195.38162 1047.4877 1579818
-348.60538 196.50867 1053.53 592663
-342.62094 196.65732 1054.327 14
-336.87848 196.95297 1055.9121 14
-331.08313 197.22833 1057.3883 14
-325.32919 197.53944 1059.0563 15
-318.67099 197.30292 1057.7882 1448234
-313.45413 197.96721 1061.3496 1514797
-307.37033 198.09998 1062.0614 1580590
-301.39725 198.31111 1063.1935 1646383
-295.61633 198.66045 1065.0663 1646383
-289.23593 198.61331 1064.8136 1711406
-284.3985 199.64732 1070.3571 1053729
-277.52179 199.26419 1068.3031 14
-271.58511 199.55394 1069.8564 14
-265.26685 199.57043 1069.9449 14
-259.54736 200.04926 1072.512 14
0 0 0 0
0 0 0 0
0 0 0 0
0 0 0 0
0 0 0 0
0 0 0 0
-877.78656 816.53479 4377.6387 2168587
-835.92944 801.28003 4295.8545 2431759
-790.97186 782.00177 4192.499 2497037
-786.30267 802.59644 4302.9116 2628366
-779.34937 822.1618 4407.8066 3023381
-740.93726 808.74664 4335.8843 3286554
-721.7179 816.06921 4375.1426 2299659
-702.91357 824.42432 4419.9365 2628623
-673.06476 819.97113 4396.062 2628624
-647.30377 820.34003 4398.0396 2628624
-621.57294 820.7796 4400.396 2628624
-595.25989 820.45514 4398.6567 3089173
-568.96362 820.12531 4396.8882 2891794
-544.27637 822.19427 4407.9805 3220246
-513.48633 814.78809 4368.2744 2562314
-491.60828 821.48767 4404.1924 2364937
-466.60294 823.4198 4414.5508 2167814
-440.33652 823.22382 4413.5 2430730
-418.79767 832.39941 4462.6929 2167557
-392.78516 833.32098 4467.6333 1904385
-362.86652 825.48956 4425.6475 1970434
-335.9397 823.77448 4416.4521 2693129
-311.64215 828.76135 4443.1885 2693899
-285.00717 827.87921 4438.459 2759949
-261.67093 837.3739 4489.3623 2957585
-240.26102 855.88019 4588.5786 2431500
-211.6554 850.20532 4558.1543 2760978
-185.70619 855.10175 4584.4053 2103050
-158.35899 854.13611 4579.2285 2365966
-133.0298 865.90643 4642.332 2300430
-105.52436 865.95575 4642.5967 2629651
-77.63269 861.75262 4620.062 1379844
-49.816986 854.27203 4579.957 1642243
-22.719557 855.94379 4588.9199 2102537
4.4712901 855.16547 4584.7471 2233864
31.683327 856.29645 4590.8105 2299657
59.873558 870.6062 4667.5283 2628622
85.1866 847.25598 4542.3423 2365447
112.5425 850.55872 4560.0493 2759949
140.79842 858.0675 4600.3057 2825742
169.31758 864.48425 4634.707 2496777
194.74176 855.51312 4586.6108 2365191
227.72826 877.89246 4706.5918 2628363
252.39517 866.81543 4647.2056 2694155
277.78085 860.14362 4611.436 2496520
304.96243 859.7298 4609.2178 2628363
337.40915 873.00702 4680.3999 3944223
364.75214 872.06494 4675.3491 2233863
392.78497 872.78864 4679.229 2168071
421.14926 874.10498 4686.2861 2365193
448.54541 873.37329 4682.3633 2759951
475.01035 871.01917 4669.7427 2628622
499.96188 866.30206 4644.4531 2497036
529.88141 870.23633 4665.5454 3681310
556.81854 869.12512 4659.5879 2760208
581.97614 865.4726 4640.0059 3089429
620.2395 880.76031 4721.9668 3154453
641.03107 870.98853 4669.5781 2957328
667.1275 868.93506 4658.5693 3023121
695.88184 870.36932 4666.2583 2891535
722.69617 869.36023 4660.8481 2891534
757.87231 878.11377 4707.7783 2628363
783.00787 875.02521 4691.2197 2759949
816.18689 880.82898 4722.3354 2957328
856.61664 893.8136 4791.9487 3153936
871.72217 880.38885 4719.9756 2956558
906.12689 886.6839 4753.7251 3153937
934.78918 887.1496 4756.2217 2824972
958.84326 883.34265 4735.8115 2956558
986.23627 882.74078 4732.585 2956557
1018.2419 886.18677 4751.0596 3219729
1059.2334 897.05719 4809.3384 3087886
1075.4082 886.89154 4754.8379 3022349
1101.1521 884.9353 4744.3501 3022604
1134.075 888.70209 4764.5449 2956811
1169.1708 893.9472 4792.6655 3154190
1200.8925 896.42511 4805.9497 3154190
1223.7384 892.3161 4783.9204 3285775
1262.7997 899.94916 4824.8433 3614741
1277.7207 890.42139 4773.7627 4667944
1333.9098 909.44244 4875.7388 3944221
1358.2576 906.40808 4859.4712 3483927
1396.1511 912.35162 4891.3359 3549721
1418.3251 907.99005 4867.9521 2694413
1440.1294 903.57031 4844.2568 2628622
1468.5958 903.42169 4843.46 2827028
1499.7123 904.87769 4851.2661 3353372
1513.3341 895.92169 4803.251 3287322
1553.8002 902.89532 4840.6382 2695953
1615.7815 921.89172 4942.4824 2960157
1641.8429 920.0824 4932.7822 6646120
1688.6293 929.74731 4984.5981 7371131
1796.1993 971.9715 5210.9722 8029580
1825.6622 971.21692 5206.9268 8160909
1858.8853 972.45453 5213.562 8160911
1895.3578 975.32379 5228.9443 8358290
1912.317 968.22101 5190.8647 8358290
1937.8236 965.60217 5176.8247 8424080
1972.96 967.7887 5188.5469 8160652
1999.828 965.91443 5178.4985 7897477
2039.1995 970.04474 5200.6421 7502720
2055.845 963.40228 5165.0303 7305082
2089.5288 964.82196 5172.6416 7369847
2092.1121 952.04785 5104.1567 7632500
2046.6068 918.06635 4921.9736 2434593
2072.3188 916.53748 4913.7773 2499353
2032.0437 886.271 4751.5112 4801594
2063.9182 887.86963 4760.0815 4077613
2014.4712 854.91339 4583.3955 3879720
1979.6216 828.94659 4444.1812 4274735
1967.521 813.06238 4359.0225 3090458
1941.3639 791.85663 4245.333 4209194
1970.7222 793.54761 4254.3989 5787965
1984.6692 789.0686 4230.3862 6182465
2020.3875 793.24939 4252.7998 5853243
2027.6805 786.30414 4215.5649 5129263
2041.0465 781.85437 4191.7085 5457972
2060.5681 779.84125 4180.9155 5786423
2060.2458 770.45502 4130.5938 4931114
2077.4409 767.76312 4116.1621 3088911
2120.2068 774.47424 4152.1421 2694155
2128.7998 768.69196 4121.1416 4207395
2124.061 758.28143 4065.3286 5129271
2122.3367 749.16852 4016.4719 3682082
2181.9546 761.67084 4083.4998 5787714
2206.625 761.83325 4084.3708 3945510
2254.9155 770.05865 4128.4688 4340267
2254.7793 761.74701 4083.9084 4735539
2250.8088 752.33044 4033.4238 5327680
2244.8376 742.44995 3980.4521 5328193
2267.5615 742.16681 3978.9341 4012334
2329.4128 754.5639 4045.3979 3749161
2335.3013 748.7652 4014.3096 4012074
2361.95 749.67267 4019.1748 2169614
2350.5713 738.61273 3959.8799 2169102
2356.8071 733.25177 3931.1387 1971723
2437.425 750.91101 4025.814 2168589
2432.0601 741.99548 3978.0156 2694931
2449.4761 740.13464 3968.0391 1839622
2453.8938 734.41888 3937.3958 2958103
2482.3521 735.93811 3945.5405 2694930
2492.2622 731.98138 3924.3276 3419167
2515.6165 732.00977 3924.48 3353372
2516.6367 725.59839 3890.1069 4406572
2467.7883 705.05579 3779.9731 5261625
2467.1589 698.5351 3745.0142 5787969
2475.2344 694.57343 3723.7744 5722175
2509.1643 697.87262 3741.4624 3682593
2472.8264 681.74164 3654.9802 4011300
2483.3386 678.69482 3638.6458 4011558
2498.3445 676.91815 3629.1204 3814179
2524.0415 678.04376 3635.155 3551007
2533.8037 674.90588 3618.3323 5459260
2656.8796 701.74969 3762.2483 6182981
2688.8369 704.28027 3775.8154 5196088
2647.6602 687.77142 3687.3074 4142629
2607.2107 671.72015 3601.2527 2826257
2600.2603 664.49011 3562.4907 8419430
2595.3694 657.89868 3527.1523 5393722
2651.5081 666.75928 3574.6562 4801072
2652.0793 661.61694 3547.0869 4735279
2678.7029 663.00366 3554.5215 4998451
2698.6929 662.73975 3553.1064 5459002
2683.9983 654.02802 3506.4009 5919553
2698.7542 652.57141 3498.5918 5787967
2713.2356 651.07123 3490.5488 6445896
2720.8989 647.96997 3473.9224 5722427
2721.4797 643.24133 3448.5708 5721913
2734.4519 641.49011 3439.1824 5589555
2731.0933 635.96198 3409.5447 4866085
2680.5247 619.6026 3321.8379 4207644
2720.5723 624.27484 3346.887 4667684
2728.7544 621.62048 3332.6562 4207648
2747.9812 621.50214 3332.0217 4207649
2737.7539 614.77142 3295.937 3286805
2742.502 611.47504 3278.2642 3352343
2824.6641 625.36414 3352.7268 3352343
2839.4255 624.24121 3346.7068 2958611
2944.0054 642.74329 3445.9009 4274215
3011.0266 652.84711 3500.0698 5590846
3067.959 660.64014 3541.8501 3814179
3058.3096 654.08728 3506.7185 5130039
3081.4036 654.57855 3509.3523 4801330
3078.4136 649.55927 3482.4429 4407088
3097.2134 649.17407 3480.3777 6512721
3093.9612 644.20245 3453.7236 6315855
3049.5964 630.7923 3381.8286 4735541
3097.6406 636.54663 3412.6792 3879975
3005.1155 613.52759 3289.2686 3879721
3049.9473 618.66748 3316.8247 3287582
3024.4578 609.56854 3268.043 4866613
2990.688 598.92706 3210.9917 4932662
2993.0623 595.61285 3193.2231 4669747
3011.8704 595.58997 3193.1006 5130044
3052.2283 599.80225 3215.6836 3550755
3057.8804 597.18439 3201.6487 3813926
0 0 0 0
0 0 0 0
0 0 0 0
0 0 0 0
0 0 0 0
0 0 0 0
-3703.5854 792.11896 4115.9678 2762266
-3741.6392 805.56329 4185.8267 3025439
-3683.3923 798.31567 4148.1665 2828059
-3639.6946 794.14496 4126.4951 2893853
-3592.4661 789.14233 4100.5005 2762266
-3548.4666 784.78552 4077.8623 2959645
-3491.1604 777.40613 4039.5173 2959134
-3514.5796 788.0246 4094.6926 2827289
-3483.3806 786.45923 4086.5591 2761497
-3449.5405 784.27161 4075.1917 3222048
-3457.4573 791.61365 4113.3418 2827290
-3422.0344 789.06659 4100.1069 2169103
-3494.0042 811.42316 4216.2749 2564118
-3451.2595 807.26935 4194.6914 2366737
-3414.4343 804.45013 4180.042 2432787
-3376.5186 801.33069 4163.833 3024924
-3284.9744 785.3443 4080.7656 2564373
-3356.6201 808.42426 4200.6924 2629911
-3322.3589 806.15137 4188.8823 3024924
-3294.7332 805.46643 4185.3232 3156509
-3268.6406 805.14893 4183.6733 3222303
-3227.6406 801.12622 4162.771 2827545
-3181.2583 795.6955 4134.5518 3090717
-3184.9407 802.79968 4171.4663 3156510
-3130.3037 795.20001 4131.9775 2827544
-3103.6128 794.63574 4129.0454 2630166
-3070.2021 792.32831 4117.0557 2498579
-3059.3818 795.8606 4135.4097 2235408
-3015.8933 790.883 4109.5454 2038028
-3011.5713 796.17889 4137.0635 2827545
-2948.9106 786.01202 4084.2349 2301201
-2900.0911 779.39667 4049.8606 2366994
-2887.52 782.49384 4065.9541 2169615
-2882.8801 787.81061 4093.5808 3419682
-2826.6626 779.00323 4047.8164 4274991
-2816.9624 782.97455 4068.4519 2893338
-2832.4443 794.07434 4126.1279 3090716
-2826.7356 799.37476 4153.6699 3222302
-2832.1399 807.93872 4198.1694 3090716
-2785.9517 801.80591 4166.3022 3287839
-2727.8406 792.10126 4115.876 3287582
-2711.8887 794.57416 4128.7251 3550754
-2702.355 798.98956 4151.6685 3155994
-2744.8113 818.99896 4255.6401 3550752
-2670.041 804.07697 4178.103 3156249
-2646.9172 804.5744 4180.688 3222041
-2630.6487 807.18469 4194.2515 2235147
-2608.4895 808.02008 4198.5923 2366220
-2572.6272 804.58594 4180.748 3353114
-2538.8857 801.7547 4166.0366 3550494
-2503.2864 798.27557 4147.958 3287322
-2464.3887 793.66498 4124.001 3682080
-2452.4172 797.72064 4145.0747 3089688
-2430.9492 798.73816 4150.3618 3024408
-2428.4883 806.08539 4188.5391 2827031
-2417.8816 810.85254 4213.3101 2103309
-2407.2898 815.72437 4238.625 2827032
-2380.426 815.12695 4235.5205 2432274
-2359.2178 816.474 4242.52 2366481
-2318.1238 810.89386 4213.5249 2234638
-2314.6077 818.48041 4252.9458 1971723
-2269.2107 811.26117 4215.4336 2300688
-2235.4199 808.07684 4198.8872 2958875
-2224.3335 813.12042 4225.0942 2761751
-2197.4348 812.4328 4221.5215 2432787
0 0 0 0
0 0 0 0
0 0 0 0
0 0 0 0
0 0 0 0
0 0 0 0
0 0 0 0
0 0 0 0
0 0 0 0
0 0 0 0
0 0 0 0
0 0 0 0
0 0 0 0
0 0 0 0
0 0 0 0
0 0 0 0
0 0 0 0
-427.05283 198.58524 1031.8783 988704
-422.17865 199.17067 1034.9204 11
-416.06671 199.18083 1034.9731 12
-410.24216 199.33092 1035.7531 12
-404.23553 199.39578 1036.0901 12
-398.81354 199.75545 1037.959 12
-390.51917 198.66516 1032.2937 11
-385.64783 199.30925 1035.6404 461080
-382.57617 200.91933 1044.0066 1513768
-375.94684 200.6832 1042.7797 1579561
-370.45355 201.05574 1044.7155 1579818
-365.13187 201.53569 1047.2094 1579818
-358.93286 201.53961 1047.2297 1579819
-352.939 201.66089 1047.8599 1579818
-349.10422 203.04222 1055.0376 592666
-342.41626 202.78427 1053.6971 14
-336.76752 203.1436 1055.5643 14
-331.17648 203.552 1057.6864 14
-325.18488 203.7252 1058.5864 15
-319.08981 203.83914 1059.1785 1316648
-313.67841 204.40312 1062.109 1580333
-307.77493 204.66302 1063.4595 1646383
-301.77722 204.8698 1064.5338 1646383
-295.77716 205.08376 1065.6456 1646383
-290.13467 205.56041 1068.1223 1711406
-284.31989 205.93353 1070.0612 1119269
-277.92838 205.89642 1069.8683 13
-271.60049 205.90576 1069.917 14
-265.33725 205.96579 1070.2289 14
-259.4892 206.35893 1072.2717 14
0 0 0 0
0 0 0 0
0 0 0 0
0 0 0 0
0 0 0 0
-875.63385 816.28625 4241.5444 2760727
-837.02161 803.35236 4174.3384 2629397
-824.83148 815.76233 4238.8223 2694931
-810.80737 827.08112 4297.6362 2168072
-783.05951 824.68079 4285.1641 2760210
-754.66339 821.414 4268.189 2694417
-743.57477 837.41235 4351.3188 2760210
-713.26941 832.14069 4323.9268 2299659
-686.24084 830.44165 4315.0981 2957332
-652.95721 820.7486 4264.7314 2957589
-627.20581 820.1239 4261.4858 2628622
-603.55762 822.31244 4272.8574 2627852
-577.82507 821.72845 4269.8228 2364680
-555.15106 825.63965 4290.146 3022867
-531.08032 827.74927 4301.1084 2825742
-501.11966 820.42883 4263.0698 2694155
-478.53015 825.03973 4287.0288 2562570
-454.08627 826.7912 4296.1299 2694155
-432.47324 834.21136 4334.686 2694157
-406.69073 834.01813 4333.6821 2694156
-380.00299 831.81726 4322.2461 1838851
-355.7746 835.07092 4339.1523 2430985
-327.66983 829.02399 4307.7314 2299143
-303.6535 833.17316 4329.2915 2430983
-275.61224 826.02533 4292.1504 2759949
-253.87053 838.22369 4355.5347 2628620
-228.15715 838.58557 4357.415 2168071
-204.1658 846.17688 4396.8604 3155738
-183.00134 869.41956 4517.6328 1445637
-153.81331 855.97668 4447.7817 1511430
-128.13504 860.54504 4471.52 919555
-102.01155 863.72601 4488.0488 1445638
-75.500122 864.70764 4493.1494 853504
-48.708553 861.80231 4478.0527 1182468
-22.361015 869.20166 4516.501 1116933
4.4440403 876.95837 4556.8057 985603
31.641134 882.32611 4584.6973 2039058
59.81918 897.45111 4663.2891 2631449
85.897903 881.47412 4580.2705 2696984
112.62998 878.26477 4563.5942 2038027
146.8963 923.67291 4799.5415 2168841
174.1767 917.54779 4767.7148 2299400
191.56595 868.29962 4511.8135 2430729
216.38908 860.68329 4472.2383 2496776
244.56889 866.62347 4503.1045 2825742
273.2576 873.02081 4536.3457 2496777
297.06949 864.08679 4489.9233 2628109
333.33047 889.85571 4623.8223 2628622
355.88391 877.89587 4561.6772 2496779
378.94385 868.78589 4514.3403 2759695
414.77591 888.22852 4615.3672 3220500
441.84763 887.66608 4612.4448 3352086
463.00546 875.98059 4551.7251 3352086
486.75592 870.21661 4521.7749 3417622
516.46576 875.15253 4547.4224 2628106
538.16901 866.70435 4503.5244 2891534
568.05756 871.61401 4529.0356 2957328
593.23419 869.17676 4516.3716 3483672
618.63678 867.26685 4506.4473 3285521
652.48065 876.85907 4556.29 3285522
674.89124 870.93463 4525.5054 3022350
701.83807 871.09314 4526.3291 2957071
733.32892 876.67224 4555.3188 2694156
771.70581 889.7948 4623.5059 2694156
804.31647 895.59692 4653.6548 2759693
826.83917 890.15399 4625.3721 2890764
858.95221 895.05377 4650.832 2956556
883.55865 892.06989 4635.3276 2890763
908.50153 889.59546 4622.4697 3482644
931.15961 885.09393 4599.0796 3088143
970.41241 896.17383 4656.6523 2956557
985.89392 885.29517 4600.125 2890764
1017.809 889.36163 4621.2549 2956557
1047.2013 891.06836 4630.1235 2956556
1078.1498 893.97827 4645.2437 3154190
1103.9512 892.58173 4637.9868 2891018
1134.3053 894.8446 4649.7451 2891018
1153.7249 888.57855 4617.186 2890761
1176.8171 885.36591 4600.4927 2759176
1217.9043 895.53052 4653.3096 3811609
1242.51 893.39441 4642.21 4469795
1270.2526 893.55756 4643.0576 3285521
1301.632 896.21771 4656.8804 3154192
1339.7761 903.32861 4693.8296 2561543
1369.364 904.4986 4699.9087 2759691
1403.6213 908.64471 4721.4526 2628106
1426.8578 905.63373 4705.8071 3154706
1459.5201 908.6062 4721.2524 3286036
1472.1641 899.23895 4672.5791 3022608
1511.8003 906.40088 4709.7935 2957071
1535.1591 903.72095 4695.8682 2826771
1612.1765 932.16193 4843.6519 3025438
1639.5737 931.41931 4839.793 7369074
1672.076 933.55237 4850.877 7634307
1741.5385 955.90021 4966.9995 8358288
1783.9072 962.88104 5003.2729 8358290
1818.5408 965.52679 5017.0205 8160912
1846.396 964.54639 5011.9263 8292497
1886.5259 969.90778 5039.7847 8423824
1910.8489 967.10199 5025.2056 8160652
1938.0171 965.80017 5018.4409 7963271
1966.6941 965.27826 5015.729 8094857
2005.4523 969.64618 5038.4253 8029061
2018.6842 961.72498 4997.2656 7370872
2033.2642 954.66565 4960.5845 7304309
2065.7747 956.10657 4968.0713 7237482
2074.1514 946.49384 4918.1226 4999747
2047.8971 921.56354 4788.5811 3157283
2029.5643 900.83069 4680.8501 3485990
2043.1071 894.61432 4648.5488 3551013
2026.213 875.41327 4548.7773 2760728
1975.0789 842.11737 4375.7671 4011303
1981.7133 833.99628 4333.5684 5459260
1980.054 822.63708 4274.5444 5392952
1960.5317 804.2373 4178.9365 5393207
1994.8427 808.10419 4199.0293 5787707
2008.2611 803.51666 4175.1919 6379076
1999.2972 790.19452 4105.9678 4865837
2034.5471 794.4574 4128.1187 4471079
2042.0801 787.92456 4094.1731 3089170
2038.5811 777.3385 4039.1665 2628620
2091.062 788.09644 4095.0662 2168331
2106.0789 784.64978 4077.1567 3023900
2133.1663 785.72723 4082.7556 6117200
2138.2178 778.75488 4046.5261 6972504
2151.2068 774.79614 4025.9556 6380367
2154.0725 767.31805 3987.0986 2827803
2196.0706 773.79059 4020.731 5459007
2221.0842 774.20404 4022.8789 3946025
2216.6611 764.45685 3972.2312 3551268
2212.8379 755.1192 3923.7114 4406322
2250.4355 759.96344 3948.8828 2235924
2289.0105 765.03455 3975.2329 2828061
2295.4214 759.36194 3945.7573 2498841
2317.2314 758.84674 3943.0803 2498326
2284.541 740.67224 3848.6428 2629911
2294.1777 736.44415 3826.6731 1182725
2290.1047 727.9411 3782.4897 2300177
2169.6724 682.97498 3548.8394 2629398
2323.4194 724.35059 3763.833 2037261
2347.4187 724.87372 3766.5513 3550498
