# .PCD v0.7 - Point Cloud Data file format
VERSION 0.7
FIELDS x y z rgb
SIZE 4 4 4 4
TYPE F F F U
COUNT 1 1 1 1
WIDTH 1341
HEIGHT 1
VIEWPOINT 0 0 0 1 0 0 0
POINTS 1341
DATA ascii
976.5993 804.09314 1981.5308 2431761
987.19257 803.15771 1979.2257 1642245
997.25928 801.82098 1975.9315 2629140
1003.9992 797.87146 1966.1987 3221277
1022.8663 803.53931 1980.166 2365968
1047.0072 813.17462 2003.9104 2563347
1059.36 813.5412 2004.8136 2760469
1052.3285 799.17828 1969.4192 3747620
1060.9612 796.89606 1963.7949 2629138
1077.8423 800.7915 1973.3947 2497552
1084.2626 796.91492 1963.8414 2037002
1100.194 800.03687 1971.5349 3089690
1119.0059 805.16577 1984.1742 2628884
1137.719 810.1178 1996.3773 1510661
1144.723 806.71613 1987.9946 1313539
1165.6198 813.07458 2003.6638 2365967
1183.3586 817.12433 2013.6436 1050112
1185.8448 810.66608 1997.7285 1904903
1188.8519 804.68817 1982.9971 3286552
1206.5162 808.65106 1992.7628 2233351
1205.4603 800.11176 1971.7195 2299397
1222.8446 803.85834 1980.952 2891794
1237.4127 805.70007 1985.4908 1970435
1255.4612 809.75183 1995.4756 3089944
1261.7205 806.19519 1986.7108 2892053
1260.2455 797.80804 1966.0424 2760724
1286.0637 806.6944 1987.9412 2365967
1296.1198 805.62231 1985.2991 2432018
1302.3077 802.18677 1976.833 2629653
1320.5487 806.17065 1986.6504 2892825
1322.6757 800.33368 1972.2665 2629653
1345.9849 807.30402 1989.4434 3024155
1364.7396 811.44519 1999.6486 2761498
1401.0745 825.87781 2035.215 3222047
1416.7899 828.01349 2040.4779 3091489
1421.3568 823.65271 2029.7314 3552040
1422.5543 817.42889 2014.3942 6512216
1421.0072 809.74469 1995.458 4407610
1424.0813 804.79901 1983.2703 1644050
1466.3586 821.90802 2025.432 1249034
1473.3301 819.11053 2018.5383 2959396
1486.8927 819.99316 2020.7133 1841171
1492.587 816.55707 2012.2457 4538941
1533.6145 832.35211 2051.1694 3355182
1527.797 822.67395 2027.3197 3223853
1529.812 817.33167 2014.1547 3684922
1526.8175 809.41638 1994.6489 8093567
1548.1093 814.39874 2006.9269 7699066
1572.0084 820.66638 2022.3722 7305338
1596.8911 827.34851 2038.8392 7568253
1619.73 832.87952 2052.4692 7436667
1630.7593 832.30072 2051.043 7370874
1675.6782 848.89911 2091.9463 7304054
1692.6984 851.22375 2097.675 7305081
1727.8774 862.57977 2125.6597 7436667
1746.0052 865.32074 2132.4143 7305081
1750.6205 861.37372 2122.6875 7370874
1759.7645 859.69537 2118.5518 7370874
1779.2935 863.07812 2126.8879 7502460
1786.5249 860.49023 2120.5105 7831425
1811.2423 866.30182 2134.832 7831426
1819.8629 864.38727 2130.114 7568254
1829.4598 862.95972 2126.5959 7502461
1841.9501 862.90704 2126.4661 7699326
1850.8466 861.18298 2122.2175 7699584
1853.5702 856.62939 2110.9961 7568254
1854.0536 851.1084 2097.3906 7568254
1867.6512 851.64111 2098.7034 7371132
1881.5925 852.32227 2100.3821 7042166
1891.3994 851.13416 2097.4541 6909554
1894.027 846.75177 2086.6548 6909553
1909.2844 848.03613 2089.8196 6777710
1931.6158 852.4256 2100.6367 6053987
1945.6846 853.1358 2102.387 3948611
1954.7831 851.67163 2098.7788 5988451
1963.1067 849.89044 2094.3894 7304311
1982.1759 852.75458 2101.4475 6843504
2002.6178 856.16974 2109.8635 6185573
2010.0425 854.01196 2104.5459 6119524
0 0 0 0
0 0 0 0
0 0 0 0
0 0 0 0
0 0 0 0
0 0 0 0
0 0 0 0
0 0 0 0
0 0 0 0
0 0 0 0
0 0 0 0
0 0 0 0
0 0 0 0
-1531.752 734.74805 1784.5813 2236182
-1517.7197 733.07861 1780.5265 2038546
-1515.7523 737.25397 1790.6678 1446406
-1494.6902 732.13519 1778.2351 2104337
-1494.4186 737.19965 1790.5359 1643273
-1493.9495 742.23853 1802.7744 1841165
-1496.2191 748.72046 1818.5179 2762522
-1489.9695 751.00238 1824.0604 6906711
-1487.5339 755.25409 1834.3872 2564118
-1477.1221 755.48901 1834.9576 1577736
-1454.2289 749.2962 1819.9164 1644044
-1418.2531 736.21973 1788.1558 1512459
-1425.2249 745.40839 1810.4735 1709581
-1413.5168 744.89264 1809.2208 1709836
-1423.4913 755.88251 1835.9133 3682599
-1403.094 750.78979 1823.5441 3287841
-1388.0676 748.5144 1818.0175 2630165
-1382.049 751.09869 1824.2943 2761752
-1365.1914 747.78674 1816.2502 3682854
-1355.8867 748.5921 1818.2063 4867385
-1345.6975 748.91827 1818.9984 3156768
-1329.7085 745.99573 1811.9001 4406835
-1317.9545 745.4209 1810.5039 4012333
-1312.3398 748.33752 1817.5879 2169871
-1296.162 745.22906 1810.0381 2827545
-1288.5702 747.04657 1814.4524 2038029
-1276.2656 746.13934 1812.2488 1840650
-1267.4441 747.27026 1814.9957 1774857
-1260.3083 749.42303 1820.2245 853762
-1244.3608 746.328 1812.707 1774345
-1233.8779 746.48505 1813.0885 1379844
-1226.8436 748.74951 1818.5886 3419425
-1214.5216 747.79846 1816.2787 1314309
-1207.3364 750.02142 1821.6779 722690
-1195.2977 749.24237 1819.7855 1380617
-1155.2625 730.74023 1774.847 1380616
-1182.0426 754.54932 1832.6753 1775372
-1178.6161 759.33899 1844.3086 4341299
-1166.5396 758.5932 1842.4973 2433301
-1157.7947 760.02039 1845.9637 2499093
-1169.4171 774.97229 1882.2793 2893852
-1151.4296 770.40063 1871.1755 2564887
-1136.1826 767.59155 1864.3528 2169873
-1125.1038 767.57086 1864.3025 2498068
-1096.6752 755.59601 1835.2177 2432532
-1088.2233 757.28284 1839.3146 2366739
-1083.0723 761.3241 1849.1301 3945771
-1064.9139 756.21136 1836.712 2958876
-1044.7665 749.5658 1820.5712 1906446
-1030.3776 746.95618 1814.2328 3353891
-1030.2542 754.74213 1833.1436 1972236
-1017.8948 753.63464 1830.4537 2695960
-1006.4503 753.18793 1829.3688 3024668
-996.27692 753.69324 1830.5961 2498836
-981.3573 750.57953 1823.0333 2630168
-969.39441 749.68298 1820.8558 2893083
-959.09564 750.06781 1821.7904 1774602
-946.62396 748.74261 1818.5719 3287328
-937.36182 749.95483 1821.5161 3221535
-928.39075 751.43085 1825.1011 3155999
-914.19257 748.66095 1818.3735 2234641
-902.26117 747.70361 1816.0482 3089949
-898.48431 753.56232 1830.2781 2234383
-885.94702 752.12695 1826.7919 2629398
-878.17358 754.75055 1833.1641 2037262
-870.50171 757.52814 1839.9104 2629398
-856.84619 755.10297 1834.0201 1971212
-852.65253 761.06122 1848.4916 2826520
-847.21674 766.05115 1860.6115 2169103
-834.97986 764.9422 1857.918 3222047
-820.33887 761.57178 1849.7317 1314053
-813.96411 765.888 1860.2151 1445382
-809.27301 771.92865 1874.8868 2300433
-794.67426 768.55554 1866.6941 1708297
-785.49976 770.40723 1871.1915 3221280
-771.17206 767.18536 1863.3661 2169104
-750.13269 757.09589 1838.8605 2498068
-736.55945 754.35547 1832.2045 3024155
-732.74304 761.67511 1849.9827 2300945
-720.07104 759.87201 1845.6033 2498325
-712.74982 763.74701 1855.015 4735287
-702.80414 764.88708 1857.7841 1445638
-680.97064 752.91962 1828.717 2695192
-652.03839 732.58929 1779.3381 1905674
-653.84625 746.69604 1813.6011 2169102
-643.34857 746.98639 1814.3063 1905930
-632.98529 747.44537 1815.421 2234895
0 0 0 0
0 0 0 0
0 0 0 0
0 0 0 0
0 0 0 0
0 0 0 0
0 0 0 0
0 0 0 0
-550.25085 767.09167 1863.1387 1839883
-533.96594 759.63214 1845.0206 1971983
-516.75311 750.51294 1822.8717 1840914
-505.7493 750.21472 1822.1472 2630688
-488.61331 740.60864 1798.8157 1644564
0 0 0 0
-214.55858 340.05206 825.93011 4
-209.88582 340.41193 826.8042 9
-204.66437 339.87781 825.5069 12
-199.93437 340.15363 826.17682 12
-195.0248 340.13016 826.11981 7
-190.1068 340.09036 826.02313 1
0 0 0 0
0 0 0 0
-395.36157 766.49023 1861.6779 262656
-384.20181 766.23682 1861.0624 591363
-374.49854 768.95905 1867.6742 1051656
-363.06219 768.18018 1865.7823 1249293
-352.63763 769.56042 1869.1348 1841173
-340.67346 767.56134 1864.2793 1117706
-330.33066 769.20361 1868.2682 1775635
-319.55804 769.92438 1870.0188 1840914
-311.1015 776.4776 1885.9354 1972501
-296.54559 767.72845 1864.6853 1709327
-284.61426 765.35992 1858.9325 1643534
-270.94965 757.9519 1840.9397 1577227
-262.16644 764.15039 1855.9948 1971985
-248.71823 756.69904 1837.8966 1182470
-238.48027 758.77924 1842.9491 1248005
-229.11995 763.98566 1855.5946 1314054
-218.78589 766.30634 1861.2312 2695708
-207.54962 765.54572 1859.3838 1643020
-197.07942 767.68384 1864.5769 1577227
-186.61292 770.09125 1870.4242 1708812
-174.63736 766.18207 1860.9294 2169363
-164.13664 768.65271 1866.9301 2300949
-152.46417 765.59631 1859.5067 1840397
-142.76477 772.74341 1876.8657 3221795
-131.82051 773.79089 1879.4099 1905677
-121.72625 780.48175 1895.6609 2366226
-109.48568 773.37225 1878.3932 2695191
-97.658646 767.90521 1865.1146 2958103
-86.696678 768.71307 1867.0767 2694931
-75.537643 767.75415 1864.7477 3023898
-64.550438 768.51233 1866.5892 2168589
-53.186333 764.16907 1856.04 2168589
-41.951714 759.90625 1845.6864 1971210
-30.926245 757.76141 1840.4769 2300175
-20.038965 758.51007 1842.2953 1839624
-9.1374674 759.86871 1845.5952 2037004
1.8047019 761.88617 1850.4954 2102797
12.842854 766.16498 1860.8878 1773833
23.869392 766.11743 1860.7723 852736
35.197018 772.7099 1876.7844 590593
46.563461 776.78412 1886.6799 393472
57.915886 779.09186 1892.2852 1182469
70.13076 790.37073 1919.6797 854278
81.040916 785.8493 1908.6978 1183242
92.372734 786.0235 1909.1208 1182985
104.24435 790.25165 1919.3904 2169880
115.8794 792.03107 1923.7124 1775122
126.44122 786.81323 1911.0391 1314055
138.18507 789.2041 1916.8461 2366743
149.99286 791.56921 1922.5905 2366741
161.14618 790.39026 1919.7269 1774604
171.80498 787.1012 1911.7385 1248004
182.82704 785.7804 1908.5304 2169107
194.56113 787.49548 1912.696 656899
206.12097 788.35529 1914.7843 196608
217.93709 790.05438 1918.9113 131072
228.98805 788.94873 1916.2257 459778
242.18369 794.98761 1930.8932 1314829
253.74112 795.34662 1931.7653 788485
266.22479 798.4527 1939.3093 2828068
279.15491 802.58502 1949.3462 459520
290.63919 802.3974 1948.8905 1446414
302.46948 803.14294 1950.7012 131072
313.349 801.40192 1946.4724 196608
324.2356 799.80194 1942.5864 920072
335.02231 798.07367 1938.3889 328192
347.0864 799.40216 1941.6155 2367772
359.728 801.93274 1947.762 1182985
371.83179 803.14441 1950.7048 1182983
379.31192 794.59723 1929.9449 1511689
391.81079 796.75592 1935.1882 3156511
403.7294 797.64551 1937.3488 2563858
416.75558 800.61365 1944.558 3287581
431.56494 806.75549 1959.4755 2760724
439.86252 800.7215 1944.8198 2299918
440.34784 781.13733 1897.2531 1576451
460.27103 796.15094 1933.7186 2234382
473.24268 798.70282 1939.9167 3023385
478.53305 788.47723 1915.0806 2167561
487.45071 784.5636 1905.5751 2299405
498.00095 783.39539 1902.7377 2299404
510.34085 785.03192 1906.7125 2299148
520.98102 784.03949 1904.3021 2496784
532.0885 783.77765 1903.6661 2759956
543.34906 783.74738 1903.5925 2694420
553.86859 782.6712 1900.9786 2233869
566.69189 784.82849 1906.2185 2234639
579.30542 786.61664 1910.5615 1839625
591.96259 788.39435 1914.8793 2760726
597.55493 780.87305 1896.6112 2760725
613.117 786.41699 1910.0768 2629140
622.74188 784.28271 1904.8929 1445125
634.42944 784.77612 1906.0911 2037005
644.17792 782.89539 1901.5232 2103054
654.88214 782.22107 1899.8854 2563348
657.58093 772.16895 1875.4705 1971470
672.76178 776.86462 1886.8755 1642505
679.76422 772.11713 1875.3447 1839370
703.31824 786.02032 1909.1133 458752
714.63727 786.02606 1909.1272 1575941
723.57245 783.45056 1902.8716 3023382
749.50775 799.07849 1940.8293 2957587
753.20483 790.88342 1920.9248 3154709
764.24615 790.52905 1920.0642 2694417
771.83704 786.66852 1910.6875 2562578
779.97803 783.47205 1902.924 2365452
794.31641 786.50323 1910.2861 2694417
806.51324 787.35852 1912.3635 3615519
817.89465 787.40503 1912.4763 2035975
821.9931 780.53467 1895.7894 1706753
838.68591 785.64752 1908.2076 2431245
850.05457 785.70306 1908.3427 2957846
863.65704 787.79492 1913.4235 5062964
885.23053 797.00909 1935.8031 2628371
897.28119 797.5235 1937.0524 2365454
894.89679 785.35669 1907.5013 2826263
905.45337 784.70868 1905.9275 2366226
921.74097 788.98224 1916.3073 1050885
939.07568 794.03717 1928.5848 2432019
949.84418 793.48529 1927.2444 1576712
960.70239 793.02051 1926.1155 853248
987.76764 805.78778 1957.125 2103313
1001.0975 807.18384 1960.516 3813668
1014.4799 808.58978 1963.9307 4274475
1027.5344 809.70557 1966.6407 3484701
1033.3058 805.12134 1955.5065 2761235
1043.9624 804.40326 1953.7623 3550237
1053.3224 802.71252 1949.6559 4339753
1063.3191 801.53857 1946.8046 2563598
1070.9374 798.61621 1939.7065 3747617
1091.6475 805.41504 1956.2197 4142117
1110.2378 810.52338 1968.6271 4470825
1126.3774 813.755 1976.4762 5194547
1130.1451 808.07397 1962.678 4734512
1138.738 805.92358 1957.455 2826516
1154.8232 809.0658 1965.0869 3024152
1142.713 792.58868 1925.0667 3154967
1176.2888 807.81213 1962.0417 2826001
1198.7607 815.18665 1979.9532 2759951
1212.3445 816.43256 1982.9795 1970693
1208.22 805.84369 1957.2609 3089174
1219.3298 805.52051 1956.476 1905672
1233.6534 807.30646 1960.8136 2102794
1253.2572 812.48218 1973.3845 2826518
1255.035 806.11249 1957.9137 2102795
1266.9626 806.31909 1958.4155 2168589
1269.9011 800.85297 1945.1393 3155484
1274.186 796.32678 1934.1458 2563347
1297.2491 803.51227 1951.5983 2629139
1316.0919 807.97998 1962.4496 2629138
1320.2552 803.43628 1951.4136 3023897
1342.6854 809.99103 1967.3341 3616548
1354.4509 810.05493 1967.4891 2892825
1372.318 813.73553 1976.429 3024924
1415.7716 832.39746 2021.7556 3880233
1409.5516 821.78589 1995.9818 3485475
1398.1903 808.37836 1963.4171 3616549
1405.58 805.94379 1957.5039 3879979
1417.1013 805.89868 1957.3945 3551013
1444.7886 814.97321 1979.4349 3617322
1458.0767 815.84473 1981.5516 3748653
1490.6719 827.41901 2009.6637 3485740
1503.2534 827.78894 2010.5623 2630175
1510.6931 825.34399 2004.6238 3025447
1520.5957 824.27216 2002.0205 3486769
1525.1146 820.32117 1992.4243 5658710
1530.5819 816.93713 1984.205 6580585
1531.386 811.1347 1970.1118 6778478
1552.0568 815.86334 1981.5969 7304565
1589.6318 829.34021 2014.33 7370104
1604.9663 831.09937 2018.6027 7501433
1634.3461 840.05164 2040.3463 7369847
1671.0325 852.60052 2070.8254 7239288
1678.2689 850.04999 2064.6306 7239288
1690.9042 850.25104 2065.1189 7436667
1720.8458 859.08899 2086.5847 7436667
1729.777 857.38666 2082.4502 7305337
1748.0529 860.30756 2089.5444 7370875
1765.8356 862.94617 2095.9534 7502461
1773.3843 860.58179 2090.2107 7568254
1790.6046 862.91101 2095.8679 7634047
1804.6882 863.70685 2097.801 7502461
1814.0044 862.22589 2094.2039 7502208
1829.8116 863.82941 2098.0984 7567999
1837.1039 861.41852 2092.2429 7436669
1843.2867 858.52319 2085.2107 7699841
1849.4043 855.63641 2078.199 7765633
1849.8094 850.16223 2064.9033 7699840
1857.0093 847.86243 2059.3174 7370621
1870.1349 848.28046 2060.3328 7173752
1886.7135 850.24921 2065.1145 6778738
1889.1099 845.84247 2054.4114 6844531
1902.197 846.24835 2055.397 6777967
1928.6285 852.54779 2070.6975 6382952
1959.5669 860.74738 2090.6128 5790814
1977.4998 863.16711 2096.49 3356730
1995.5059 865.58826 2102.3706 2566187
2011.7982 867.24084 2106.3843 5592665
0 0 0 0
0 0 0 0
0 0 0 0
0 0 0 0
0 0 0 0
0 0 0 0
0 0 0 0
0 0 0 0
0 0 0 0
0 0 0 0
0 0 0 0
0 0 0 0
0 0 0 0
-1510.3987 734.93372 1759.7035 1775376
-1497.2595 733.60553 1756.5233 1380362
-1494.9637 737.60889 1766.1088 1380615
-1490.1294 740.40723 1772.8091 2170132
-1491.2859 746.24323 1786.7826 2170132
-1480.4843 746.13593 1786.5258 2038543
-1475.8411 749.15326 1793.7504 1577993
-1478.0868 755.73669 1809.5134 2498838
-1468.0762 756.10376 1810.3925 1841164
-1461.0155 758.0069 1814.9492 2104337
-1444.574 755.03516 1807.8337 1973009
-1432.4775 754.30701 1806.0902 3551784
-1398.2936 741.84955 1776.2626 2696475
-1392.1957 744.21692 1781.9309 4735544
-1404.4594 756.51086 1811.3672 2300946
-1387.1997 752.96912 1802.887 1445637
-1377.9851 753.77307 1804.8119 1380099
-1356.8655 748.02643 1791.0524 1840907
-1345.5226 747.62152 1790.0828 2959131
-1341.6162 751.375 1799.0699 2498581
-1316.9333 743.45947 1780.1173 1840395
-1311.7874 746.53455 1787.4802 2037516
-1297.5693 744.45477 1782.5005 1840395
-1291.7051 747.17297 1789.0088 2103567
-1283.6317 748.64777 1792.54 1840398
-1280.8313 753.24817 1803.5551 1116676
-1265.6058 750.55737 1797.1123 1708811
-1254.1423 750.07092 1795.9475 1906188
-1247.8674 752.70587 1802.2565 2432533
-1243.1604 756.34009 1810.9583 3156255
-1234.9329 757.8772 1814.6387 3485475
-1213.6283 751.3454 1798.9991 3090461
-1213.6687 758.02942 1815.0032 1578249
-1196.4094 753.93134 1805.1909 1775630
-1179.2876 749.84674 1795.4109 1643531
-1164.046 746.89429 1788.3414 1577993
-1161.7051 752.24097 1801.1434 1775629
-1139.9158 744.97675 1783.7501 2893853
-1148.3165 757.49133 1813.7148 3485733
-1132.6304 754.20349 1805.8424 2301458
-1117.851 751.46228 1799.2791 3748904
-1135.2537 770.5108 1844.8882 2169361
-1115.463 764.44073 1830.3542 1380101
-1104.0756 764.06677 1829.4587 1511429
-1089.4657 761.43317 1823.153 2893083
-1079.6986 762.16541 1824.9062 4406322
-1059.5327 755.49762 1808.941 3550500
-1044.7333 752.5592 1801.9054 4274479
-1030.4233 749.9162 1795.5771 2235152
-1019.3439 749.59393 1794.8054 1840650
-1009.5587 750.22638 1796.3197 2300176
-996.62451 748.50745 1792.204 1576454
-987.87604 749.92889 1795.6075 2563349
-985.60419 756.3515 1810.9856 1971468
-979.10614 759.6366 1818.8513 2761497
-961.63654 754.38788 1806.2839 1642761
-955.5202 758.02765 1814.9989 3090462
-944.13477 757.52264 1813.7898 1314308
-931.51764 756.00653 1810.1595 2235153
-916.73035 752.67316 1802.1782 1643017
-896.89264 745.06573 1783.9633 2432532
-892.20715 750.01416 1795.8116 2958876
-879.39429 748.16754 1791.3903 2169361
-878.67078 756.68683 1811.7885 2893083
-864.78107 753.93829 1805.2075 2038032
-852.87543 752.87231 1802.655 1972238
-848.46985 758.48383 1816.0912 3945771
-836.77222 757.63727 1814.0642 1971982
-829.55103 760.87445 1821.8152 1708812
-825.0874 766.75958 1835.9064 1511177
-809.67859 762.49463 1825.6945 1576711
-801.77032 765.27338 1832.3478 1642250
-801.26245 775.28876 1856.3284 1247492
-784.22827 769.36993 1842.1565 919041
-772.40265 768.46594 1839.9921 1379334
-766.95648 773.97388 1853.1801 1576454
-747.38538 765.1806 1832.1257 2168847
-733.83063 762.37848 1825.4164 2629397
-724.96808 764.44019 1830.3529 3221789
-709.19824 759.17053 1817.7354 3090716
-699.73584 760.59442 1821.1447 3024666
-690.16656 761.94482 1824.3781 2300431
-677.47754 759.83917 1819.3363 2300688
-665.0213 757.93079 1814.767 3155997
-652.02979 755.33948 1808.5625 2629651
-639.17896 752.82739 1802.5476 2892567
-634.40125 759.90009 1819.4822 2432273
0 0 0 0
0 0 0 0
0 0 0 0
0 0 0 0
0 0 0 0
0 0 0 0
0 0 0 0
0 0 0 0
0 0 0 0
-529.11377 763.56396 1828.2549 1906190
-513.79034 756.95074 1812.4203 2037777
-499.62677 751.80035 1800.0885 1972499
0 0 0 0
0 0 0 0
-215.35039 346.2197 828.97815 5
-210.6194 346.51865 829.69397 11
-205.04324 345.40814 827.03503 12
-200.2323 345.5639 827.40796 11
-195.21996 345.37115 826.94641 9
-190.30316 345.34189 826.87634 3
0 0 0 0
0 0 0 0
-392.38782 771.67474 1847.675 2301721
-379.53061 767.81567 1838.4351 1117192
-370.97137 772.68073 1850.0837 1314828
-360.48462 773.70502 1852.5363 1183243
-349.91327 774.60632 1854.6945 1117706
-338.21066 772.98065 1850.802 1183498
-327.75412 774.18945 1853.6962 3091495
-315.06808 770.03296 1843.7441 2367771
-303.91498 769.45911 1842.37 1972499
-291.70432 766.06506 1834.2434 1840913
-280.30527 764.62225 1830.7888 1249031
-270.43823 767.41046 1837.4648 1774861
-258.39151 763.9881 1829.2704 1511433
-247.47827 763.76404 1828.734 1182469
-235.77409 760.96674 1822.0361 1774604
-224.43088 759.12183 1817.6187 1774604
-214.89775 763.52203 1828.1545 2103569
-203.93869 763.05426 1827.0344 2235154
-195.46596 772.3584 1849.312 1511433
-184.48065 772.24994 1849.0524 1379848
-171.94345 765.22137 1832.2233 1774606
-162.78366 773.28925 1851.5408 1840399
-150.67325 767.49353 1837.6638 2235155
-141.14703 774.9837 1855.598 2432022
-130.12584 774.83771 1855.2484 2826522
-119.34366 776.21936 1858.5565 1839626
-108.6724 778.67664 1864.4402 2563605
-97.477882 777.51648 1861.6624 2694934
-84.091019 756.34155 1810.9617 1839625
-74.311707 766.16541 1834.4836 2102797
-63.241405 763.76501 1828.7362 2365969
-52.640087 767.20697 1836.9775 2037003
-41.661644 765.51428 1832.9247 1708038
-30.780008 765.03381 1831.7742 1510661
-19.888081 763.63446 1828.4237 1708040
-9.0325804 761.95819 1824.41 1444868
1.7879869 765.69452 1833.3562 1773833
12.658334 766.02655 1834.1512 1905675
23.764753 773.73792 1852.6151 1839882
34.912743 777.5014 1861.6263 1182211
46.15065 780.97925 1869.9535 525056
57.164959 780.05902 1867.7502 919557
68.394783 781.90112 1872.1609 1577227
80.997986 796.73846 1907.6868 1249033
91.820145 792.5675 1897.7002 3485995
102.51262 788.30963 1887.5051 3288616
113.73148 788.53918 1888.0547 3091237
126.21156 796.68878 1907.568 2104086
137.49631 796.57343 1907.2919 854277
148.95866 797.42645 1909.3342 1314826
159.65839 794.3645 1902.0029 3156773
170.01212 790.09857 1891.7886 2695965
181.46239 791.14111 1894.2849 590848
192.743 791.36566 1894.8224 393472
204.49915 793.4104 1899.7184 196608
215.03763 790.76398 1893.3818 131072
226.94949 793.18005 1899.1666 525314
240.93372 802.26825 1920.9274 722949
251.90573 800.95892 1917.7922 920328
264.04358 803.30939 1923.4202 2630689
276.34604 805.94543 1929.7319 1052427
286.67081 802.83337 1922.2804 657670
300.67236 809.86267 1939.1112 920844
312.24875 810.0827 1939.6379 262658
322.85004 807.84711 1934.2852 196608
333.49777 805.87714 1929.5682 196865
342.69992 800.6604 1917.0774 986120
355.23798 803.32208 1923.4506 1446412
367.13113 804.40527 1926.0442 854018
375.19714 797.29053 1909.0088 1051652
387.79913 799.94904 1915.3743 2499097
402.37283 806.40796 1930.8394 1117449
412.6058 804.05072 1925.1953 2169104
422.77777 801.70477 1919.5781 2563604
431.44144 796.69659 1907.5865 1971209
443.4191 797.90741 1910.4857 1642761
455.54703 799.32159 1913.8719 1708039
463.89206 794.19073 1901.5868 1313027
471.65118 788.32397 1887.5394 1313027
482.64056 788.00299 1886.771 1839371
492.94849 786.60913 1883.4336 1247234
505.64508 789.00427 1889.1683 2562836
515.90833 787.58093 1885.7605 1641735
527.30627 787.91339 1886.5565 2102284
539.05811 788.74988 1888.5594 2102797
545.10394 781.37323 1870.8969 1576453
561.63708 789.0238 1889.2152 2037003
571.87579 787.70538 1886.0585 1971211
586.27527 792.05878 1896.4819 2037004
598.3338 793.14514 1899.0831 2102797
608.16461 791.29291 1894.6483 2497554
621.10199 793.4765 1899.8767 2958105
624.31641 783.38232 1875.7074 2760727
645.54742 795.85254 1905.5658 2300176
644.2428 780.58911 1869.0194 1839625
651.91418 776.53345 1859.3086 1576453
662.16211 775.63055 1857.1469 1773832
675.81433 778.67981 1864.4478 1444870
688.07111 780.04895 1867.726 1115907
703.73962 785.18121 1880.0145 3418654
714.3465 784.59418 1878.6089 2760210
721.10547 779.86371 1867.2825 2365196
732.10706 779.79523 1867.1184 3022869
738.46112 774.85217 1855.283 2431245
758.40302 784.10236 1877.4315 2299149
767.86084 782.40259 1873.3615 2431244
782.15857 785.61243 1881.0471 2431245
794.07703 786.37598 1882.8752 2365452
806.64642 787.75403 1886.1748 2891796
810.51959 780.71783 1869.3276 918528
823.49207 782.51813 1873.6381 1641730
842.96606 790.36621 1892.4293 4470828
848.23492 784.86432 1879.2559 3483674
860.11639 785.54437 1880.8842 3549726
882.50739 795.68256 1905.1587 3483932
882.50317 785.62781 1881.0839 3220505
904.44836 795.12012 1903.812 2102796
905.04395 785.84088 1881.5941 2694933
931.68536 799.12756 1913.4072 2102796
952.57306 807.21893 1932.7811 1181697
959.89044 803.75519 1924.4875 985091
975.50134 807.23572 1932.8212 1576713
983.40802 804.33398 1925.8735 853250
994.76611 804.28955 1925.767 2037260
1009.1905 806.69708 1931.5315 3879462
1027.7242 812.29865 1944.9437 2300171
1040.3806 813.18201 1947.059 2562830
1047.9558 810.11804 1939.7227 3615258
1052.6779 804.9389 1927.3218 3483672
1067.0166 807.14551 1932.6052 3615258
1086.6521 813.26941 1947.2681 3286292
1099.1166 813.9541 1948.9075 1772801
1111.1058 814.27625 1949.6788 2957072
1109.2283 804.534 1926.3523 2759438
1136.5792 815.97412 1953.7441 2825489
1142.6119 812.03296 1944.3076 2167559
1146.0543 806.34796 1930.6956 3154452
1165.3685 811.83221 1943.8269 3286293
1178.7898 813.14404 1946.9679 4141602
1170.4156 799.54144 1914.3982 3286551
1205.1935 815.39526 1952.3582 1970694
1216.9968 815.55145 1952.7323 2233867
1215.7201 807.02209 1932.3098 2432015
1232.2004 810.32941 1940.2285 1905418
1245.2653 811.3501 1942.6725 2431761
1254.6278 809.96198 1939.3488 2234382
1252.533 801.26959 1918.536 1313541
1264.9357 801.92444 1920.1041 1642245
1269.7654 797.80951 1910.2513 1576454
1281.8639 798.29401 1911.4115 1773831
1312.881 810.44849 1940.5138 1905417
1329.1348 813.35767 1947.4794 2892056
1338.7279 812.17578 1944.6495 2958105
1363.5411 820.16901 1963.7885 3550496
1387.3234 827.41205 1981.1309 5063992
1379.21 815.67035 1953.0168 3945511
1387.762 813.89795 1948.7731 3747877
1392.2229 809.77527 1938.902 3682341
1408.0109 812.25458 1944.8381 3221790
1419.4559 812.20856 1944.728 3287839
1426.2617 809.53009 1938.3147 3550755
1451.5216 817.28497 1956.8829 3287841
1438.9102 803.76239 1924.5048 3287843
1457.8324 807.92841 1934.4799 3749680
1498.2444 823.84613 1972.5927 3815218
1501.3744 819.17566 1961.4098 3354925
1507.7358 816.32654 1954.5879 4276286
1517.8234 815.52289 1952.6637 4671815
1537.4253 819.80463 1962.916 6843500
1538.3771 814.15204 1949.3816 6844014
1539.2087 808.52057 1935.8977 6317670
1576.5878 822.0282 1968.2399 7238518
1620.3405 838.63611 2008.0054 7173752
1637.7435 841.46368 2014.7756 6976374
1657.3597 845.37915 2024.1506 7107703
1676.4907 848.99255 2032.8026 7173496
1717.05 863.32861 2067.1284 7239289
1713.0554 855.21857 2047.7101 7370875
1733.5198 859.34747 2057.5962 7502461
1747.3977 860.17664 2059.5813 7502461
1763.6564 862.15802 2064.3254 7305082
1778.9099 863.62408 2067.8359 7436668
1791.7268 863.89532 2068.4854 7698813
1804.5948 864.18726 2069.1843 7501947
1809.0264 860.46252 2060.2659 6317930
1802.9026 851.80072 2039.5264 7370874
1821.8683 855.02911 2047.2565 7436414
1825.2056 850.92877 2037.4385 7436158
1832.5105 848.71985 2032.1497 7502208
1849.6571 851.06812 2037.7722 7239546
1857.7238 849.23517 2033.3834 7239289
1857.1952 843.52203 2019.7041 7502461
1880.8536 848.79718 2032.3347 7370618
1895.5114 849.96918 2035.1409 7370104
1903.5859 848.19305 2030.8882 7304311
1930.2976 854.69135 2046.4476 7106675
1937.7228 852.62219 2041.4933 7106418
1961.8318 857.87427 2054.0686 6580331
0 0 0 0
0 0 0 0
0 0 0 0
0 0 0 0
0 0 0 0
0 0 0 0
0 0 0 0
0 0 0 0
0 0 0 0
0 0 0 0
0 0 0 0
0 0 0 0
0 0 0 0
-1504.8928 742.64508 1753.2889 1907217
-1495.8391 743.3092 1754.8569 1709326
-1488.1237 744.6524 1758.028 1446411
-1491.1141 751.40948 1773.9806 1906702
-1479.655 750.92938 1772.847 2762266
-1474.2327 753.52789 1778.9819 3552551
-1475.7783 759.7511 1793.6741 5329476
-1461.9003 758.06671 1789.6974 3618088
-1448.1727 756.43622 1785.848 3223331
-1442.6414 759.09448 1792.1239 1314821
-1421.2544 753.38733 1778.65 1775374
-1411.7473 753.93933 1779.9532 1841166
-1382.5634 743.91217 1756.2804 1445640
-1380.4052 748.38483 1766.8397 3156256
-1381.2468 754.56464 1781.4294 1708811
-1378.5214 758.87598 1791.608 1511946
-1362.1064 755.65973 1784.0149 919554
-1349.9591 754.77917 1781.936 1840139
-1326.2097 747.3468 1764.389 1774605
-1310.769 744.51556 1757.7048 1905933
-1299.9839 744.30444 1757.2065 1248260
-1300.1932 750.43573 1771.6816 2630170
-1283.9976 747.12115 1763.8564 2169619
-1282.2384 752.22144 1775.8975 1906190
-1271.1042 751.86072 1775.0459 2169363
-1267.2891 755.85931 1784.4861 1708811
-1255.3473 755.03748 1782.5458 1379847
-1237.9076 750.8667 1772.6992 2564118
-1225.9259 749.96356 1770.567 1511687
-1227.7582 757.5686 1788.5215 4077869
-1229.2607 765.10077 1806.304 2367509
-1203.4387 755.60883 1783.8948 3485733
-1191.932 755.01666 1782.4966 2827802
-1179.6892 753.94336 1779.9628 4011819
-1161.3622 748.92719 1768.1202 2959130
-1141.9719 743.12781 1754.4286 4011816
-1133.7578 744.5614 1757.8131 3024921
-1125.7031 746.12732 1761.5101 3156508
-1123.3386 751.5293 1774.2634 3682339
-1108.5132 748.61804 1767.3904 3287581
-1105.2255 753.5174 1778.9572 2695957
-1102.1227 758.63855 1791.0475 2893336
-1094.8484 760.95984 1796.5277 3090203
-1080.1189 758.09418 1789.7623 3879463
-1073.2854 760.76862 1796.0763 2037516
-1056.1459 756.11823 1785.0973 2497812
-1042.9271 754.20923 1780.5903 2564117
-1036.223 757.02045 1787.2273 2498580
-1021.9113 754.27448 1780.7445 1840651
-1008.2625 751.9657 1775.2937 4209198
-989.32373 745.62128 1760.3154 1841169
-985.67859 750.79089 1772.5201 2366739
-977.72418 752.75409 1777.155 1906188
-965.93396 751.77466 1774.8428 2629911
-958.93512 754.54382 1781.3804 2037775
-948.62201 754.73773 1781.8381 1182467
-945.83856 760.99414 1796.6086 1774091
-938.33215 763.54987 1802.6425 1709067
-923.78729 760.37091 1795.1375 1643272
-909.83392 757.6106 1788.6206 2103054
-900.76721 758.90222 1791.6699 2498068
-895.07367 763.10046 1801.5814 1971468
-883.88861 762.66162 1800.5455 2563605
-873.66504 763.05194 1801.4669 1708296
-862.15729 762.31641 1799.7303 2365969
-848.59235 759.7207 1793.6022 1774092
-838.52936 760.23407 1794.8143 2300948
-830.50256 762.63049 1800.4719 721921
-827.77478 770.01855 1817.9142 2169362
-815.46851 768.57379 1814.5033 1774607
-805.05865 768.90161 1815.2772 1972756
-785.61505 760.49347 1795.4268 4143668
-782.88416 768.25494 1813.7505 1182985
-779.13324 775.21747 1830.1881 1840399
-767.38623 774.30841 1828.042 1182214
-752.31073 769.96674 1817.7919 1116161
-736.8681 765.11768 1806.3439 1182211
-723.79071 762.6178 1800.442 4011563
-708.30872 757.47162 1788.2925 4143404
-693.46143 752.85809 1777.4006 3682597
-686.64105 756.95117 1787.0638 2498580
-680.75476 762.21832 1799.4989 3024923
-669.14453 761.14233 1796.9585 3090203
-654.69116 756.74506 1786.5771 3550753
-644.15741 756.80847 1786.7268 2498065
-630.46179 753.09698 1777.9645 2432273
-624.74841 758.9563 1791.7976 2498067
0 0 0 0
0 0 0 0
0 0 0 0
0 0 0 0
0 0 0 0
0 0 0 0
0 0 0 0
0 0 0 0
0 0 0 0
-526.25824 770.21936 1818.3882 1249808
-505.83694 755.8078 1784.3644 2564893
-496.91461 758.32916 1790.317 591618
-485.51315 757.09473 1787.4027 1710359
0 0 0 0
-215.0049 350.56903 827.64813 6
-212.1842 354.04657 835.85815 11
-205.759 351.5322 829.922 13
-201.01776 351.84207 830.65363 14
-196.07187 351.80035 830.55511 11
-190.57625 350.74472 828.06293 5
0 0 0 0
0 0 0 0
-388.05057 773.97369 1827.2517 722436
-378.13416 775.84546 1831.6707 1577744
-368.10428 777.58826 1835.7852 788229
-358.70078 780.80054 1843.369 459779
-346.95853 778.96387 1839.033 1315086
-337.0799 781.32788 1844.6141 2038807
-323.80469 775.7135 1831.3591 2564638
-311.1958 771.36121 1821.084 2630429
-299.60764 769.31714 1816.2582 1643790
-287.96094 766.9649 1810.705 1314053
-277.948 768.9505 1815.3926 1840397
-266.45059 766.82367 1810.3715 1577224
-253.36905 759.76807 1793.714 1774603
-244.12933 764.11938 1803.9871 1906190
-230.89525 755.79443 1784.3329 2366484
-220.52576 756.49719 1785.9919 1643018
-212.63187 766.19128 1808.8784 1643018
-202.65247 769.00085 1815.5115 919555
-191.22173 766.30927 1809.1571 985091
-181.62039 771.0647 1820.384 4274740
-171.92908 776.01459 1832.0701 2695451
-160.33051 772.44299 1823.6379 1774606
-148.6805 768.08936 1813.3596 1971986
-138.42648 770.83093 1819.8322 1576712
-127.79362 771.74799 1821.9971 2037263
-117.56747 775.51715 1830.8956 1444868
-106.65682 775.07843 1829.8599 2497554
-95.682281 774.02356 1827.3695 1839882
-84.874184 774.21771 1827.8279 1444612
-73.954239 773.29913 1825.6592 1773577
-63.033619 772.05743 1822.7277 1576199
-52.147602 770.81378 1819.7915 1510407
-41.284954 769.35681 1816.3519 1115904
-30.324398 764.40448 1804.66 1510662
-19.527901 760.44415 1795.3102 1576711
-8.9652138 767.00653 1810.8032 2432021
1.7549882 762.22729 1799.5201 1642505
12.5015 767.27063 1811.4266 853505
23.45339 774.43567 1828.3424 1182469
34.591984 781.28925 1844.5228 1248777
45.565807 782.02356 1846.2565 854021
55.997887 774.9762 1829.6185 1183241
69.082466 800.96936 1890.985 1051399
79.429619 792.39758 1870.7482 1117193
90.752785 794.46979 1875.6404 1051913
101.59318 792.32458 1870.5759 2564635
112.8661 793.64301 1873.6885 985607
123.03357 787.64825 1859.5356 1183499
135.16594 794.18414 1874.9659 1117961
146.47903 795.27881 1877.5505 788741
158.3952 799.26227 1886.9547 657412
168.34081 793.43243 1873.1914 657155
180.72501 799.10663 1886.5873 1184012
191.25771 796.40991 1880.2208 65536
202.64217 797.36163 1882.4677 197376
214.66849 800.60779 1890.1315 328707
227.41971 806.10156 1903.1014 855050
239.11208 807.50024 1906.4037 526085
250.99724 809.39441 1910.8756 657929
261.6561 807.34137 1906.0286 3552820
272.50653 806.02502 1902.9207 1776410
282.05701 801.12067 1891.3424 986893
296.25827 809.2962 1910.6436 723722
310.23358 816.27515 1927.12 0
319.28656 810.26697 1912.9354 196608
328.90356 806.05298 1902.9868 1117451
339.02774 803.32013 1896.535 65536
352.23294 807.82898 1907.1798 1446157
362.35873 805.21448 1901.0073 1775120
370.3588 798.17639 1884.3912 919813
384.6366 804.68372 1899.7542 1182983
395.11963 803.10791 1896.0338 2498842
383.72583 758.38251 1790.443 1315341
415.59894 799.27441 1886.9834 1116932
426.00949 797.82843 1883.5696 1642506
440.57788 804.04425 1898.2444 1971213
449.3952 799.71619 1888.0265 1247492
459.5239 797.87543 1883.6808 1642507
471.62582 799.46692 1887.438 786944
476.20819 788.5332 1861.625 1444873
485.40646 785.565 1854.6173 1050629
498.08841 788.24115 1860.9354 590080
509.06982 788.1687 1860.7642 1247234
528.98572 801.63861 1892.5649 2037004
531.77661 789.13647 1863.0491 1444870
540.00018 785.04083 1853.3798 1444868
554.79004 790.46405 1866.1835 1773831
566.21356 790.97272 1867.3843 1905417
575.02545 787.88348 1860.0909 2168589
585.88019 787.65698 1859.5562 2431761
596.64575 787.32092 1858.7629 2234382
598.20898 775.07422 1829.8499 2958106
615.38751 783.13538 1848.8812 1708039
629.22479 786.73676 1857.3838 1839625
638.52325 784.6369 1852.4263 1773832
645.01093 779.21252 1839.62 2431761
656.42493 779.82074 1841.056 3418654
670.44727 783.45715 1849.641 2299659
684.44604 786.94946 1857.8859 2562830
696.87872 788.55908 1861.6859 3418140
708.84796 789.60223 1864.1488 2299659
713.95789 783.0899 1848.774 2497039
721.15137 779.02515 1839.1776 2102282
735.03809 782.20422 1846.683 1773315
747.99493 784.31494 1851.6663 2299405
760.71277 786.11774 1855.9222 2233866
778.63861 793.17432 1872.5818 1313025
785.1792 788.59766 1861.7771 1839108
801.10919 793.44763 1873.2272 3418140
808.16815 789.49872 1863.9044 2102280
825.16113 795.2301 1877.4354 1904903
834.71039 793.73077 1873.8956 3747105
842.47406 790.59509 1866.4927 3812897
848.20184 785.65497 1854.8296 3219991
862.32867 788.5213 1861.5968 2891796
871.03418 786.42065 1856.6375 3154966
885.62848 789.62274 1864.1971 3220759
904.60291 796.60327 1880.6771 4207912
924.40637 804.13483 1898.4584 3813411
940.22467 808.06036 1907.7261 1576708
956.19379 812.02075 1917.076 1642758
963.86304 808.92255 1909.7615 2300433
971.70996 806.04352 1902.9645 1708041
961.26465 788.23108 1860.9116 1971469
974.70764 790.18866 1865.5333 1117449
1005.2637 805.82037 1902.4376 1050624
1020.9161 809.29102 1910.6313 1972242
1029.8831 807.44397 1906.2708 5391930
1036.1306 803.52814 1897.0259 2431243
1056.5885 810.59827 1913.7177 2891794
1060.7037 805.11359 1900.7689 2365193
1080.6019 811.59802 1916.078 2364937
1087.2509 808.10022 1907.8201 1378560
1087.1753 799.72784 1888.054 3089429
1090.9501 794.32941 1875.309 2563085
1099.3574 792.37909 1870.7043 1773313
1117.0789 797.11371 1881.8823 2825488
1142.6339 807.28943 1905.9058 2891281
1149.0494 803.87579 1897.8468 3286293
1152.7734 798.6637 1885.5416 2759949
1177.9181 808.24982 1908.1732 4273191
1186.0535 806.09344 1903.0823 1904903
1207.6365 813.03107 1919.4613 2234378
1212.078 808.40668 1908.5436 2760724
1217.5088 804.52148 1899.3711 2629140
1232.3385 806.86133 1904.8951 2169102
1242.4044 806.06781 1903.0219 2431762
1255.5477 807.2674 1905.8538 3222047
1260.0165 802.91772 1895.585 3090204
1270.9938 802.75586 1895.2028 2234383
1289.8617 807.5368 1906.49 1840137
1317.382 817.60474 1930.2589 2761239
1333.7292 820.62457 1937.3885 2826773
1347.6049 822.08521 1940.8368 3155735
1365.5907 826.0072 1950.0961 5129524
1361.3042 816.50452 1927.6614 4471595
1389.0752 826.22791 1950.6173 3944996
1382.2653 815.39166 1925.0343 4208427
1389.3767 812.87781 1919.0995 3484706
1407.3778 816.72424 1928.1803 2168846
1408.7827 810.95526 1914.5604 2892569
1407.8002 803.9151 1897.9395 3551268
1425.527 807.58563 1906.6052 2893594
1430.5592 804.06335 1898.2894 4012334
1458.4988 813.37091 1920.2634 2500126
1474.2565 815.79346 1925.9827 3486508
1480.5789 812.99774 1919.3824 2894373
1493.4623 813.81982 1921.3234 3684146
1513.5631 818.53271 1932.4498 5329743
1509.9119 810.42621 1913.3114 5856345
1517.4662 808.4101 1908.5516 6778734
1526.6184 807.26874 1905.8572 7172725
1571.1234 824.70135 1947.0132 7107445
1593.7456 830.47705 1960.6488 7041909
1612.2961 834.06268 1969.114 6910324
1633.9364 839.18365 1981.204 7173496
1668.9438 851.04791 2009.2141 7041910
1686.7527 854.03619 2016.2689 6976117
1702.403 855.89703 2020.6621 7041910
1719.4601 858.43439 2026.6525 7436668
1735.9686 860.66449 2031.9175 7436668
1752.774 863.01007 2037.4551 7436668
1767.8765 864.49072 2040.9508 7568254
1781.0203 865.00006 2042.1532 7568254
1790.4127 863.69287 2039.0671 7502461
1797.2802 861.1933 2033.166 7502461
1809.2329 861.14746 2033.0579 7568254
1816.0764 858.68646 2027.2477 7634047
1822.9978 856.29456 2021.6006 7370875
1835.0797 856.3418 2021.7123 7436668
1844.0918 854.96533 2018.4625 7634047
1852.0638 853.12744 2014.1237 7305082
1852.1185 847.68951 2001.2853 7305083
1879.2762 854.64655 2017.7098 7633276
1893.1853 855.5285 2019.7921 7699070
1906.0985 855.95215 2020.7922 7370105
1926.1812 859.56989 2029.3334 5396314
1940.8431 860.73883 2032.0931 5462107
0 0 0 0
0 0 0 0
0 0 0 0
0 0 0 0
0 0 0 0
0 0 0 0
0 0 0 0
0 0 0 0
0 0 0 0
0 0 0 0
0 0 0 0
0 0 0 0
0 0 0 0
0 0 0 0
-1457.1543 734.2168 1709.4736 2894366
-1468.0322 744.87653 1734.2926 4933435
-1462.2792 747.18854 1739.6757 4209967
-1458.7712 750.68878 1747.8252 3157535
-1459.0811 756.21765 1760.6981 3091486
-1449.2998 756.55859 1761.4918 3223071
-1428.3098 751.0108 1748.575 2893852
-1432.1951 758.55707 1766.1449 2828059
-1420.575 757.94159 1764.7119 1841166
-1403.5814 754.42877 1756.533 2629911
-1400.2748 758.27515 1765.4885 2893340
-1384.1105 755.16437 1758.2457 3485477
-1369.7307 752.98737 1753.177 3683114
-1369.2811 758.49353 1765.9969 3157283
-1345.0189 750.7923 1748.0663 6380883
-1339.5814 753.56104 1754.5127 3617321
-1318.865 747.71094 1740.8918 3879980
-1307.5927 747.16504 1739.6208 2103569
-1297.907 747.52423 1740.4572 1841167
-1280.8198 743.59216 1731.3022 1380616
-1289.8204 754.86444 1757.5475 1380360
-1267.2705 747.70502 1740.8782 1512201
-1266.3896 753.31812 1753.947 2038544
-1259.5531 755.4519 1758.9152 2235924
-1241.6694 750.94025 1748.4108 2564887
-1227.3281 748.51306 1742.7595 2433558
-1190.4825 732.20343 1704.7859 2894362
-1177.9443 730.69281 1701.2687 3946280
-1153.9857 722.01074 1681.0543 2432785
-1189.2742 750.56915 1747.5468 3156764
-1181.3109 752.09277 1751.0941 2761749
-1165.8134 748.80402 1743.437 3287838
-1152.7362 747.02509 1739.295 3419680
-1135.2706 742.34436 1728.397 3814436
-1123.8511 741.56787 1726.5891 6710355
-1112.428 740.7749 1724.7428 1907468
-1114.4337 748.99243 1743.8756 2762263
-1106.3229 750.50092 1747.3878 1972236
-1094.5721 749.54541 1745.1631 2564373
-1084.8711 749.98865 1746.1952 2893336
-1085.3247 757.52814 1763.7493 5327934
-1076.4674 758.65222 1766.3665 3221788
-1075.4807 765.39978 1782.0768 2761238
-1060.5771 762.27863 1774.8098 2760985
-1056.4498 766.91785 1785.6112 2761498
-1047.1877 767.88556 1787.8644 2300946
-1031.5554 764.15424 1779.1768 2300946
-1020.6102 763.85382 1778.4773 2498582
-1005.0726 760.07422 1769.6772 459776
-988.61969 755.51532 1759.0629 3288612
-974.38678 752.57391 1752.2144 5328197
-972.11481 758.90674 1766.9591 2104597
-960.02515 757.6297 1763.9857 1249289
-957.23938 763.74768 1778.2302 2038032
-936.58533 755.58673 1759.2291 2300692
-931.47772 759.92529 1769.3306 1906190
-924.4964 762.81659 1776.0624 1643017
-918.2674 766.40234 1784.411 2432019
-905.65509 764.68201 1780.4056 2103054
-895.39819 764.93335 1780.9907 1905675
-887.77094 767.46393 1786.8827 1971468
-875.54541 766.03247 1783.5498 2102798
-865.80798 766.76953 1785.266 1708295
-852.36298 764.20081 1779.2852 2103055
-843.25067 765.50085 1782.3121 1971470
-832.22302 765.07306 1781.316 1708811
-827.79968 770.78369 1794.6122 1445639
-818.36255 771.91388 1797.2435 1577225
-805.75488 770.04382 1792.8894 1971983
-799.72552 774.49445 1803.2518 1906703
-777.53308 763.20062 1776.9564 2498583
-769.48431 765.6701 1782.7062 2564376
-762.14844 768.92767 1790.2908 1971984
-746.56604 763.83984 1778.4448 1643018
-739.47577 767.41931 1786.7789 2037774
-726.23016 764.62213 1780.2662 2432532
-716.43237 765.42603 1782.1379 2959131
-705.2829 764.78827 1780.6531 3617061
-690.29364 759.90417 1769.2814 2762008
-680.77271 760.98199 1771.7909 2498324
-670.4502 761.18347 1772.26 2037516
-660.33594 761.63165 1773.3035 2169102
-645.29816 756.32355 1760.9447 2036745
-629.2204 749.60217 1745.2953 2102794
-623.49951 755.20062 1758.3301 2102793
-613.40765 755.6051 1759.2719 2431759
-604.77094 757.84705 1764.4918 2694931
0 0 0 0
0 0 0 0
0 0 0 0
0 0 0 0
0 0 0 0
0 0 0 0
0 0 0 0
-539.05481 783.93365 1825.2291 1841430
-536.68396 796.46771 1854.4121 2038553
-507.38574 768.72888 1789.8279 4275769
-495.58304 766.87848 1785.5197 1249806
-473.8049 749.17426 1744.299 1381395
0 0 0 0
-217.25256 359.19003 836.30048 7
-211.85974 358.45108 834.58002 12
-205.55486 356.09683 829.09857 14
-201.09697 356.9053 830.98102 11
-196.161 356.88458 830.93268 9
-190.91148 356.27762 829.51953 4
0 0 0 0
0 0 0 0
0 0 0 0
-376.81168 783.94891 1825.2646 1380365
-363.35797 778.30096 1812.1146 459521
-354.61423 782.7049 1822.3682 2696225
-343.19604 781.29706 1819.0902 1577744
-334.52982 786.26581 1830.6591 2104088
-321.31537 780.51953 1817.28 1182984
-305.98737 769.0625 1790.6047 1709073
-295.18292 768.56012 1789.4351 1643534
-284.77667 769.09583 1790.6823 722177
-275.84991 773.82312 1801.6888 1445899
-262.39355 765.71307 1782.8063 1314058
-251.68526 765.27826 1781.7938 1314053
-240.34741 762.80725 1776.0406 1379846
-230.19478 764.04382 1778.9198 787714
-219.9903 765.21875 1781.6553 1314053
-210.2101 768.06244 1788.2762 1182468
-200.36766 770.96851 1795.0424 2498585
-189.64012 770.60388 1794.1935 1643276
-180.05785 775.12616 1804.7227 1445641
-168.20021 769.80591 1792.3354 1248007
-158.46074 774.11603 1802.3708 722178
-146.98659 769.96252 1792.7002 3024416
-136.80801 772.47705 1798.5548 1050882
-127.02509 777.83936 1811.0399 1116676
-116.2122 777.30243 1809.7897 1116420
-105.73353 779.11908 1814.0194 721920
-94.89048 778.35803 1812.2474 1181702
-84.589394 782.41559 1821.6946 1247496
-73.282204 776.99292 1809.0691 918531
-62.630116 777.8479 1811.0597 1115909
-51.454079 771.20361 1795.5897 1379082
-40.880661 772.48151 1798.5651 655616
-30.124414 769.98761 1792.7585 590080
-19.353643 764.20282 1779.2899 1510664
-8.813241 764.55408 1780.1077 1905677
1.7506474 770.98004 1795.0692 1181955
12.422697 773.10126 1800.0082 1050627
23.355373 781.98895 1820.7013 787712
34.283096 785.14624 1828.0522 525057
45.064087 784.23364 1825.9276 1182982
56.281582 789.79993 1838.8877 1314569
67.420395 792.63538 1845.4893 1117192
78.302895 792.08643 1844.2112 393728
89.574768 795.1283 1851.2936 196608
101.03279 798.97858 1860.2581 1314570
111.3662 794.05249 1848.7887 854278
122.93143 798.00525 1857.9919 2827810
134.05524 798.67816 1859.5587 1249034
145.77657 802.53833 1868.5464 986121
156.53558 800.92975 1864.8011 920326
166.88008 797.55225 1856.9373 1315084
178.31894 799.49933 1861.4706 2236186
190.32523 803.61523 1871.0537 4078135
201.8374 805.30652 1874.9916 1446415
212.67987 804.28888 1872.6221 394243
224.54668 807.05365 1879.0593 328963
235.15532 805.24878 1874.8571 1512980
246.95688 807.50751 1880.1158 1052686
258.66641 809.28314 1884.2502 1381652
268.86255 806.37299 1877.4745 3092012
278.02579 800.7193 1864.311 1512726
293.89282 814.06689 1895.3882 0
304.47144 812.32245 1891.3265 196608
317.18448 816.19421 1900.3412 657158
326.37646 811.0506 1888.3655 788740
334.65005 804.0415 1872.0461 985863
344.71143 801.63971 1866.4541 3354151
358.42572 807.61823 1880.3738 2235671
365.15649 797.97516 1857.9219 2893856
378.77863 803.51532 1870.8212 854274
388.99155 801.71417 1866.6273 1182983
390.08734 781.7417 1820.1255 2367773
414.40707 808.13281 1881.5719 722433
424.34164 805.82361 1876.1953 525057
435.40897 805.72852 1875.9739 1642507
447.02383 806.62604 1878.0637 1248006
454.68973 800.52753 1863.8645 1708558
463.20099 796.1712 1853.7218 1576713
470.23441 789.53558 1838.272 590849
479.06171 786.14404 1830.3756 1971472
491.18506 788.19189 1835.1436 1379333
499.5256 784.21228 1825.8779 2497812
518.23761 796.33862 1854.1115 2300177
526.18225 791.75934 1843.4495 1839625
535.99451 790.11951 1839.6316 1708039
550.08685 794.72864 1850.3629 2431760
554.34314 785.22485 1828.2354 3944741
565.237 785.30731 1828.4274 3484189
577.46979 787.21185 1832.8618 3089432
589.08972 788.2262 1835.2233 3220504
595.31897 782.12146 1821.0098 2825492
608.45123 785.14166 1828.0417 2299918
616.32391 781.38806 1819.3021 2431760
631.72028 787.13818 1832.6902 3089691
644.01166 788.89038 1836.7699 2233866
649.08112 781.88483 1820.459 3746594
661.59601 783.9306 1825.222 2365198
674.82642 786.74469 1831.774 1774087
689.58563 791.22375 1842.2026 2168590
694.58215 784.53619 1826.6321 1838855
703.62836 782.55792 1822.026 2102283
709.57416 777.24335 1809.652 1115907
726.2981 783.71716 1824.725 1839627
737.13159 783.73816 1824.7739 1050113
747.00848 782.75616 1822.4877 2168590
759.11951 784.10999 1825.6395 2366224
769.83972 784.00922 1825.405 2102539
784.08368 787.45013 1833.4165 2563088
803.1781 795.60175 1852.3958 1970952
812.28094 793.76959 1848.13 2234126
819.25879 789.93726 1839.2073 3549726
830.90308 790.64594 1840.8573 4141863
841.93329 790.75952 1841.1217 4602414
845.78351 784.21283 1825.8792 4273706
857.39258 784.93469 1827.5599 3155482
864.94965 781.97534 1820.6694 3944741
882.40869 787.9306 1834.5352 2826516
903.68707 797.10974 1855.907 4406063
922.4361 803.86407 1871.6331 4668976
927.45697 798.63647 1859.4617 3418910
939.64984 799.63489 1861.7863 3484447
942.98767 793.16205 1846.7156 2892568
951.56195 791.19171 1842.1281 2234640
962.95087 791.57977 1843.0316 1379334
980.7655 797.18207 1856.0754 1247748
985.81354 792.39832 1844.9373 1708297
1008.1043 801.42712 1865.9591 1971211
1033.5389 812.73236 1892.281 2102797
1038.1595 807.60303 1880.3385 2431762
1054.2003 811.37256 1889.115 2102797
1068.4524 813.70044 1894.535 1904647
1078.6086 812.89319 1892.6554 1510146
1087.6246 811.25201 1888.8342 2233864
1082.8206 799.44098 1861.3347 2234120
1101.6901 805.16998 1874.6735 2628621
1108.8584 802.31818 1868.0337 1904390
1110.2371 795.37494 1851.8679 2364937
1127.8336 800.07251 1862.8052 2628108
1133.7455 796.47046 1854.4185 3154963
1136.3441 790.6322 1840.8253 3220500
1137.1227 783.65076 1824.5704 3747357
1143.8416 780.85602 1818.0634 2233862
1193.0166 806.82605 1878.5293 2431244
1206.1534 808.16907 1881.6562 2694931
1214.5961 806.37085 1877.4695 2168586
1224.4409 805.52783 1875.5067 2431761
1238.3058 807.3208 1879.6814 2103052
1237.5999 799.66711 1861.8612 2432530
1246.4562 798.27252 1858.6143 2234640
1271.9595 807.47034 1880.0294 2102797
1297.5813 816.58313 1901.2466 2037259
1307.9453 816.01947 1899.9344 2168589
1340.9362 829.46198 1931.2324 3287068
1339.5366 821.58398 1912.8903 2826001
1356.7101 825.13416 1921.156 3944482
1361.7087 821.28229 1912.1877 3944480
1377.4248 823.90466 1918.2933 3681567
1383.7086 820.88824 1911.2703 3221274
1378.4923 811.15387 1888.6057 3221276
1393.6239 813.45325 1893.9594 2892566
1392.1578 806.10516 1876.8511 2958363
1398.6991 803.47351 1870.7236 3089692
1415.0083 806.45013 1877.6542 4273965
1439.8331 814.19574 1895.6882 3813416
1456.6605 817.33405 1902.9952 5196098
1462.7703 814.45673 1896.2958 3222569
1488.3423 822.37701 1914.7366 2828838
1512.7668 829.54816 1931.4332 5000522
1524.9563 829.95276 1932.3751 4935499
0 0 0 0
1512.0927 810.77466 1887.723 6777965
1535.1263 817.08014 1902.4041 6843760
1547.5881 817.7077 1903.8651 6843760
1563.684 820.23242 1909.7435 6975346
1601.2604 833.90765 1941.5834 6976117
1628.2034 841.8894 1960.1674 7173496
1645.7883 844.95374 1967.3019 6910070
1673.3846 853.07867 1986.2191 6975863
1698.4041 859.78546 2001.8346 7304826
