# .PCD v0.7 - Point Cloud Data file format
VERSION 0.7
FIELDS x y z rgb
SIZE 4 4 4 4
TYPE F F F U
COUNT 1 1 1 1
WIDTH 1348
HEIGHT 1
VIEWPOINT 0 0 0 1 0 0 0
POINTS 1348
DATA ascii
-1666.131 827.85791 1982.1984 2170129
-1653.6221 827.47662 1981.2854 2104593
-1636.0242 824.52515 1974.2185 2564373
-1611.2883 817.90778 1958.3741 3222303
-1604.8176 820.53333 1964.6605 4340526
-1605.661 826.96417 1980.0583 1774857
-1590.7466 825.31415 1976.1078 5327421
-1586.7227 829.33197 1985.7279 3617057
-1568.5758 825.9729 1977.6851 3946532
-1548.6842 821.6377 1967.3049 5262133
-1531.0519 818.4444 1959.6589 3814945
-1521.7045 819.66492 1962.5813 4999476
-1522.8906 826.62183 1979.2388 6249543
-1520.7898 831.88873 1991.8497 3420189
-1513.4662 834.35889 1997.764 2630417
-1488.4835 827.05591 1980.2781 2498577
-1475.1759 826.17542 1978.1699 3090458
-1447.3295 817.07312 1956.3757 3419424
-1440.076 819.54333 1962.2902 590592
-1441.3429 826.94202 1980.0054 3485473
-1446.6277 836.78619 2003.5762 4537903
-1436.2363 837.65082 2005.6461 2958870
-1417.9076 833.86182 1996.574 2366476
-1401.6637 831.24548 1990.3094 2893078
-1399.5686 837.04669 2004.1997 1906184
-1353.0693 816.16296 1954.1964 3748386
-1348.0553 820.15826 1963.7627 2235920
-1348.8011 827.75812 1981.9594 3748387
-1321.9573 818.41077 1959.5785 1971977
-1313.1466 820.16095 1963.7692 1774852
-1334.2802 840.81226 2013.2158 3221787
-1304.5953 829.52338 1986.1862 2827284
-1284.9883 824.49518 1974.1467 1971976
-1284.9073 832.01831 1992.1599 2893077
-1277.8353 835.11218 1999.5677 4208937
-1273.3762 839.98755 2011.2412 4604206
-1265.0225 842.36157 2016.9255 3419931
-1255.7953 844.19379 2021.3126 4867634
-1248.0656 847.07764 2028.2177 2038282
-1237.1101 847.80701 2029.9639 328448
-1222.1689 845.7923 2025.14 2170122
-1205.7485 842.70392 2017.7451 3091483
-1209.661 853.90656 2044.5686 1841419
-1204.5753 858.91998 2056.5725 3552033
-1187.7941 855.61102 2048.6497 4670258
-1166.5571 848.99109 2032.799 3683618
-1143.4382 840.849 2013.3038 2499346
-1126.4161 837.06586 2004.2456 2301453
-1092.3556 820.40552 1964.3546 5722944
-1078.3733 818.6283 1960.0994 5525565
-1080.7714 829.38269 1985.8492 3815717
-1077.5812 836.03821 2001.7852 5065272
-1073.4264 842.08521 2016.2637 4801587
-1060.1501 841.03204 2013.7422 4012069
-1041.5916 835.71674 2001.0154 3287833
-1021.1401 828.74286 1984.3173 2827282
-1002.1848 822.83472 1970.171 2958611
-988.31097 821.00867 1965.7988 3419162
-984.34094 827.46448 1981.2563 3353112
-981.13977 834.73029 1998.6533 4340523
-972.15509 837.19299 2004.55 3748386
-967.63837 843.61194 2019.9194 3945765
-948.07233 836.90698 2003.8652 2300685
-934.8078 835.66516 2000.8917 3024666
-911.62256 825.40881 1976.3344 1774859
-895.80804 821.64612 1967.3251 2695957
-899.3075 835.73273 2001.0537 3025179
-878.33026 827.14563 1980.4929 5130554
-870.71619 831.08069 1989.9149 2104591
-862.20782 834.25848 1997.5238 3222560
-833.15289 817.36749 1957.0806 3946026
0 0 0 0
0 0 0 0
0 0 0 0
0 0 0 0
0 0 0 0
0 0 0 0
-772.68707 839.89044 2011.0087 3223068
-767.50311 847.3244 2028.8085 2960155
-749.10101 840.1701 2011.6782 2630933
-735.15076 837.85791 2006.1422 4275759
-724.62067 839.43201 2009.911 197120
-715.30994 842.49475 2017.2444 854275
-702.94666 842.00525 2016.0724 1577992
-695.00598 846.888 2027.7634 1709064
-680.74542 844.1059 2021.1022 1117443
-665.75482 840.30286 2011.9962 131072
-653.0293 839.27209 2009.5282 1576964
-635.79053 832.29486 1992.8223 1051140
0 0 0 0
0 0 0 0
0 0 0 0
0 0 0 0
0 0 0 0
0 0 0 0
0 0 0 0
0 0 0 0
0 0 0 0
0 0 0 0
0 0 0 0
-488.17316 822.35822 1969.03 2762009
-482.65735 832.97723 1994.4561 2630166
-472.4787 835.88025 2001.4069 591104
0 0 0 0
-435.20639 810.63983 1940.9719 2301460
-439.15369 840.19897 2011.7476 1972236
-424.0751 833.99127 1996.8839 1972233
-409.1803 827.79895 1982.0573 2958359
-398.16129 829.31335 1985.6833 3221786
-386.24976 829.00446 1984.9437 4077608
-374.80829 829.71661 1986.6489 3616799
-358.6597 819.71698 1962.7059 3222553
-349.14325 824.71265 1974.6676 2301195
-339.82056 830.5285 1988.5928 3156248
-330.74573 837.38977 2005.0212 3945765
-316.88736 832.19995 1992.5948 4274730
-305.7637 834.06824 1997.0682 2498321
-293.2988 832.28101 1992.7888 3155992
-281.79617 833.18884 1994.9626 2497548
-270.19061 833.85858 1996.5663 2826770
-256.86258 829.0304 1985.0057 1379589
-242.74612 821.07184 1965.95 2366476
-233.49091 829.5827 1986.3281 787968
-220.91661 826.57861 1979.1353 3222039
-207.99362 821.85986 1967.8368 2695698
-195.39526 817.93939 1958.4497 2629905
-183.33385 815.91345 1953.5989 1511426
-172.26965 818.3515 1959.4366 5985346
-161.64861 823.39948 1971.5233 1643012
-148.80203 817.0144 1956.235 4076836
-135.70776 808.07538 1934.8318 3484442
-123.64047 804.16614 1925.4714 2563340
-112.57415 806.63409 1931.3807 3616285
-100.30923 800.10028 1915.7363 3484701
-90.367271 812.79218 1946.1255 2497806
-78.838234 812.83466 1946.2272 4405803
-67.562698 815.95319 1953.694 1314309
-56.771103 827.41473 1981.1373 4340009
-44.534199 818.29626 1959.3042 2234890
-31.984707 794.97644 1903.468 3813922
-20.914423 803.04254 1922.7812 4010531
-9.5286999 803.80914 1924.6167 4668460
1.9023234 814.65839 1950.5939 3812893
13.475196 815.45941 1952.512 3023636
25.149223 818.81378 1960.5435 3550237
37.029514 824.64166 1974.4976 2628881
49.139484 831.55737 1991.0563 1971466
61.556236 839.98138 2011.2264 1971723
73.458183 839.78693 2010.7609 2235408
85.899689 844.9541 2023.1329 1117192
97.6614 842.98773 2018.4248 5459009
109.33683 840.78699 2013.1553 2366738
120.75753 837.25317 2004.6941 1576966
133.14645 840.46405 2012.3823 1511174
145.38936 842.30109 2016.7809 1445379
156.57767 838.21362 2006.9937 2103308
167.38802 832.82251 1994.0856 2169356
176.61734 820.79504 1965.2874 853248
190.09367 828.77191 1984.3868 1248000
200.47437 823.10919 1970.8281 1116416
212.55232 824.65491 1974.5292 1576964
225.29356 828.47839 1983.6842 3090460
236.18277 825.44995 1976.4327 721920
250.2307 833.22565 1995.0508 1905930
260.43549 828.08008 1982.7303 2169101
275.68231 838.71826 2008.2021 1182722
286.51321 835.59735 2000.7296 1379847
299.22824 838.00098 2006.4846 1708550
311.60812 839.31818 2009.6385 1510916
322.50946 836.70251 2003.3757 2958617
334.68979 837.47302 2005.2205 1117188
346.51364 837.32922 2004.8761 2103563
360.40295 842.02057 2016.1089 4142888
371.03842 839.05273 2009.0028 2103307
385.13364 843.84979 2020.489 2168586
393.17267 835.4884 2000.4686 2103050
402.75699 830.80396 1989.2523 1840138
418.5744 838.87799 2008.5846 1379586
430.02914 838.00385 2006.4916 1642758
437.15463 828.96735 1984.8547 3155997
452.10751 834.85834 1998.9601 1840137
463.66586 834.34027 1997.7195 2432274
476.30444 835.74341 2001.0792 1182981
488.6355 836.55188 2003.0149 2103309
497.49982 831.52765 1990.9851 1510914
508.85425 830.80188 1989.2472 1576452
519.16956 828.45074 1983.6178 2760467
529.27197 825.87152 1977.4423 2102537
538.21295 821.63092 1967.2888 1510404
552.34576 825.328 1976.1409 1378560
564.91718 826.58691 1979.1552 2563084
576.1217 825.83533 1977.3555 2497036
585.17468 822.09094 1968.3901 2562829
596.87091 822.13385 1968.4928 2694415
611.41211 826.01855 1977.7944 3023381
628.17578 832.70331 1993.8002 2234377
647.83862 842.91345 2018.2469 1773571
661.47833 845.05853 2023.3832 852992
668.3642 838.65277 2008.0453 2102280
679.51526 837.72931 2005.8342 2102278
689.15045 835.00092 1999.3014 1379328
697.39264 830.70557 1989.0166 4274218
709.88239 831.52826 1990.9866 4537906
723.04572 833.10022 1994.7505 2235408
735.14813 833.41895 1995.5135 5590852
756.02124 843.51318 2019.683 2629910
765.65289 840.94598 2013.536 2695704
777.93384 841.32257 2014.4377 656641
785.56653 836.73688 2003.458 1379847
790.24292 829.18573 1985.3777 853505
794.22339 821.13666 1966.1052 656128
811.35712 826.7226 1979.4801 1839881
817.23138 820.84015 1965.3953 2432017
826.36383 818.34967 1959.4321 2497554
834.16052 814.62366 1950.5107 1905416
843.36755 812.35797 1945.0859 3089174
856.34448 813.73584 1948.385 2365451
875.91571 821.25983 1966.4 3352089
896.02112 829.08044 1985.1256 2300172
908.26526 829.51874 1986.1749 1773832
914.35193 824.39404 1973.9047 1050112
926.42334 824.72662 1974.701 1246976
942.77179 828.8111 1984.4807 1115392
946.32153 821.68176 1967.4105 1312768
957.72076 821.45874 1966.8763 1575936
965.91278 818.52319 1959.8477 459264
962.74298 806.14374 1930.2065 3747103
980.02582 810.97968 1941.7858 1510144
993.04169 812.21344 1944.7397 1510146
1007.3642 814.4754 1950.1556 1641986
1023.5349 818.16327 1958.9858 1773828
1039.6556 821.729 1967.5236 590080
1052.8477 822.92645 1970.3906 655616
1069.6528 826.89081 1979.8829 1576963
1089.4907 833.08807 1994.7214 1511171
1098.9706 831.31708 1990.481 1445379
1115.4791 834.84399 1998.9257 2761238
1120.5389 829.81848 1986.8927 2037515
1139.3201 834.95306 1999.1869 2827033
1155.4342 838.04767 2006.5964 1511174
1160.7396 833.3194 1995.2751 984577
1158.5553 823.36353 1971.4373 2169101
1157.0389 814.0766 1949.2009 787456
1168.4749 813.99615 1949.0082 2037259
1196.3574 825.26239 1975.9838 721408
1200.6545 820.19849 1963.8588 786688
1209.3457 818.20447 1959.0845 983808
1219.5292 817.24854 1956.7957 1641730
1233.2673 818.67035 1960.2 1510659
1244.1553 818.19122 1959.0527 1444864
1254.7312 817.51758 1957.4398 1642243
1261.944 814.68512 1950.6578 2563345
1270.7811 812.9433 1946.4873 1839622
1286.8446 815.81396 1953.3607 2563345
1298.7982 816.05121 1953.9288 1971210
1311.0472 816.4682 1954.9272 459008
1340.5532 827.53076 1981.415 590848
1330.1975 814.008 1949.0366 1444867
1342.2823 814.33215 1949.8127 918528
1348.4728 811.10541 1942.0868 1313024
1363.2933 813.08032 1946.8154 1839878
1387.274 820.43939 1964.4358 1707779
1400.8649 821.58258 1967.173 1445121
1419.1299 825.4256 1976.3745 1313280
1434.0052 827.25018 1980.7434 458752
1447.735 828.38971 1983.4718 1181696
1463.2695 830.53528 1988.6089 1905674
1457.0005 820.36987 1964.2693 1247492
1471.2837 821.84607 1967.8037 656129
1480.8584 820.68939 1965.0343 1115904
1495.4978 822.33582 1968.9764 1247488
1512.8627 825.44379 1976.4182 1313024
1531.252 829.05872 1985.0735 1115392
1543.77 829.46393 1986.0437 1641729
1539.014 820.65179 1964.9445 1444096
1562.9756 827.17029 1980.5519 1575680
1579.3992 829.63196 1986.4462 1181440
1592.9445 830.55658 1988.6599 1641730
1592.2723 824.10895 1973.222 1904901
1592.9993 818.47424 1959.7305 4536621
1607.7457 820.07227 1963.5566 1707523
1623.4469 822.13062 1968.4851 1707522
1633.4716 821.30554 1966.5096 1180928
1658.2231 827.84442 1982.166 1115648
1673.6813 829.6842 1986.5713 918528
1677.1532 825.59796 1976.7872 393216
1685.0582 823.73547 1972.3278 458752
1694.666 822.72546 1969.9094 458752
1703.8728 821.53577 1967.0608 458752
1711.7407 819.72113 1962.7159 1115904
1722.7306 819.41595 1961.9852 655872
1733.0892 818.81665 1960.5503 984320
1746.6597 819.7326 1962.7435 1181696
1757.4109 819.3222 1961.7607 1444866
1771.6036 820.51105 1964.6074 984320
1788.1493 822.76703 1970.0089 1050112
1801.7831 823.6626 1972.1533 590336
1832.2325 832.18414 1992.557 1050369
1839.8328 830.2851 1988.01 1839882
1846.5135 827.99799 1982.5338 1577223
1866.184 831.52765 1990.9851 2037772
1889.6852 836.70911 2003.3914 459264
1891.678 832.36182 1992.9825 985088
1896.1564 829.15546 1985.3053 1247746
0 0 0 0
0 0 0 0
0 0 0 0
0 0 0 0
0 0 0 0
0 0 0 0
0 0 0 0
0 0 0 0
0 0 0 0
0 0 0 0
0 0 0 0
0 0 0 0
-1689.0332 827.80042 1954.3297 5262400
-1675.937 827.05304 1952.5653 3157024
-1670.5227 830.11255 1959.7885 1972751
-1661.9324 831.62579 1963.361 2630679
-1649.0671 831.00592 1961.8976 2367508
-1643.6669 834.16589 1969.3577 3748647
-1641.7992 839.17651 1981.1873 2893338
-1612.5677 830.17218 1959.9292 2499094
-1600.7725 830.07867 1959.7084 2235666
-1573.5634 821.93262 1940.4766 1841422
-1573.5116 827.95636 1954.6978 4538422
-1571.6478 833.10883 1966.8622 2565143
-1534.2328 819.35229 1934.3849 3157019
-1519.3568 817.51624 1930.05 5591103
-1521.6941 824.98444 1947.6815 5656639
-1518.6272 829.6145 1958.6124 4998963
-1516.4954 834.83063 1970.9272 5459003
-1516.3491 841.22937 1986.0337 3353885
-1491.5642 833.95239 1968.8536 3024665
-1473.1388 830.14435 1959.8634 2432273
-1475.839 838.27509 1979.0591 3287835
-1444.2096 826.88074 1952.1584 1314826
-1424.8618 822.39099 1941.5587 3090972
-1422.9901 827.99701 1954.7937 3683365
-1419.6813 832.85193 1966.2556 4208937
-1421.9479 841.08502 1985.693 2366476
-1405.9441 838.55841 1979.728 1840645
-1390.4447 836.29266 1974.3789 2038287
-1387.4569 841.57758 1986.8557 3618084
-1339.2694 819.30182 1934.2656 6118477
-1330.5472 820.99292 1938.2581 3552293
-1326.7838 825.79987 1949.6066 4472881
-1317.3414 827.12555 1952.7365 2761748
-1312.7621 831.55511 1963.1941 1314307
-1304.6176 833.78552 1968.4597 1840390
-1285.0499 828.6897 1956.4292 2629648
-1274.7881 829.5567 1958.4761 2563343
-1265.0225 830.76544 1961.3298 4274215
-1259.3752 834.7265 1970.6813 4208420
-1256.0802 840.33527 1983.923 1709836
-1252.9393 846.15417 1997.6605 5459514
-1248.7515 851.37018 2009.9749 3156759
-1251.7777 861.65253 2034.2501 3552032
-1237.0549 859.79865 2029.8733 1644039
-1219.5216 855.93567 2020.7534 2235662
-1201.5228 851.6662 2010.6737 4143913
-1187.5909 850.22278 2007.266 6972756
-1183.0239 855.5224 2019.7777 3814693
-1160.2808 847.65173 2001.1962 4012073
-1151.4646 849.89807 2006.4994 3419679
-1107.4624 825.9494 1949.9596 5261883
-1082.6396 815.9505 1926.3535 1577476
-1089.5254 829.89099 1959.2651 4406317
-1073.7825 826.70972 1951.7548 6117190
-1063.0081 827.32623 1953.2102 2959125
-1066.1172 838.88074 1980.4889 2367249
-1063.6138 846.22693 1997.8323 2629906
-1044.6171 840.46844 1984.2372 2366734
-1022.2927 831.87109 1963.9401 2958869
-1014.3563 834.91846 1971.1345 3287833
-1004.1536 836.14978 1974.0414 1840392
-977.659 823.68402 1944.6113 4011556
-972.89948 829.45129 1958.2272 1248257
-962.44324 830.44238 1960.567 3024406
-948.25757 828.2005 1955.2742 2695441
-941.45325 832.42963 1965.2585 3353629
-942.92633 844.17529 1992.9885 1972238
-919.81885 833.93341 1968.8088 3156509
-909.65948 835.31836 1972.0786 1906444
-890.05603 827.95422 1954.6929 3024921
-881.94849 831.23077 1962.4282 4011560
-866.79266 827.86298 1954.4774 3419679
-848.04425 820.92639 1938.101 2630164
-835.92865 820.30817 1936.6415 2893080
-817.15436 813.04755 1919.5 2432272
0 0 0 0
0 0 0 0
0 0 0 0
0 0 0 0
0 0 0 0
0 0 0 0
-767.11816 845.66895 1996.515 1577475
-759.40082 850.27576 2007.391 2169612
-746.5556 849.19629 2004.8425 3420450
-732.37726 846.54095 1998.5737 1709837
-715.3125 840.4071 1984.0925 3420196
-708.97974 846.88788 1999.3927 1116932
-697.25293 847.03613 1999.7427 985860
-683.87476 845.14868 1995.2866 2103566
-673.82245 847.37726 2000.5482 1248772
-661.25867 846.47083 1998.4082 1314820
0 0 0 0
-621.0686 824.55933 1946.678 4143661
0 0 0 0
0 0 0 0
0 0 0 0
0 0 0 0
0 0 0 0
0 0 0 0
0 0 0 0
0 0 0 0
0 0 0 0
0 0 0 0
0 0 0 0
-485.35968 829.2204 1957.682 2301200
-474.95795 831.32056 1962.6403 2235407
-468.32098 840.28113 1983.795 2366738
-451.82352 831.55542 1963.1948 2300945
-435.30811 822.33459 1941.4257 3485472
-424.63818 823.95551 1945.2524 3090713
-419.54861 836.79712 1975.5697 2827283
-404.79163 830.54047 1960.7986 4472107
-390.62814 825.16797 1948.1147 2169871
-379.58258 826.25494 1950.681 3090454
-364.87448 819.18738 1933.9955 2760976
-354.99683 822.85815 1942.6615 2563598
-346.27991 829.5556 1958.4734 2234632
-335.72629 832.16498 1964.6338 2892564
-322.92792 829.19781 1957.6288 2235408
-311.1658 828.76953 1956.6177 3090456
-300.56262 831.5144 1963.0978 3814179
-290.83316 836.99475 1976.0363 3090456
-278.27322 834.44733 1970.0221 3024663
-264.70361 828.51648 1956.0203 2169354
-252.61612 826.8938 1952.1893 3156249
-239.74338 822.42181 1941.6315 3485215
-226.96881 817.85254 1930.844 1446149
-214.17938 812.7417 1918.7781 2498320
-202.29541 810.68634 1913.9257 4537902
-191.16377 811.58093 1916.0375 2300942
-182.00716 821.50281 1939.4618 3419162
-170.035 819.19751 1934.0193 5392952
-158.18948 817.21326 1929.3346 2366475
-145.78181 811.78937 1916.5295 3089941
-135.53993 818.5282 1932.4391 2892049
-123.65748 815.68896 1925.7362 2760206
-111.49311 810.22394 1912.8339 3155220
-100.13876 810.07428 1912.4805 2431499
-88.677597 808.91229 1909.7372 2957844
-78.539673 821.24646 1938.8567 2695185
-66.373581 812.96655 1919.3087 3155736
-55.372383 818.48041 1932.3264 2168328
-44.044075 820.77386 1937.7408 2497292
-32.522026 819.80121 1935.4447 2694670
-20.823334 810.89026 1914.4069 3089428
-9.4913712 812.0213 1917.0771 5457976
1.8706074 812.44312 1918.0731 2826512
13.195589 809.86981 1911.9978 4076065
24.728088 816.52637 1927.7131 3154964
36.648575 827.7392 1954.1851 2628363
48.588219 833.89569 1968.72 3155479
60.332485 834.96429 1971.2427 1708292
72.280411 838.04749 1978.5217 1510661
83.991142 837.90375 1978.1824 2432015
95.572853 836.66577 1975.2595 2103308
106.78563 832.82056 1966.1815 2432529
119.15788 837.88513 1978.1384 2300940
130.31651 834.27283 1969.6104 2958360
141.19527 829.61011 1958.6022 2169100
152.26328 826.68329 1951.6923 1182209
163.73334 826.19836 1950.5476 1379586
175.60767 827.68298 1954.0525 1840136
183.34235 810.67969 1913.9098 1576965
196.53358 818.37903 1932.0869 1116160
211.30457 831.44672 1962.938 1379844
221.93027 827.6908 1954.0708 1708553
233.83594 828.84424 1956.7941 2563860
244.45294 825.5368 1948.9856 2826518
258.30038 832.94501 1966.4753 327936
269.83844 832.58807 1965.6327 2300432
283.82742 839.50995 1981.9745 393216
294.70261 837.03778 1976.1381 393216
303.80139 829.90192 1959.291 1839883
319.84378 841.56116 1986.817 787968
329.67612 836.633 1975.1821 3484706
342.44913 839.24951 1981.3595 459008
354.5965 840.21008 1983.6273 2629397
367.35184 842.50342 1989.0416 1511688
381.81125 848.44073 2003.059 1708552
390.52982 841.64783 1987.0217 2103309
399.66812 836.13062 1973.9962 2234895
414.20947 841.90936 1987.6389 1774344
427.53989 844.97516 1994.877 2103309
438.86053 844.01074 1992.6002 1576966
451.33304 845.25421 1995.5359 2761238
462.26636 843.62518 1991.6898 853248
470.35831 837.02087 1976.098 1116417
483.65695 839.77795 1982.6071 1774858
493.03186 835.75293 1973.1045 2037258
504.40561 835.22418 1971.8562 1379585
515.79346 834.74225 1970.7184 1379073
528.39069 836.19562 1974.1497 1839623
532.75543 824.8399 1947.3402 1379075
549.93469 833.38519 1967.5146 1116164
558.62201 828.97406 1957.1005 918784
566.63586 823.76318 1944.7983 2300173
578.94647 824.88214 1947.4401 1444352
590.83588 825.3689 1948.5891 1773314
605.54999 829.70734 1958.8317 1970693
613.81476 825.21216 1948.219 1707522
632.84436 835.08789 1971.5345 2103048
641.57428 831.26074 1962.4991 3024150
656.30255 835.20337 1971.807 2300426
664.15076 830.40564 1960.4803 1577219
675.75 830.38239 1960.4253 2760978
693.92944 838.30908 1979.1393 2300428
698.16223 829.40393 1958.1154 4537905
710.36853 830.10754 1959.7765 3155996
721.47662 829.52576 1958.403 2827288
735.42194 832.17291 1964.6527 3814439
744.94092 829.80701 1959.067 3748136
759.44165 832.97778 1966.5529 3617062
777.32257 839.70435 1982.4332 1116933
785.25336 835.64172 1972.8419 853763
790.86835 829.2702 1957.7996 1643021
796.88501 823.49799 1944.1721 1182726
793.95496 808.77661 1909.4169 2826519
815.98523 819.53778 1934.8228 2168587
829.71552 821.78027 1940.1169 2760724
834.52594 815.24768 1924.6943 3747616
849.22198 818.41827 1932.1797 2037259
868.9364 826.27643 1950.7317 2036486
884.49445 830.02783 1959.5884 2497036
906.40485 839.5661 1982.1068 1312769
905.06073 827.59589 1953.8468 2760207
908.44922 820.20105 1936.3887 1510144
925.03168 824.75452 1947.1388 1773315
935.45868 823.77515 1944.8265 2562572
944.22717 821.37683 1939.1644 1641986
956.54224 822.08429 1940.8346 1576452
964.15674 818.7832 1933.0411 2102277
968.26868 812.61993 1918.4906 2168071
989.88428 821.11932 1938.5565 1181440
1001.3806 821.12592 1938.572 2694931
1014.8539 822.73505 1942.371 1839623
1028.8147 824.69885 1947.0073 985088
1046.9346 829.91608 1959.3245 853248
1055.3479 827.40881 1953.4052 1379843
1071.9836 831.33246 1962.6682 1445379
1082.8345 830.7337 1961.2549 1116416
1088.9784 826.57495 1951.4366 721920
1104.1212 829.26245 1957.7814 1511429
1112.8192 827.10388 1952.6853 1445635
1121.9188 825.28522 1948.3916 328192
1130.6952 823.26813 1943.6296 919040
1149.6719 828.64386 1956.3209 525569
1150.1415 820.70618 1937.5811 1116160
1154.2115 815.46918 1925.2173 1576964
1163.9723 814.31586 1922.4944 2102794
1184.7112 820.79083 1937.7809 1444867
1191.9501 817.87817 1930.9045 1050368
1206.8729 820.24316 1936.4882 984576
1216.9779 819.32007 1934.3088 1510658
1232.2163 821.8382 1940.2535 984320
1245.2125 822.82788 1942.5902 984576
1243.9575 814.46875 1922.8552 1115904
1266.42 821.64917 1939.8074 1839621
1277.9263 821.65582 1939.8232 1576449
1290.6567 822.44263 1941.6807 1773829
1303.6281 823.36761 1943.8644 2102794
1313.6099 822.40479 1941.5912 1181696
1324.9557 822.30511 1941.3561 1905414
1336.749 822.48267 1941.7751 918528
1342.8638 819.19293 1934.0085 1379073
1343.5016 812.64618 1918.5524 2168587
1369.5253 821.43549 1939.3029 1839622
1385.1451 823.89032 1945.0984 1576451
1393.7021 822.13831 1940.9622 2037001
1410.5988 825.29419 1948.4127 1576449
1431.4491 830.69324 1961.1593 1181696
1435.0864 826.0968 1950.3076 1444866
1456.7598 831.87311 1963.9448 1247748
1467.1088 831.14252 1962.2198 2169359
1471.979 827.34381 1953.2517 1773833
1487.139 829.3429 1957.9713 1115904
1497.9686 828.91473 1956.9604 1115904
1510.3179 829.32764 1957.9352 1050112
1521.3999 829.04364 1957.2648 1378816
1538.5532 832.0473 1964.3561 1246976
1544.5231 829.00336 1957.1696 1378560
1549.6545 825.55811 1949.0358 1970437
1568.0718 829.18921 1957.6083 1707522
1574.4069 826.42487 1951.0823 1641730
1578.1052 822.32697 1941.4077 1707522
1586.9716 820.96191 1938.1849 1575936
1603.2042 823.39972 1943.9403 1444352
1621.0852 826.64331 1951.5979 2102795
1639.5225 830.12256 1959.812 918784
1651.0776 830.09283 1959.7418 852736
1665.3643 831.42725 1962.8921 918784
1672.5155 829.20551 1957.6469 458752
1679.8153 827.08752 1952.6465 458752
1694.6685 828.69214 1956.4348 590080
1700.2238 825.75909 1949.5104 1708294
1702.2882 821.18176 1938.704 1247745
1701.2971 815.20166 1924.5856 722434
1728.8151 822.87073 1942.6914 721408
1739.4482 822.45477 1941.7094 524800
1759.1577 826.30768 1950.8054 1182208
1769.7274 825.84515 1949.7135 1774345
1786.2773 828.16119 1955.1814 1116417
1802.2118 830.16388 1959.9095 1642757
1805.652 826.42236 1951.0764 1642758
1827.3562 831.03467 1961.9652 1116933
1835.3723 829.40283 1958.1128 2629140
1849.6349 830.59668 1960.9312 1181954
1855.5924 828.06934 1954.9645 1774090
1865.1626 827.17554 1952.8545 2958617
0 0 0 0
0 0 0 0
0 0 0 0
0 0 0 0
0 0 0 0
0 0 0 0
0 0 0 0
0 0 0 0
0 0 0 0
0 0 0 0
0 0 0 0
-1653.707 816.22968 1900.4237 4209712
-1656.7604 823.34387 1916.9878 3551525
-1644.7212 823.00433 1916.1971 2631193
-1652.4347 832.61285 1938.5686 1841935
-1643.3278 833.82104 1941.3818 2301717
-1639.6378 837.81451 1950.6796 2630940
-1628.0258 837.78772 1950.6173 2828320
-1611.9316 835.43762 1945.1455 1709581
-1595.8657 833.06842 1939.6294 1906960
-1569.6527 825.32947 1921.6108 2104085
-1561.7769 827.18958 1925.9417 657153
-1524.2445 813.25403 1893.4956 2432787
-1529.78 822.26086 1914.4662 3485219
-1515.4713 820.65625 1910.7301 2629908
-1506.6693 822.03186 1913.933 4274730
-1511.0302 830.66443 1934.0321 3419421
-1514.2839 838.81573 1953.0109 3682849
-1513.8322 845.02411 1967.4658 3024920
-1488.2484 837.19135 1949.2288 2366991
-1478.3807 838.146 1951.4515 4011818
-1469.3242 839.57922 1954.7885 2827544
-1454.4525 837.68597 1950.3805 4143918
-1434.9432 833.06995 1939.6329 2696474
-1431.1636 837.58521 1950.1458 1249545
-1431.2772 844.47095 1966.1779 2170128
-1406.4558 836.63715 1947.9384 4209453
-1395.2727 836.85352 1948.4423 4538417
-1370.156 828.64673 1929.3344 3683621
-1360.8993 829.97443 1932.4255 2565398
-1357.1196 834.69318 1943.4122 3157534
-1335.041 828.14172 1928.1586 3091483
-1312.5396 821.21259 1912.0255 4078121
-1311.8307 827.91644 1927.634 3748386
-1310.2271 834.1684 1942.1904 3617057
-1301.084 835.68866 1945.73 4143911
-1298.0856 841.21802 1958.604 4866867
-1283.9458 839.56189 1954.748 2432527
-1274.4243 840.9231 1957.9172 722945
-1261.4235 839.99219 1955.7499 2498572
-1266.9138 851.47174 1982.4777 5261622
-1252.7762 849.85114 1978.7045 5327928
-1249.1274 855.38232 1991.5828 4012580
-1239.5177 856.89832 1995.1123 3157017
-1233.9031 861.23193 2005.2023 2959895
-1219.0564 859.14343 2000.3397 3683621
-1201.5244 855.10272 1990.9319 2828312
-1177.9752 846.65723 1971.2682 2959897
-1177.2959 854.64459 1989.8651 3091740
-1157.6326 848.87292 1976.4269 4736309
-1132.8816 839.2146 1953.9393 3946794
-1115.5687 834.92346 1943.9485 3156764
-1082.406 818.55664 1905.8417 4143146
-1072.1079 819.31805 1907.6144 2103820
-1058.5281 817.56104 1903.5236 6446155
-1070.5817 835.77747 1945.9369 4143144
-1056.2272 833.55011 1940.7509 3353885
-1050.0688 837.81305 1950.6763 2037772
-1041.8972 840.54675 1957.0411 853760
-1030.1265 840.40564 1956.7126 1182723
-1016.2449 838.51971 1952.3217 985345
-1012.9523 845.42804 1968.4062 2498067
-996.6814 841.53925 1959.3519 1314051
-966.1051 825.33777 1921.6301 3485470
-953.8667 824.60266 1919.9186 3024406
-957.32172 837.58026 1950.1342 3419679
-945.30609 837.17401 1949.1884 3287837
-932.39685 835.95654 1946.3538 1577991
-922.23877 837.20593 1949.2628 2301459
-913.79822 840.0661 1955.9221 3617061
-900.92999 838.87708 1953.1537 3485218
-887.29572 836.93445 1948.6307 3353887
-861.80975 823.61426 1917.6174 3617059
-852.90985 826.00085 1923.174 3157277
-836.43109 821.01294 1911.5607 5262654
-825.39526 821.30389 1912.2382 2959130
-821.32178 828.62738 1929.2893 3222303
0 0 0 0
0 0 0 0
0 0 0 0
0 0 0 0
0 0 0 0
0 0 0 0
0 0 0 0
-750.42297 851.97919 1983.6592 2959900
-739.63788 853.09851 1986.2654 2499352
-716.96411 840.31989 1956.5129 3156767
-706.78424 842.00537 1960.4373 3748648
-694.19055 840.82361 1957.6858 2959645
-686.54681 845.69904 1969.0371 1841421
-679.5647 851.5722 1982.7115 328704
-662.03363 844.20038 1965.5477 1644044
-652.57568 847.0434 1972.1672 985859
-622.42407 822.63977 1915.3485 1907215
-611.40521 823.08667 1916.3888 3683368
0 0 0 0
0 0 0 0
0 0 0 0
0 0 0 0
0 0 0 0
0 0 0 0
0 0 0 0
0 0 0 0
0 0 0 0
-497.37939 822.33191 1914.6315 2432787
-489.05423 827.44385 1926.5336 2498580
-482.82822 836.43658 1947.4714 3617316
-472.65463 838.86371 1953.1224 1314308
-458.45932 834.0957 1942.0211 1249029
-447.13025 834.43121 1942.8022 2235408
-426.64545 817.24646 1902.7913 3353886
-416.09171 818.66821 1906.1014 4077097
-412.53723 834.32471 1942.5544 985857
-402.17502 836.71686 1948.124 1249287
-388.07767 831.24982 1935.3951 2827284
-375.77637 829.414 1931.1207 2497806
-362.06747 824.25836 1919.1169 3353116
-353.06848 829.8385 1932.109 2103049
-341.95679 830.66046 1934.0228 2366219
-332.45703 835.59088 1945.5023 2169097
-319.75098 832.5274 1938.3696 2103305
-308.20166 832.35962 1937.979 3944994
-298.13293 836.33221 1947.2285 2826514
-286.14374 835.02051 1944.1744 853760
-275.16373 836.66724 1948.0085 3287578
-262.82281 834.13898 1942.1219 2827284
-253.16672 840.29047 1956.4443 1248001
-238.64497 830.10767 1932.7357 2037771
-225.38484 823.50769 1917.3691 2827285
-212.2061 816.52014 1901.1 2366733
-201.21436 817.63593 1903.6979 2432526
-190.22958 818.91412 1906.6741 3814177
-180.15443 824.51703 1919.7192 1971977
-168.47011 823.01404 1916.2198 2695698
-156.38907 819.21564 1907.3761 3353370
-143.57675 810.69635 1887.5405 1970692
-133.2372 815.87939 1899.6082 2102276
-122.53565 819.5979 1908.2659 3088657
-111.3688 820.64374 1910.701 2496777
-99.564804 816.70013 1901.5192 2562827
-87.253731 807.05957 1879.0731 3615260
-76.838028 814.69452 1896.8494 3154967
-65.4431 812.78442 1892.4022 2826514
-54.38625 815.15149 1897.9133 2826514
-43.405373 820.18848 1909.641 984832
-32.096413 820.39227 1910.1156 1180928
-20.659622 815.77094 1899.3557 2168072
-9.413415 816.61938 1901.3313 1773574
1.8524795 815.8266 1899.4852 2233865
13.124395 816.77008 1901.682 3747102
24.563812 822.45013 1914.907 2760207
36.212128 829.32458 1930.9126 2892563
47.886093 833.34393 1940.2709 5590076
59.54726 835.62726 1945.5872 2037512
70.747658 831.75275 1936.566 2168844
81.29229 822.32617 1914.6182 1314311
93.274155 827.96674 1927.751 2498067
103.9884 822.35175 1914.6777 4077612
116.38062 829.80579 1932.033 1708550
127.79288 829.56317 1931.468 5129786
137.96904 821.99585 1913.8492 1840395
150.56261 828.88678 1929.8933 2498064
160.67496 822.10931 1914.1133 1182467
172.72722 825.49689 1922.0006 1379588
178.2104 799.01263 1860.3374 2563859
196.19771 828.41083 1928.785 1905930
208.38168 831.41742 1935.7854 853760
220.6631 834.479 1942.9136 2892826
231.7079 832.79211 1938.9861 2432273
243.98123 835.47162 1945.2246 2432532
254.39099 831.8158 1936.7128 2497807
266.78165 834.67316 1943.3656 2234894
278.78934 836.14532 1946.7935 1182209
289.98599 835.16492 1944.5106 393216
301.36664 834.76898 1943.5887 1971980
313.32071 835.93201 1946.2966 328192
326.02292 838.93768 1953.2948 2892569
340.22278 845.45892 1968.4781 1510917
354.07581 850.71448 1980.7146 590849
361.31201 840.245 1956.3386 2563860
371.29425 836.61407 1947.8848 1642759
383.24808 837.51062 1949.972 1116417
396.87537 841.90454 1960.2025 1840137
410.17557 845.37457 1968.2817 1642759
420.94962 843.59015 1964.1271 1314051
436.98462 852.16113 1984.0829 1511175
446.55688 848.01025 1974.4185 2037517
457.71741 847.01044 1972.0905 2037517
467.27869 843.17468 1963.1597 1379587
480.55856 846.0722 1969.906 1511428
488.11212 838.98969 1953.4158 1116674
501.7511 842.45276 1961.479 1642757
510.1745 837.20038 1949.2498 2169102
521.56628 836.94379 1948.6523 1379586
527.63434 828.34064 1928.6216 1511428
542.68268 833.90143 1941.569 525056
552.26318 831.00391 1934.8226 2234894
563.5498 830.73932 1934.2065 852992
575.40735 831.30994 1935.5352 2826519
578.52887 819.48389 1908.0005 2036490
600.48608 834.28027 1942.4509 3023380
611.38904 833.45087 1940.5199 2299657
620.40094 830.12183 1932.7688 2365450
632.98523 831.60681 1936.2262 2168071
647.93634 836.09302 1946.6715 1707779
656.862 832.78296 1938.9648 1576450
669.81073 834.59973 1943.1947 1576963
685.16467 839.30133 1954.1415 1905670
695.95142 838.34497 1951.9148 2563855
710.33453 841.68127 1959.6826 3485214
702.07489 818.51227 1905.7383 2366479
723.24982 829.84979 1932.1354 2694675
741.35779 837.36969 1949.644 2168587
752.75568 837.19617 1949.2399 3681827
766.40448 839.49329 1954.5883 3419168
776.58307 837.97748 1951.0591 2169102
770.85059 819.58911 1908.2455 3550498
777.98865 815.21887 1898.0704 1182725
793.07068 819.17877 1907.2902 3550241
804.07812 818.87787 1906.5895 1576711
811.8161 815.30157 1898.2629 2037001
832.31702 824.46582 1919.5999 918784
842.14343 822.95148 1916.0742 3286553
854.54688 823.96246 1918.4279 2299915
859.07007 817.44824 1903.261 1707522
872.42773 819.40045 1907.8063 1510145
885.56689 821.10016 1911.7637 3023380
893.29871 817.8064 1904.0948 2365451
910.44958 823.11047 1916.4443 1575936
917.87238 819.59723 1908.2644 1707520
928.56995 819.05804 1907.0092 1904898
944.75739 823.3161 1916.9231 1444352
949.95404 818.00873 1904.5659 1707520
962.42017 819.01227 1906.9026 3549467
976.34131 821.21637 1912.0343 3746848
986.92926 820.59851 1910.5956 1181952
1004.2815 825.55499 1922.1359 1181696
1019.3375 828.53394 1929.0719 1576453
1034.5134 831.5434 1936.0786 1181955
1045.0299 830.78241 1934.3069 1577221
1060.6781 834.07343 1941.9692 1182208
1068.5658 831.25671 1935.411 1313793
1075.1628 827.50653 1926.6796 1379587
1089.2112 829.50964 1931.3435 1116417
1084.4106 817.26581 1902.8363 1906186
1103.1372 822.82269 1915.7743 2432532
1114.2313 822.63135 1915.3287 2234894
1123.7158 821.26752 1912.1533 722433
1133.8727 820.4173 1910.1738 1050880
1146.3947 821.27832 1912.1786 1444866
1159.476 822.51935 1915.0679 1642243
1174.6282 825.19104 1921.2885 1115904
1175.8297 818.10504 1904.7902 1050368
1184.2551 816.13214 1900.1967 1444608
1198.7279 818.32477 1905.3018 1050112
1213.9388 820.97565 1911.4738 1642242
1221.1506 818.21771 1905.0526 787456
1233.5657 818.96478 1906.7919 458752
1241.9449 817.04333 1902.3181 590080
1253.8196 817.43518 1903.2306 1247488
1269.7126 820.4165 1910.1721 787200
1288.5343 825.22083 1921.3578 1379073
1288.5826 818.02319 1904.5995 1642243
1308.1174 823.21362 1916.6844 984320
1322.6229 825.17688 1921.2554 589824
1321.537 817.46222 1903.2936 2497551
1332.259 817.12042 1902.4977 1248519
1353.087 822.93066 1916.0256 1050112
1371.6157 827.25745 1926.0997 1181696
1394.0286 833.83606 1941.4167 1642244
1408.5565 835.62933 1945.5919 1510657
1410.4866 829.98035 1932.4395 1247489
1418.3513 827.88641 1927.5642 1181696
1431.6359 828.96423 1930.0737 1576451
1430.6187 821.80945 1913.4153 1971208
1457.6434 830.74908 1934.2291 1905414
1474.8429 833.9931 1941.7822 3681825
1486.0411 833.81958 1941.3783 2563345
1499.2336 834.75916 1943.5659 1050625
1512.4534 835.69952 1945.7552 1379073
1524.0548 835.7381 1945.8452 1510657
1530.4777 832.9577 1939.3716 1050112
1530.4783 826.74963 1924.9172 1773831
1487.9352 797.82166 1857.5645 1905159
1556.8948 828.66656 1929.3805 1707522
1570.0497 829.57587 1931.4976 1773314
1578.9021 828.21515 1928.3296 1641729
1593.3269 829.77594 1931.9636 1575680
1606.7461 830.79462 1934.3352 1641729
1608.6514 825.88745 1922.9099 1575938
1609.7845 820.6557 1910.729 2497812
1641.8422 831.15216 1935.1676 1115904
1645.8481 827.4007 1926.4332 918528
1655.1302 826.33508 1923.9521 393216
1673.4091 829.74506 1931.8916 984577
1674.6627 824.72412 1920.2015 721664
1687.075 825.22937 1921.3778 458752
1694.0841 823.1026 1916.426 393216
1706.899 823.80615 1918.064 721664
1723.8105 826.46454 1924.2535 852992
1741.3882 829.40503 1931.1 2103309
1744.3346 825.38416 1921.7382 1445379
1774.5284 834.22473 1942.3215 1708295
1780.7285 831.7442 1936.5463 1971467
1778.8109 825.5282 1922.0735 1971724
1784.993 823.1264 1916.4814 2235152
1793.7501 821.93488 1913.7072 3353891
1830.173 833.35565 1940.2982 1511942
1848.3496 836.37738 1947.3337 1511172
1836.5344 825.87469 1922.8801 2629654
0 0 0 0
0 0 0 0
0 0 0 0
0 0 0 0
0 0 0 0
0 0 0 0
0 0 0 0
0 0 0 0
0 0 0 0
0 0 0 0
0 0 0 0
0 0 0 0
-1644.2053 828.37897 1902.4608 3617575
-1646.4526 835.23846 1918.2144 1973263
-1634.0889 834.72961 1917.0458 1775885
-1626.6089 836.72595 1921.6306 1380874
-1608.5981 833.29523 1913.7515 1973012
-1616.9104 843.54858 1937.2994 2630174
-1597.2023 839.22571 1927.3715 1248777
-1580.7052 836.53979 1921.203 854277
-1559.8691 831.50214 1909.6335 1183497
-1545.8035 830.02618 1906.2438 3749162
-1529.5685 827.35504 1900.1093 3157282
-1514.2704 825.15485 1895.0563 3814437
-1505.4458 826.47571 1898.0897 4735536
-1497.9597 828.55676 1902.8691 4538157
-1497.4598 834.56299 1916.663 2893334
-1481.7773 832.1347 1911.0863 2827542
-1477.5204 836.13489 1920.2731 2104079
-1456.7805 830.79694 1908.0139 2432788
-1447.7371 832.09802 1911.0021 2366999
-1446.8934 838.1698 1924.9465 920068
-1425.2549 832.19611 1911.2272 196864
-1421.4305 836.61151 1921.3677 2235666
-1422.2583 843.8584 1938.0111 2498581
-1415.2567 846.54028 1944.1702 4604211
-1385.3995 835.48285 1918.7755 4209967
-1381.8256 840.22382 1929.6637 4538930
-1360.3312 834.05646 1915.4998 4736565
-1340.1522 828.59869 1902.9653 3814695
-1330.5114 829.61908 1905.309 3485214
-1315.9961 827.59167 1900.6527 3090456
-1300.0702 824.63434 1893.861 2235148
-1280.6553 819.39325 1881.8241 4603694
-1289.422 832.24982 1911.3506 1840391
-1286.6627 837.82886 1924.1635 3156768
-1267.7607 832.90204 1912.8485 3945763
-1266.536 839.60498 1928.2424 7498582
-1259.4746 842.52545 1934.9497 4932657
-1253.8813 846.49078 1944.0564 4998706
-1251.3282 852.60095 1958.0892 3617313
-1244.012 855.5498 1964.8616 3354910
-1245.8444 864.9057 1986.3484 4276270
-1226.4307 859.54962 1974.0476 5723460
-1204.9629 852.63696 1958.1719 4472367
-1190.5649 850.64117 1953.5883 2827286
-1186.0292 855.72168 1965.2562 4275247
-1170.879 853.1687 1959.3931 4472884
-1166.1519 858.23541 1971.0294 4670262
-1146.3156 852.17261 1957.1055 2959387
-1123.837 844.00159 1938.3397 4406576
-1102.5056 836.53204 1921.1852 6841171
-1079.1149 827.32782 1900.0466 4933175
-1064.454 824.69293 1893.9955 4406573
-1048.7871 821.21436 1886.0066 3683363
-1053.5568 833.83527 1914.9918 4011558
-1055.3087 844.31647 1939.0631 4867381
-1039.5239 840.84375 1931.0874 1644040
-1036.9725 848.11688 1947.7909 2170899
-1005.1463 831.34088 1909.2632 4274735
-1009.6856 844.60272 1939.7205 327680
-998.30017 844.69556 1939.9337 2432532
0 0 0 0
-953.59241 825.88873 1896.7418 854277
-953.8396 835.95673 1919.8639 3419677
-938.78772 832.69757 1912.379 2695699
-921.00262 826.90491 1899.0754 1971978
-913.18073 830.02478 1906.2406 788480
-900.771 829.00049 1903.8881 3551268
-895.90137 834.9776 1917.6152 2300943
-883.17419 833.69098 1914.6604 2564372
-868.78247 830.77917 1907.9731 3682082
-853.18878 826.62592 1898.4348 1051141
-843.21442 827.87885 1901.3123 4406062
-833.58002 829.50409 1905.0449 4669234
-823.46198 830.68604 1907.7593 1379844
-814.55505 833.13965 1913.3942 4472367
0 0 0 0
0 0 0 0
0 0 0 0
0 0 0 0
0 0 0 0
0 0 0 0
0 0 0 0
-743.18604 855.40497 1964.5291 1644303
-719.00323 840.74115 1930.8518 3552035
-711.06458 844.90466 1940.4138 2565141
-692.44464 836.30463 1920.663 4801593
-692.24707 850.03882 1952.205 1906959
-683.97766 854.15955 1961.6687 1972494
-669.45758 850.48206 1953.2229 1248772
-654.41309 845.99701 1942.9226 2104593
-644.211 847.72369 1946.8879 2762523
-622.59424 834.21857 1915.8722 460033
-612.02502 835.28949 1918.3315 2301201
-603.68811 839.50525 1928.0134 3485993
0 0 0 0
0 0 0 0
0 0 0 0
0 0 0 0
0 0 0 0
0 0 0 0
0 0 0 0
0 0 0 0
-494.99301 829.67847 1905.4453 1513227
-482.63849 827.85608 1901.26 2104851
-475.89609 835.80304 1919.5109 525824
-461.66779 830.66992 1907.7223 1971724
-450.04047 830.07642 1906.3593 1379845
-438.25537 829.15393 1904.2405 2038029
-425.67087 826.63019 1898.4446 1906187
-414.40967 826.60907 1898.3961 2564116
-406.62708 833.71893 1914.7247 5920072
-395.67664 834.55554 1916.646 722947
-385.21408 836.50104 1921.1139 2367506
-371.10684 830.40942 1907.1239 1971977
-359.93497 830.70984 1907.8138 5459520
-346.61798 825.91827 1896.8097 723718
-338.57986 833.80573 1914.9238 3156507
-329.25421 838.95935 1926.7598 1708806
-314.52216 830.21265 1906.672 2958871
-302.59717 828.49963 1902.7379 2564373
-291.80951 829.88849 1905.9275 1906443
-281.26511 832.10889 1911.027 1643014
-271.20703 836.01477 1919.9973 1313796
-260.30612 837.55078 1923.5249 1248258
-247.36104 832.34912 1911.5787 2038030
-236.42984 833.74994 1914.7958 3353630
-223.30446 827.16418 1899.671 1840648
-210.59285 821.49335 1886.6472 2103562
-198.17586 816.40021 1874.9504 2761232
-187.69737 819.16229 1881.2937 2892819
-178.36163 827.57538 1900.6152 2564111
-165.16328 817.99255 1878.6072 1051137
-153.29095 814.06641 1869.5905 2629392
-142.1049 813.45703 1868.1909 2562829
-131.81097 818.2829 1879.274 1115905
-120.42925 816.62329 1875.4626 1641729
-110.21155 823.32184 1890.8466 1378817
-98.536064 819.414 1881.8718 2497035
-87.739868 822.75397 1889.5424 2694156
-75.408913 810.57404 1861.5698 2957328
-65.708191 827.33698 1900.0677 2826513
-54.204178 823.63226 1891.5596 2497552
-43.273457 828.97827 1903.8372 3616289
-31.659948 820.4021 1884.141 590592
-20.586138 824.08533 1892.6 1510913
-9.3541765 822.67731 1889.3663 1378304
1.8417054 822.27301 1888.4379 1510144
13.060729 824.02301 1892.4569 2102278
24.274408 823.97473 1892.3461 1378560
35.619923 827.01788 1899.335 2694157
46.870289 826.9209 1899.1122 1773317
58.12772 826.96191 1899.2065 3089943
69.418045 827.38177 1900.1707 3550493
80.560478 826.16772 1897.3824 2563858
91.947495 827.45209 1900.3322 2300427
102.70997 823.4491 1891.1389 2432013
113.53157 820.66119 1884.7361 2826771
126.15282 830.21619 1906.6802 2431757
137.239 828.92834 1903.7224 2958615
147.8654 825.27002 1895.3208 2366479
159.42757 826.9823 1899.2532 3616290
168.5352 816.57617 1875.3545 788484
177.40993 806.39893 1851.9813 3155997
189.19701 809.87408 1859.9624 1840138
204.26323 826.23053 1897.5267 2103310
219.86061 842.91644 1935.8475 2629912
228.91084 834.09119 1915.5796 2038291
239.39281 831.07037 1908.6418 4274734
251.38747 833.33661 1913.8466 1314051
265.59167 842.41559 1934.6973 1840393
276.45419 840.58234 1930.4871 1774601
289.34677 844.82208 1940.2241 2893081
298.44443 838.08099 1924.7426 5327681
310.65515 840.25647 1929.7388 1445896
324.56015 846.69733 1944.531 2301203
336.8353 848.59052 1948.8788 920066
349.965 852.43958 1957.7185 4143403
359.00925 846.40967 1943.8702 1972235
367.35745 839.16473 1927.2316 1708551
376.4646 834.03815 1915.4576 1182209
392.31281 843.70898 1937.6677 1379586
404.63882 845.47034 1941.713 1840138
419.36426 852.00909 1956.73 3550755
430.96094 852.01038 1956.7329 1577478
439.77173 846.64838 1944.4183 656384
451.03284 846.15692 1943.2898 787456
460.05161 841.58801 1932.7969 1182467
464.49994 829.08325 1904.0784 1116417
482.27084 840.38721 1930.0391 2301201
494.59799 841.90112 1933.5157 3155740
503.76285 838.08527 1924.7524 525570
513.17938 834.84796 1917.3176 1050371
531.86816 846.50842 1944.0972 525057
540.74976 842.39648 1934.6536 590080
547.62305 835.3916 1918.5662 458752
556.42529 831.5545 1909.7538 590593
565.87732 828.82214 1903.4785 1116417
577.24731 828.95062 1903.7738 2892053
589.42969 830.21857 1906.6858 2957587
601.40924 831.15851 1908.8445 2496777
621.87677 843.57776 1937.3665 2233349
619.26282 824.80426 1894.2511 1181697
639.55658 836.66693 1921.4951 3287322
647.13507 831.77161 1910.2524 3089687
661.15869 835.18622 1918.0944 1970950
678.04614 842.04175 1933.8389 2102793
685.67969 837.36835 1923.106 1905414
689.88623 828.73108 1903.2695 1774085
704.16333 832.27441 1911.4072 2760723
714.97186 831.6709 1910.021 2760464
727.03986 832.52832 1911.9902 2365709
733.50464 827.04175 1899.3898 1773572
748.27594 830.94519 1908.3545 2102281
758.04663 829.26196 1904.4888 1707780
764.06818 823.58698 1891.4556 1708036
769.38751 817.3302 1877.0861 3549983
782.38025 819.28705 1881.5803 1708040
795.47534 821.29462 1886.1909 2628880
808.53271 823.20813 1890.5856 1379329
821.59381 825.07306 1894.8685 2431243
832.77332 825.02368 1894.755 2036486
833.03558 814.30383 1870.1357 1181441
842.96558 813.19171 1867.5817 1049600
859.5163 818.41254 1879.5719 1312768
876.2049 823.62927 1891.5527 2168071
880.05609 816.79968 1875.8678 2233864
900.4585 825.31036 1895.4136 2168071
909.66345 823.47485 1891.198 2036486
915.52094 818.69061 1880.2104 1115905
925.65961 817.80365 1878.1735 1509889
939.62396 820.27765 1883.8552 1444352
941.60474 812.35486 1865.6597 2299398
962.37573 820.63879 1884.6847 1575168
978.87402 825.13104 1895.0015 2167815
998.73083 832.32025 1911.5123 1313024
1013.251 834.95068 1917.5535 656128
1029.0696 838.58081 1925.8905 787969
1033.8715 833.25244 1913.6532 1576964
1040.5374 829.52551 1905.0939 327680
1049.4062 827.61615 1900.7089 1445380
1055.4296 823.52698 1891.3177 1774600
1083.234 836.34033 1920.7451 2432531
1084.3281 828.47943 1902.6915 2827544
1096.0312 828.80261 1903.4337 2235409
1106.8431 828.45221 1902.6289 1839881
1114.6661 825.8941 1896.754 2037516
1120.9116 822.22998 1888.339 2300688
1141.0756 828.74719 1903.3065 1839879
1149.2241 826.49554 1898.1354 1050112
1149.8513 818.93079 1880.7621 1444609
1160.1256 818.31604 1879.3502 1839622
1167.4824 815.67462 1873.2841 918784
1183.7391 819.24249 1881.478 1050112
1198.553 821.75458 1887.2471 984320
1210.0079 821.93835 1887.6693 1510660
1223.5127 823.49854 1891.2524 458752
1230.8726 820.93213 1885.3583 524288
1237.0741 817.64612 1877.8118 524288
1255.345 822.32495 1888.5571 918528
1273.2469 826.68158 1898.5626 590080
1280.9897 824.42358 1893.3768 1642243
1287.2721 821.27295 1886.1411 1576453
1310.5566 828.93066 1903.7278 2234379
1318.4485 826.80469 1898.8453 721408
1323.3575 822.86017 1889.7863 1313542
1326.3472 817.79828 1878.161 1576195
1355.1642 828.61267 1902.9976 918528
1367.8176 829.44696 1904.9136 918784
1382.8782 831.71533 1910.1232 1379072
1384.0626 825.66901 1896.2372 852992
1399.0776 827.90442 1901.371 1050112
1408.48 826.80927 1898.8558 1510656
1410.1183 821.21002 1885.9965 984320
1421.827 821.51733 1886.7023 721152
1449.8344 831.16351 1908.8558 1444864
1484.9602 844.70978 1939.9662 1839622
1475.6123 832.94354 1912.9438 3418655
1487.8196 833.43121 1914.064 1510658
1494.4128 830.79071 1907.9996 1050113
1517.2133 837.13214 1922.5635 1905415
1523.3149 834.23413 1915.9078 853248
1532.748 833.18982 1913.5095 852736
1535.6978 828.6626 1903.1122 589824
1541.059 825.49298 1895.8329 918272
1551.254 824.93988 1894.5626 918016
1564.2753 825.8869 1896.7374 918016
1580.2303 828.35828 1902.4133 1312768
1587.1973 826.11646 1897.2648 1838596
1592.2719 822.92816 1889.9425 1642244
1610.7028 826.63904 1898.4648 1378818
1623.2307 827.2901 1899.9601 2102796
1631.376 825.71375 1896.3398 787200
1653.0466 830.95795 1908.3838 984832
1660.6707 829.11798 1904.158 1971211
1666.3068 826.31689 1897.7251 853762
1674.5438 824.83459 1894.3209 1774599
1694.5811 829.14587 1904.222 2037772
1707.432 829.9071 1905.9703 2037515
1703.3464 822.48035 1888.9141 2432274
1715.174 822.78412 1889.6118 1906185
1734.8549 826.82703 1898.8966 2102538
1746.9423 827.22198 1899.8037 1905416
1748.2756 822.55219 1889.0791 1971210
1768.3668 826.71118 1898.6305 2036747
1774.4282 824.30005 1893.0931 1642248
1797.6503 829.84094 1905.8185 2760984
1811.1007 830.8302 1908.0902 1445379
1820.0408 829.75067 1905.6112 1839624
0 0 0 0
0 0 0 0
0 0 0 0
0 0 0 0
0 0 0 0
0 0 0 0
0 0 0 0
0 0 0 0
0 0 0 0
0 0 0 0
0 0 0 0
-1654.73 839.27319 1901.5994 3749418
-1642.9211 838.9975 1900.9749 3486501
-1635.4609 840.95428 1905.4084 3354915
-1625.8197 841.80896 1907.345 2236437
-1620.2745 844.81116 1914.1472 3354663
-1604.7354 842.60828 1909.156 4143922
-1588.0989 839.7937 1902.7788 3946799
-1579.7479 841.35168 1906.3088 1907731
-1562.8083 838.32501 1899.451 3288870
-1547.8663 836.33368 1894.9393 2038803
-1541.7073 839.09357 1901.1924 4801851
-1521.7457 834.32654 1890.3915 2893852
-1489.6455 822.78412 1864.2391 3617829
-1461.6486 813.35266 1842.8695 6446926
-1471.1848 824.8222 1868.8568 5262394
-1485.7747 839.3205 1901.7067 4801585
-1457.5551 829.67236 1879.8462 3946278
-1442.9397 827.67908 1875.3298 4407600
-1428.8778 825.97479 1871.4684 6052172
-1412.7693 823.05157 1864.845 3485732
-1408.049 826.76898 1873.2678 4801334
-1397.5688 827.13666 1874.101 5393727
-1391.7659 830.3006 1881.2697 3748901
-1401.0725 842.60242 1909.1428 3485984
-1378.8699 836.00073 1894.1848 5262397
-1369.2213 836.96454 1896.3685 3946792
-1360.2112 838.33777 1899.4801 3815206
-1340.4928 833.07916 1887.5652 5262138
-1315.4387 824.38812 1867.8733 2432784
-1304.1461 824.24701 1867.5536 2564371
-1296.8251 826.63519 1872.9646 2300686
-1282.322 824.4469 1868.0066 1906441
-1283.8573 832.62195 1886.5293 4209197
-1278.431 836.38617 1895.0582 1577990
-1272.9095 840.15424 1903.5958 3683112
-1266.6191 843.47784 1911.1262 5130035
-1260.9323 847.26672 1919.7109 3354137
-1252.4795 849.24933 1924.203 4012582
-1240.9548 849.16626 1924.0148 7960162
-1225.2612 846.20239 1917.2994 3288860
-1230.4507 857.74048 1943.4421 4341548
-1221.766 859.7337 1947.9584 4604720
-1215.0858 863.18896 1955.7871 3552294
-1188.9508 852.75708 1932.1509 3814949
-1182.2544 856.20001 1939.9517 4012076
-1165.3436 852.24042 1930.9802 3354147
-1146.5963 846.84595 1918.7576 1117699
-1131.7104 844.22388 1912.8165 3025435
-1136.584 856.43793 1940.4907 3222303
-1099.7798 837.17566 1896.8469 2433043
-1079.4292 830.16968 1880.973 3815208
-1058.9268 822.89954 1864.5005 2762519
-1059.4232 831.96655 1885.0443 5459518
-1057.1439 839.0238 1901.0344 3222559
-1046.7212 839.70026 1902.567 2104333
-1041.399 844.52777 1913.5051 6249037
-1026.9095 841.94537 1907.6539 2301715
-1024.3116 849.16376 1924.0092 3025436
-1000.5609 838.81134 1900.553 2104594
-994.14215 842.91895 1909.8597 1117703
-989.79437 848.89709 1923.405 1183236
-985.40192 854.97589 1937.1781 2564374
-957.57251 840.62323 1904.6584 2630164
-950.15808 844.06378 1912.4539 4011561
-926.1424 832.66187 1886.6196 2630164
-909.86005 828.01886 1876.0997 2301201
-892.75995 822.50763 1863.6127 4011818
-878.25305 819.2774 1856.2937 3814440
-869.84857 821.7301 1861.851 3090458
-870.2973 832.71674 1886.744 3288094
-859.47192 833.06177 1887.5258 2695957
-848.31781 833.0929 1887.5963 3287581
-838.81494 834.76825 1891.3922 2563858
