# .PCD v0.7 - Point Cloud Data file format
VERSION 0.7
FIELDS x y z rgb
SIZE 4 4 4 4
TYPE F F F U
COUNT 1 1 1 1
WIDTH 1401
HEIGHT 1
VIEWPOINT 0 0 0 1 0 0 0
POINTS 1401
DATA ascii
0 0 0 0
0 0 0 0
0 0 0 0
0 0 0 0
0 0 0 0
0 0 0 0
0 0 0 0
0 0 0 0
0 0 0 0
0 0 0 0
0 0 0 0
0 0 0 0
0 0 0 0
0 0 0 0
0 0 0 0
0 0 0 0
0 0 0 0
-99.68409 340.74069 705.7088 256
-95.787033 341.75797 707.81567 4
-91.788139 342.48843 709.32855 1
-87.839592 343.48593 711.39447 65536
-83.564163 343.2413 710.88782 4473142
0 0 0 0
0 0 0 0
0 0 0 0
-182.81937 940.61829 1948.1167 3946533
-167.82297 921.66339 1908.8591 2499090
-157.06956 924.95465 1915.6757 2828055
-145.27647 922.15924 1909.8861 1906442
-132.69086 913.43579 1891.8188 4341035
-120.35803 905.00287 1874.3535 2959638
-108.37549 897.75684 1859.3462 5064752
-98.323296 906.67102 1877.8083 4406051
-87.314545 907.914 1880.3828 7958875
-76.861298 916.14203 1897.4238 6577224
-64.374733 898.80078 1861.5084 3813407
-53.577465 902.75079 1869.6892 6248518
-42.183273 896.08038 1855.874 4077350
-31.202051 896.57123 1856.8906 5195573
-20.095055 892.01392 1847.4519 4603179
-9.2438564 901.4928 1867.0837 5129777
1.8229325 902.50903 1869.1885 5327156
12.387334 866.63226 1794.8842 4735020
23.388002 880.32581 1823.2449 6643018
34.829052 896.70312 1857.1638 4603691
45.758762 895.21155 1854.0747 5590843
55.674267 878.29797 1819.0448 7695706
67.912926 897.57574 1858.9711 5590329
78.814774 896.27014 1856.267 2366737
89.504784 893.17041 1849.8473 3617053
99.434067 883.98425 1830.8217 4143914
109.11376 874.60492 1811.3961 5328188
122.22678 891.96075 1847.3418 2170130
133.67041 895.28204 1854.2206 5722943
144.92969 896.95776 1857.6913 5656636
156.79732 901.89624 1867.9193 5195831
167.58055 900.35718 1864.7317 5655612
179.0051 902.24097 1868.6333 5195317
190.627 904.84204 1874.0204 4340009
199.96379 896.90729 1857.5867 4603437
213.33905 906.96918 1878.4259 1708805
223.31349 902.29236 1868.7396 4998449
234.43607 902.47717 1869.1226 6314050
244.683 899.42657 1862.8044 6512202
253.87698 892.9361 1849.3618 2104591
267.93628 903.38666 1871.0062 1774858
278.3288 901.13501 1866.3428 1182469
288.89011 899.58099 1863.1243 2103568
292.97296 878.71082 1819.9 3746850
305.86874 884.81653 1832.5454 3550497
314.31757 878.08051 1818.5945 3682594
325.54028 879.28339 1821.0858 7695195
336.22394 878.99976 1820.4983 4668720
354.41367 897.74695 1859.3258 9078394
363.7001 893.49127 1850.5117 4670265
372.79916 889.03772 1841.2881 4471849
381.25531 883.34802 1829.504 6381131
401.10754 903.64685 1871.545 6117965
417.57687 915.43726 1895.9641 5196093
430.67426 919.41125 1904.1946 4538161
441.30548 918.05176 1901.379 1445638
445.66766 904.04333 1872.3662 1248775
453.23724 897.06366 1857.9105 3354148
462.03967 892.79724 1849.0743 2170387
477.5943 901.47345 1867.0437 525827
488.29977 900.81116 1865.672 4077097
500.625 903.1001 1870.4126 6313546
513.11072 905.57306 1875.5344 3944999
525.07208 907.03546 1878.5632 5326651
532.93835 901.51001 1867.1194 4077096
543.97821 901.46832 1867.0331 4735282
554.9079 901.24945 1866.5797 2827031
575.3941 916.25702 1897.6619 1971722
583.22607 910.92474 1886.6183 2037777
589.50629 903.41516 1871.0652 2038036
597.97076 899.46832 1862.8909 1905929
608.24933 898.34393 1860.5621 4142892
617.26154 895.42249 1854.5115 2300433
629.89569 897.76544 1859.3641 2497552
644.22144 902.39752 1868.9575 3747361
650.73016 896.10815 1855.9316 5457722
651.77106 882.62341 1828.0034 5918787
673.02844 896.50909 1856.762 4273962
681.29614 892.9234 1849.3357 2695186
688.37256 887.91461 1838.9619 6248259
708.50519 899.64044 1863.2473 6182467
731.65643 914.78046 1894.6039 3024661
734.33447 904.25238 1872.7991 2761489
737.26007 894.33807 1852.2655 3945764
739.63202 884.0528 1830.9637 4866866
750.19055 883.70868 1830.251 3484956
757.63446 879.75763 1822.0681 4472366
769.76581 881.28418 1825.2297 3617567
779.04047 879.54327 1821.624 6643527
802.07538 893.17291 1849.8524 3484698
818.62744 899.31342 1862.5699 4932145
839.98969 910.50421 1885.7474 3813922
838.07941 896.50641 1856.7565 4406316
843.15137 890.24353 1843.7853 4274475
859.08228 895.45959 1854.5885 4010791
857.60077 882.62354 1828.0035 3813411
863.96307 878.07971 1818.5928 3089944
869.2525 872.5708 1807.1833 4142631
879.52905 872.14117 1806.2936 4405548
878.82416 860.96381 1783.1439 4405547
896.80145 868.13678 1798.0001 6380108
929.13049 888.87152 1840.9437 2760981
951.13239 899.3598 1862.666 3222042
958.59705 896.01917 1855.7473 4340269
948.14783 876.19989 1814.6995 4932921
965.41162 882.14795 1827.0186 5919560
983.48413 888.69482 1840.5779 3879206
1004.2454 897.5011 1858.8165 4405548
1010.824 893.57861 1850.6926 4274217
1009.7145 883.01697 1828.8184 4866097
1022.9845 885.12115 1833.1764 4997940
1031.4508 883.06854 1828.9252 3024664
1040.0914 881.20636 1825.0685 4537645
1068.1927 895.70062 1855.0876 4932147
1078.1987 894.88098 1853.39 2629907
1088.2378 894.1048 1851.7826 2695184
1098.9425 893.88586 1851.329 3287322
1108.5129 892.75763 1848.9923 2958358
1108.0121 883.61969 1830.0667 3287068
1124.0684 887.73505 1838.5901 3287068
1115.6881 872.65778 1807.3635 2760980
1138.1741 881.78033 1826.2573 3287328
1151.3341 883.57404 1829.9722 1839624
1164.8175 885.58014 1834.127 3616288
1166.0878 878.34973 1819.152 3812639
1171.4355 874.2948 1810.7539 3878687
1170.7046 865.81787 1793.1974 4734253
1208.6454 885.83685 1834.6586 6248263
1229.4515 893.05237 1849.6028 3287322
1223.0291 880.53687 1823.6818 2826515
1234.6261 881.10028 1824.8488 4406059
1254.4614 887.48218 1838.0663 5721920
1260.2413 883.89612 1830.6392 5787715
1271.663 884.29443 1831.4642 4406316
1273.1047 877.80505 1818.0239 2169356
1288.8798 881.22418 1825.1055 3155481
1289.7493 874.48035 1811.1382 3419168
1302.7462 876.00256 1814.2909 4801075
1309.5171 873.3476 1808.7921 1446156
1326.932 877.77679 1817.9655 3879973
1333.2147 874.8299 1811.8622 3879458
1345.2814 875.69513 1813.6542 4668974
1366.4514 882.42535 1827.5931 4273446
1382.0497 885.47998 1833.9196 2628364
1392.3689 885.13098 1833.1967 2562314
1406.1678 886.98224 1837.031 4141601
1419.0184 888.21161 1839.577 3615515
1423.6088 884.2912 1831.4575 3615259
1426.1578 879.17181 1820.8547 5523514
1439.892 880.9726 1824.5844 4865071
1442.9048 876.2359 1814.774 4733228
1445.5469 871.34576 1804.6461 4667692
1439.1538 861.12122 1783.4701 4996657
1478.8953 878.44928 1819.3583 3681312
1519.7189 896.16455 1856.0485 5128758
1511.8167 885.09857 1833.1296 262144
1537.323 893.61017 1850.7579 6840916
1559.5947 900.13409 1864.2698 3023383
1544.5734 885.19385 1833.3269 1839624
1555.4202 885.18365 1833.3059 984579
1563.9003 883.836 1830.5148 1774088
1567.9376 880.01361 1822.598 1905932
1586.188 884.16583 1831.1979 2234897
1585.7802 877.93213 1818.2871 3945771
1573.14 865.05591 1791.6193 2630167
1590.3866 868.67676 1799.1184 1840139
1597.2982 866.64203 1794.9042 4537650
1606.494 865.86511 1793.2953 3550755
1630.2726 872.90686 1807.8793 3550755
1626.9015 865.41443 1792.3618 3813926
1618.1849 855.19421 1771.1947 2432275
1636.4426 859.26953 1779.6351 2432275
1643.6442 857.52441 1776.0208 4340273
1646.2991 853.44452 1767.5708 3550500
1659.219 854.70392 1770.1792 2300434
1679.7505 859.84381 1780.8245 2563606
1690.1677 859.77448 1780.6808 1905676
1719.462 869.24896 1800.3036 2234895
0 0 0 0
0 0 0 0
0 0 0 0
0 0 0 0
0 0 0 0
0 0 0 0
0 0 0 0
0 0 0 0
0 0 0 0
0 0 0 0
0 0 0 0
-1669.2926 937.60687 1918.3345 4669735
-1673.6851 946.52014 1936.5709 6643785
-1684.9724 959.48273 1963.0923 5920063
-1665.4458 954.95685 1953.8324 6249028
-1663.7479 960.66223 1965.5055 2827793
-1640.2639 953.77997 1951.4244 5392953
-1597.3392 935.41528 1913.8503 4538151
-1629.1394 960.86017 1965.9105 5459256
-1602.7931 952.13013 1948.0488 4735277
-1581.7146 946.42542 1936.3772 4867119
-1564.3468 942.87396 1929.1108 5656379
-1543.6023 937.21997 1917.5428 7631450
-1520.134 929.8161 1902.3945 6117698
-1546.734 953.1554 1950.1465 6577990
-1538.7274 955.35974 1954.6567 6906443
-1531.438 958.04614 1960.1531 4932652
-1477.8634 931.59705 1906.0383 3748635
-1444.7881 917.76208 1877.7322 9407089
-1451.0179 928.87366 1900.4663 5854524
-1502.6212 969.43225 1983.4489 5986108
-1462.8536 951.21667 1946.1799 5723704
-1451.9995 951.66199 1947.0911 5986621
-1437.7096 949.84448 1943.3724 6250050
-1408.3306 937.94824 1919.0328 6513222
-1393.667 935.73859 1914.512 6184255
-1391.5458 941.98297 1927.288 6380864
-1362.582 930.00983 1902.7909 5394224
-1353.1442 931.27509 1905.3796 5262125
-1331.0125 923.75189 1889.9873 2827787
-1337.6974 936.27014 1915.5994 5458994
-1342.1968 947.45984 1938.4935 1183234
-1329.1361 946.34003 1936.2024 6840645
-1322.0312 949.47815 1942.623 4274716
-1314.8413 952.60986 1949.0304 7893584
-1305.146 953.9657 1951.8044 6906688
-1297.8676 957.12823 1958.275 5130279
-1276.1189 949.58032 1942.8319 6643265
-1256.6248 943.58789 1930.5715 4669219
-1239.4269 939.22534 1921.6459 6709060
-1236.3975 945.61816 1934.7255 4012063
-1174.084 906.36475 1854.4135 6380611
-1157.2098 901.77917 1845.0312 8420450
-1158.6046 911.47827 1864.8756 8026461
-1161.8657 922.84662 1888.1351 7894620
-1133.6805 909.216 1860.2471 6710861
-1143.9639 926.4726 1895.5538 7830627
-1139.3063 931.85107 1906.5581 7698527
-1139.3333 941.20709 1925.7006 5396544
-1132.9872 945.43451 1934.3499 3817523
-1126.1826 949.36194 1942.3851 2172448
-1093.7946 931.58099 1906.0055 514
-1009.8641 869.07251 1778.1139 4
0 0 0 0
-1013.2659 890.58575 1822.1296 2236459
-1003.3539 891.37323 1823.7408 525834
-1015.2806 911.79034 1865.514 5328697
-1031.8542 936.87616 1916.8395 6973006
-1026.739 942.60901 1928.5688 6709317
-1018.8826 945.92584 1935.3551 6117436
-1008.5202 946.96515 1937.4814 5920058
-986.20752 936.67834 1916.4348 5261613
-976.51978 938.28253 1919.7168 5787700
-970.56976 943.55817 1930.5106 3418386
-964.42975 948.77258 1941.1794 6840132
-944.44183 940.3255 1923.8967 7367246
-931.74359 939.01868 1921.2229 5919545
-927.31543 946.11707 1935.7462 6248510
-913.58862 943.78741 1930.9797 5458994
-907.93158 949.84088 1943.3651 4538149
-903.39716 957.23938 1958.5023 8156765
-891.67407 957.11426 1958.2463 5459251
-888.63446 966.42944 1977.3052 5722424
-883.72906 973.93732 1992.6663 3288088
-873.55389 975.76233 1996.4001 3353626
-856.36206 969.69208 1983.9806 5064496
-837.89758 961.99182 1968.2258 1314562
-822.26831 957.37518 1958.7803 2038020
-807.45514 953.59021 1951.0361 3682844
-792.33844 949.33142 1942.3228 4538151
-780.67981 949.15137 1941.9545 4538152
-767.10211 946.59802 1936.7302 6380356
-753.11121 943.44946 1930.2882 6117184
-729.71216 928.2359 1899.1615 5656631
-729.35718 942.3183 1927.974 4735530
0 0 0 0
-697.92773 930.87677 1904.5648 5393201
-682.20569 924.86401 1892.2627 6248508
-658.72498 907.95618 1857.6694 4736037
-647.19061 907.2196 1856.1625 8222821
-638.63153 910.70038 1863.2841 4143910
0 0 0 0
-619.33112 914.81281 1871.6979 6841166
-614.84821 924.75317 1892.0359 6709581
-600.20209 919.49298 1881.2737 7433557
-588.39941 918.47241 1879.1855 6314562
-578.05194 919.72772 1881.7539 5328175
-572.43915 928.71399 1900.1396 6183228
-563.55591 932.64838 1908.1893 5064235
-553.13983 934.15527 1911.2725 6314305
-543.71838 937.44 1917.993 5327411
-528.4527 930.57361 1903.9446 3485209
-508.5235 915.01642 1872.1145 4275495
-496.71536 913.70374 1869.4288 3288344
0 0 0 0
0 0 0 0
0 0 0 0
0 0 0 0
0 0 0 0
0 0 0 0
0 0 0 0
0 0 0 0
0 0 0 0
0 0 0 0
0 0 0 0
0 0 0 0
0 0 0 0
0 0 0 0
0 0 0 0
0 0 0 0
0 0 0 0
0 0 0 0
0 0 0 0
0 0 0 0
-99.233803 343.36481 702.521 0
-95.692345 345.61066 707.11597 4
-91.737709 346.50159 708.93884 2
-87.749489 347.34512 710.66473 0
-83.483124 347.11722 710.19843 4867900
0 0 0 0
0 0 0 0
0 0 0 0
-175.9257 916.25958 1874.6581 4209708
-167.29149 930.02112 1902.814 4538416
-154.55368 921.30994 1884.9911 3289121
-142.73248 917.13123 1876.4414 2432789
-132.61378 924.11011 1890.7201 1643272
-121.297 923.25775 1888.9762 4998454
-108.31464 908.2655 1858.3022 2695180
-97.543526 910.52051 1862.916 3484444
-86.371529 909.13159 1860.0743 6247490
-76.162697 918.9574 1880.1779 4735021
-63.953892 903.88464 1849.3391 3879457
-52.981922 903.67316 1848.9065 5064244
-42.117867 905.67224 1852.9965 4998451
-31.023594 902.38464 1846.2703 5853759
-20.123156 904.22498 1850.0354 4603691
-9.1235399 900.67987 1842.7821 5327416
1.7765375 890.33484 1821.6163 4801071
12.535573 887.76746 1816.3635 3682590
23.304934 887.96576 1816.7692 6709070
34.188026 891.00275 1822.9829 3879713
44.831245 887.83081 1816.4932 5459255
55.999172 894.26648 1829.6604 5393208
66.187622 885.50995 1811.7448 4340520
77.953514 897.35645 1835.9824 3682592
88.003105 888.96387 1818.8113 2959894
99.671707 896.97266 1835.1971 6512719
109.68751 889.99481 1820.9207 4275509
121.12566 894.77429 1830.6995 3748642
133.70653 906.51532 1854.7216 4867378
143.57491 899.47925 1840.3257 7761758
154.72867 900.92102 1843.2755 5130038
166.89998 907.7066 1857.1587 3484444
178.56104 911.04926 1863.9978 2300945
189.30862 909.61316 1861.0597 5787705
199.41783 905.43683 1852.5149 6972237
212.43571 914.21375 1870.4723 6972495
219.90506 899.42609 1840.217 5130290
229.31903 893.61395 1828.3253 5261871
242.56516 902.58551 1846.6812 5327666
254.33673 905.53259 1852.7108 4735278
264.3136 902.11041 1845.709 3090968
274.33429 899.10376 1839.5575 3353115
282.93985 891.86627 1824.7498 2235149
294.05032 892.76691 1826.5923 4339498
302.41748 885.57025 1811.868 4274217
308.28333 871.79364 1783.6813 4536619
325.14783 889.00244 1818.8903 5720893
336.74704 891.17273 1823.3307 5063478
350.52899 898.80487 1838.9459 6971986
359.76608 894.6745 1830.4952 1512206
370.85068 895.24597 1831.6644 4340524
382.51166 897.13666 1835.5327 6117193
394.44501 899.54401 1840.4581 6380622
403.06903 894.47772 1830.0927 4736056
415.3826 897.65027 1836.5836 4143918
0 0 0 0
443.24237 910.15924 1862.1768 3618090
445.50552 892.58325 1826.2167 4999997
460.05081 899.86499 1841.115 5789513
467.27487 892.82068 1826.7023 5393985
480.70044 897.67627 1836.6368 2893337
487.81036 890.78394 1822.5352 3419426
506.51599 904.90625 1851.4293 3550755
518.86047 907.30627 1856.3397 4076841
525.71021 900.19769 1841.7958 3550497
539.3938 904.84241 1851.2986 3419424
544.20953 894.72229 1830.593 5063992
565.66449 911.81927 1865.5734 3945254
578.05914 913.93616 1869.9044 3419168
581.09314 901.45203 1844.3621 3946025
593.52271 903.73529 1849.0336 4603185
599.03003 895.58649 1832.3612 3090462
606.75665 890.98688 1822.9504 4010792
619.92041 894.39264 1829.9186 1576708
630.90686 894.59393 1830.3303 2169101
637.85126 889.15387 1819.2001 1840139
638.50262 875.26801 1790.7898 6576973
660.15771 890.15778 1821.2542 3945251
676.51343 897.53766 1836.3533 5326650
686.08545 895.82642 1832.8521 3155740
697.29291 896.27069 1833.761 1840909
713.97949 903.63574 1848.8298 3023893
725.11249 903.85565 1849.2798 5393210
723.46869 888.37982 1817.6165 2169872
719.47375 870.51343 1781.0619 5656383
744.52716 887.80194 1816.434 3353885
746.6496 877.64355 1795.65 3946023
759.38165 880.06647 1800.6073 3551007
776.18335 887.0733 1814.9432 4340523
775.60669 874.29889 1788.8069 3156253
798.98566 888.50873 1817.8801 3090200
809.85553 888.61487 1818.0973 3484960
817.16797 884.86603 1810.4272 4142634
815.77454 871.90948 1783.9182 4011559
838.76465 885.01245 1810.7267 3485217
852.08789 887.71332 1816.2528 4077868
850.10919 874.604 1789.4312 3419167
856.87933 870.7077 1781.4594 4143144
869.01898 872.29602 1784.709 5261625
878.60065 871.30927 1782.6903 4735281
894.62866 876.66309 1793.6439 6642765
919.77234 890.71875 1822.4019 4208937
943.42944 903.02527 1847.5808 3616031
895.51025 847.32452 1733.6177 3352606
937.49341 876.9873 1794.3075 4932405
953.10065 881.58795 1803.7202 5261373
969.66766 886.96442 1814.7205 3090202
974.68982 881.77856 1804.1104 2958872
979.63562 876.63696 1793.5906 6314058
999.1142 884.47083 1809.6187 4734770
1014.8515 888.86163 1818.6022 5852993
1011.3185 876.45953 1793.2275 3747617
1021.0869 875.72308 1791.7209 4668974
1032.3989 876.31213 1792.926 5327417
1048.2406 880.69482 1801.8929 3616543
1048.0721 871.67346 1783.4353 4274473
1079.2925 888.67761 1818.2256 2958102
1085.3621 884.84131 1810.3767 3352861
1098.2245 886.5639 1813.901 3089691
1117.266 893.19281 1827.4637 3549986
1106.5482 876.1319 1792.5574 1182727
1109.0159 869.73615 1779.4717 2628888
1138.8787 884.7428 1810.175 524800
1130.9868 870.41333 1780.8571 1905418
1143.3412 871.78625 1783.6661 1576452
1152.4091 870.65112 1781.3435 4602412
1158.8333 867.55731 1775.0138 4273445
1178.1769 874.10443 1788.4091 3944480
1186.679 872.56293 1785.2552 3944480
1221.6147 890.31354 1821.5728 2760978
1230.0522 888.61041 1818.0881 2432017
1237.636 886.32538 1813.4131 3616287
1243.076 882.55786 1805.7048 4800561
1257.3569 885.07782 1810.8606 2366733
1260.8911 880.05444 1800.5826 2826771
1273.1093 881.12549 1802.774 3879459
1287.0458 883.35809 1807.3419 2432270
1284.1605 874.10352 1788.4072 3682077
1310.5853 884.78796 1810.2676 4668973
1322.6664 885.69403 1812.1213 4076836
1330.6259 883.84778 1808.3438 1906185
1344.6971 886.05823 1812.8665 4076834
1362.3949 890.60437 1822.1677 3418392
1379.4336 894.65143 1830.448 2628619
1382.7537 889.8075 1820.5374 2957331
1385.9061 884.9314 1810.5609 2825743
1407.0922 891.55664 1824.1161 2299144
1410.8398 887.11591 1815.0304 3220246
1414.6506 882.78168 1806.1627 4601643
1423.0576 881.35931 1803.2524 3812383
1418.9434 872.26099 1784.6373 3549467
1424.2385 869.03864 1778.0444 3878176
1455.631 881.67059 1803.8894 4075810
1462.4517 879.34393 1799.129 4471080
1491.573 890.36292 1821.6737 5326133
1501.8569 890.05963 1821.0532 6444871
1516.8827 892.55078 1826.1501 5261369
1514.537 884.8576 1810.4099 3353374
1522.7085 883.37396 1807.3744 4077099
1541.5739 888.07159 1816.9857 4406063
1545.5364 884.17834 1809.0203 1643531
1531.2789 869.98724 1779.9854 2761240
1542.1016 870.14178 1780.3016 3089950
1549.5372 868.39624 1776.7302 2826779
1559.663 868.17163 1776.2706 1971470
1573.1035 869.78284 1779.567 1510918
1581.2633 868.47217 1776.8856 1774088
1590.7595 867.90802 1775.7313 3747622
1606.8361 870.91797 1781.8895 2892568
1614.4501 869.33167 1778.6442 3089690
1598.2047 855.00183 1749.3253 2432787
1600.7081 850.82208 1740.7737 1708808
1605.1556 847.72278 1734.4324 4932666
1608.413 844.03821 1726.8939 5261377
1620.2506 844.87439 1728.6047 3880236
1646.121 852.97144 1745.1713 2169362
1679.319 864.74072 1769.2511 2103054
1687.7485 863.68903 1767.0991 1379589
0 0 0 0
0 0 0 0
0 0 0 0
0 0 0 0
0 0 0 0
0 0 0 0
0 0 0 0
0 0 0 0
0 0 0 0
0 0 0 0
0 0 0 0
-1662.2056 944.94647 1910.1902 6183236
-1658.6302 949.37952 1919.1515 6314564
-1671.0538 963.09454 1946.8761 5064754
-1640.869 952.27277 1925.0001 7235923
-1625.8068 950.13715 1920.6831 6314820
-1630.7811 959.76355 1940.1427 6117696
-1611.3805 955.07947 1930.6738 6051649
-1601.0713 955.75543 1932.0403 5525051
-1582.0697 951.21484 1922.8616 5656891
-1559.574 944.49225 1909.272 4077859
-1549.8759 945.47852 1911.2657 5327926
-1527.3767 938.61273 1897.3866 7433302
-1513.5996 937.04462 1894.2168 6380614
-1509.4518 941.45905 1903.1405 5920062
-1508.0917 947.69189 1915.7399 6314820
-1532.7122 970.4693 1961.7839 3025173
-1422.5177 907.58148 1834.6577 5985854
-1425.8513 916.71503 1853.1208 6972751
-1391.7302 901.72278 1822.8145 5722684
-1407.3405 918.96973 1857.6788 6577990
-1404.0364 924.04071 1867.9296 5065008
-1411.0542 936.03925 1892.1844 5328437
-1385.0891 926.17529 1872.2445 6381382
-1373.7069 925.98181 1871.8535 6381635
-1355.902 921.42072 1862.6333 6710086
-1355.0006 928.36591 1876.673 4802086
-1354.8684 935.95758 1892.0193 5788725
-1346.3038 937.80206 1895.7478 5327918
-1307.9882 918.77924 1857.2937 3288082
-1324.7297 938.43616 1897.0297 2828043
-1323.481 945.57605 1911.4628 6511935
-1315.0571 947.6687 1915.6931 4077848
-1304.9418 948.56812 1917.5114 4669725
-1296.1729 950.47083 1921.3574 4602907
-1288.979 953.57245 1927.6274 5590830
-1276.7482 952.96979 1926.4093 5195817
-1271.9814 957.97784 1936.5328 4143387
-1252.4424 951.85022 1924.146 5919544
-1230.8831 944.06042 1908.399 6709319
-1197.9703 927.33771 1874.5945 5986109
-1177.6182 920.11578 1859.9955 6380609
-1140.6759 899.67261 1818.6699 7433556
-1138.7606 906.72931 1832.9351 8157279
-1146.4858 921.67218 1863.1416 7565142
-1128.7533 916.2406 1852.162 6709835
-1128.6378 925.14319 1870.1583 6117956
-1131.2136 936.45038 1893.0155 6644814
-1121.3368 937.57214 1895.2831 7566173
-1122.4473 947.99622 1916.3552 2106383
-1097.5464 936.44012 1892.9948 3093537
-1051.4496 906.37402 1832.2168 1842971
-1041.0248 906.75153 1832.9799 3
-1035.2004 911.18622 1841.9446 65802
-1009.8192 898.31799 1815.9316 2039340
-988.40479 888.73938 1796.5686 1381662
-965.04828 877.18677 1773.2153 920591
0 0 0 0
-987.6568 917.72321 1855.1588 5459513
-1005.1055 944.44946 1909.1855 5985851
-994.34839 944.97906 1910.256 6841161
-973.09467 935.43036 1890.9535 5722165
-960.02814 933.62122 1887.2963 2629644
-950.66699 935.41528 1890.9231 3812885
-951.55981 947.46198 1915.2753 6445116
-939.48969 946.73676 1913.8091 6643008
-927.21588 945.78577 1911.8868 6249020
-913.95337 943.79047 1907.8534 6840902
-919.38928 961.29584 1943.2402 6775623
0 0 0 0
0 0 0 0
-882.65833 958.92456 1938.4465 6906952
-883.37604 972.35925 1965.6046 3880477
-877.61798 978.92975 1978.8868 4867115
-853.75146 965.20587 1951.1442 2367761
-839.56781 962.20239 1945.0726 6906950
-833.41669 968.4491 1957.7003 4998701
-819.87152 966.15887 1953.0707 2827538
-807.57898 965.30042 1951.3353 4603690
-789.93079 957.92236 1936.4207 1775110
-773.41473 951.71991 1923.8826 4933167
-757.32007 945.85815 1912.0332 4011038
-749.10791 949.81281 1920.0273 2036996
-732.64081 943.26129 1906.7836 4405538
-717.09741 937.7124 1895.5667 4208416
-702.35535 933.05145 1886.1447 4931370
-685.31268 925.13403 1870.1398 5195568
-674.77106 925.87665 1871.641 6050875
-659.08386 919.46576 1858.6814 5393461
-646.99933 917.94818 1855.6138 4998704
-638.10852 920.98779 1861.7582 6841167
-620.70886 911.63733 1842.8564 6972753
-614.88641 919.25995 1858.2654 6314567
-603.67346 918.95465 1857.6483 8485736
-593.47101 920.20508 1860.1759 4670766
-585.0282 924.28278 1868.4189 6775372
-571.96655 921.07965 1861.944 6906702
-570.24023 936.36389 1892.8407 4340773
-558.66376 935.76239 1891.6248 3945759
-551.14728 942.07593 1904.3876 4998445
-531.14374 926.86328 1873.6354 3748378
-521.16779 928.87299 1877.698 5854012
-508.21677 925.55237 1870.9854 2761487
-486.58432 905.92041 1831.2998 3748125
0 0 0 0
0 0 0 0
0 0 0 0
0 0 0 0
0 0 0 0
0 0 0 0
0 0 0 0
0 0 0 0
0 0 0 0
0 0 0 0
0 0 0 0
0 0 0 0
0 0 0 0
0 0 0 0
0 0 0 0
0 0 0 0
0 0 0 0
0 0 0 0
0 0 0 0
0 0 0 0
-99.861176 349.72519 706.9624 512
-95.614922 349.51816 706.54388 775
-91.615654 350.2363 707.99561 517
-87.650208 351.15894 709.86066 257
-83.428635 351.09671 709.73486 1448217
0 0 0 0
0 0 0 0
0 0 0 0
-174.20345 918.29047 1856.3057 5854273
-165.48019 931.10596 1882.2119 5525051
-153.33574 925.13245 1870.1365 4209192
-141.92607 923.0069 1865.8397 5130037
-130.72052 921.96173 1863.7269 3945762
-120.36884 927.3017 1874.5217 4077346
-108.30698 919.21326 1858.171 2827541
-96.188286 908.75671 1837.0333 5064500
-85.439209 910.22235 1839.9961 6643275
-73.225021 894.22485 1807.6575 4669228
-62.286968 890.99921 1801.137 4800814
-51.636524 891.4046 1801.9564 6248519
-41.33683 899.65503 1818.6344 5393211
-30.604485 900.98767 1821.3284 2433304
-19.808779 900.89105 1821.1331 6446407
-8.832037 882.47424 1783.9039 2959382
1.7679762 896.78748 1812.8376 4473128
12.578543 901.61169 1822.5898 5327931
23.184662 894.09412 1807.3932 2499095
33.618382 886.78009 1792.6082 3879970
44.474949 891.45422 1802.0566 5853248
55.569221 898.16022 1815.6127 8222052
66.311905 897.92957 1815.1465 3551262
77.722389 905.54407 1830.5391 3288092
87.995293 899.66248 1818.6497 6380104
99.544258 906.68756 1832.8506 5459775
109.3361 897.90021 1815.087 5130551
119.84033 896.01337 1811.2729 7762011
130.4861 895.40784 1810.049 5525049
141.45222 896.9259 1813.1176 5787451
154.00285 907.56726 1834.6288 5063987
163.99901 902.74384 1824.8784 4537643
174.97826 903.59406 1826.5972 2695697
188.53714 916.89038 1853.4753 6380101
198.91437 914.10162 1847.8379 4537641
210.04497 914.88519 1849.422 6248516
219.17645 907.31555 1834.1201 4472619
234.18179 923.62793 1867.0952 6315339
244.87671 922.23499 1864.2793 6578259
253.90706 914.96387 1849.5809 4537639
259.93234 897.91382 1815.1146 4669484
269.04874 892.47253 1804.1151 2037770
277.47925 885.25885 1789.5328 4603949
289.53833 889.72662 1798.5645 5130040
297.2709 881.05426 1781.0334 4274476
307.4986 880.11804 1779.1409 3353884
320.17752 886.02722 1791.0862 6643277
329.61435 882.87329 1784.7104 4274473
343.77896 892.185 1803.5339 3814949
353.30502 889.26013 1797.6213 3024923
366.35645 895.12 1809.4669 3945765
380.9039 904.19794 1827.8177 2235153
395.64868 913.22906 1846.0742 6314574
403.54715 906.39716 1832.2637 3024668
409.92728 896.60223 1812.4634 6314574
415.63089 885.86554 1790.7593 3156254
425.30048 883.90607 1786.7982 3617061
440.69531 893.65149 1806.4984 4209198
447.70343 886.3313 1791.7008 3090718
459.98032 889.53943 1798.1859 5525058
466.91367 882.5025 1783.9609 2367254
479.12762 885.53699 1790.0951 3353889
494.83237 894.75201 1808.723 3550753
506.07291 895.67529 1810.5895 4142890
519.21729 899.85962 1819.0481 3550753
525.22443 891.75592 1802.6666 4011304
541.01062 900.2478 1819.8328 4471854
538.68378 878.85632 1776.5903 4998197
545.2301 872.48413 1763.709 3813925
571.31488 897.02924 1813.3264 3550753
574.13318 884.8114 1788.6283 4866356
586.38702 887.31433 1793.688 1379590
604.60803 898.59674 1816.4951 5393471
614.92218 897.93842 1815.1644 4209199
627.60992 900.70929 1820.7656 1446669
635.97369 897.28583 1813.8451 3025953
639.95422 887.89459 1794.8611 4603955
656.60156 896.0976 1811.4432 2695441
669.80707 899.41498 1818.1493 4734511
680.42218 899.20404 1817.7228 3944743
687.48938 894.38409 1807.9794 3747359
700.88373 897.81696 1814.9188 4668973
707.19214 892.2063 1803.577 3616800
713.05725 886.21173 1791.4592 4011558
719.38776 880.96307 1780.849 4406314
730.80627 882.00671 1782.9589 3814179
743.15985 884.13324 1787.2574 4340521
739.65814 867.60205 1753.84 6643278
766.0979 886.16296 1791.3605 2300941
774.23535 883.33514 1785.6442 3091230
782.71515 880.96899 1780.861 4800561
792.93298 880.59595 1780.1068 5261113
800.97827 877.85156 1774.5592 3353115
819.28925 886.28351 1791.6042 3550751
819.90826 875.6059 1770.0195 3616288
831.59363 876.86688 1772.5686 6774607
841.15784 875.88757 1770.589 4669231
845.33777 869.3949 1757.4644 2629392
852.34125 865.92889 1750.4579 4932147
864.49219 867.71301 1754.0642 4340010
887.38922 880.11249 1779.1296 3353115
887.40088 869.78973 1758.2623 4932405
900.6059 872.48785 1763.7166 1511689
912.47339 873.84326 1766.4565 4932406
934.19434 884.49731 1787.9934 2038026
948.29803 887.78107 1794.6315 4932920
954.62793 883.79504 1786.5739 3288869
964.99347 883.59174 1786.1627 1249548
968.39008 877.08093 1773.0013 7957334
980.43671 878.46027 1775.7897 4011301
988.27319 876.07812 1770.9742 3089942
991.59326 869.78436 1758.2516 2826260
1001.9105 869.6955 1758.0718 4536878
1008.0779 866.04309 1750.6886 2365966
1016.2074 864.13367 1746.8287 2892822
1041.2395 876.49103 1771.8088 4143400
1061.4177 884.55652 1788.113 4340523
1070.7566 883.51849 1786.0148 3747875
1066.2274 871.16998 1761.0525 3813413
1086.1731 878.86426 1776.6064 2234639
1098.2073 880.07092 1779.0455 3155742
1092.01 866.78333 1752.1849 1774864
1111.9923 874.33032 1767.441 2563865
1128.1519 878.75879 1776.3932 2168589
1133.7261 874.93628 1768.6661 1642244
1139.8335 871.59167 1761.9049 3221785
1163.8528 881.87988 1782.7024 5194803
1174.9478 882.27814 1783.5074 3418135
1193.9879 888.58203 1796.2507 4536616
1204.1472 888.22388 1795.5266 3813664
1228.0504 897.92114 1815.1294 4471594
1226.2583 888.82532 1796.7424 2038026
1236.3251 888.40771 1795.8982 2366732
1242.0521 884.90552 1788.8185 4077605
1248.0632 881.66309 1782.2642 3287833
1260.1146 882.7063 1784.3729 2497807
1262.1549 876.77789 1772.3887 3155993
1273.218 877.16333 1773.168 2169099
1292.2228 882.96899 1784.9039 5721404
1322.455 896.28973 1811.8317 3879457
1330.6991 894.61365 1808.4435 4471594
1343.8021 896.20477 1811.6598 3418649
1357.9919 898.48975 1816.2788 4667949
1368.3021 898.19208 1815.6771 5392182
1379.9208 898.75128 1816.8075 2299399
1380.4215 892.1167 1803.3958 1773570
1377.5148 883.39886 1785.7728 1445126
1387.3668 882.93372 1784.8326 1774088
1394.0092 880.44843 1779.8087 1379846
1405.9231 881.30493 1781.5402 6181960
1413.4349 879.40979 1777.7091 4537389
1400.5603 864.95258 1748.4841 5984578
1429.7727 876.50861 1771.8445 4668461
1446.0468 880.0224 1778.9475 4931379
1445.7606 873.48022 1765.7225 5852739
1470.542 882.06805 1783.0828 3747619
1484.1461 883.87683 1786.7391 4602929
1476.7886 873.26477 1765.2871 4537649
1496.9263 878.94641 1776.7723 2564375
0 0 0 0
1499.043 867.97827 1754.6006 2761496
1521.8483 875.11279 1769.0228 4932152
1503.4586 858.62341 1735.6898 1708814
1496.668 848.93719 1716.1094 3813673
1547.8389 872.03656 1762.8043 1642762
1553.9453 869.60773 1757.8944 1708296
1551.274 862.33173 1743.1862 2036747
1546.3735 853.92114 1726.1842 3023899
1574.2511 863.60236 1745.7546 2694934
1588.8381 865.91382 1750.4274 2234382
1574.8997 852.74988 1723.8165 2761239
1566.9103 842.95593 1704.0184 2235411
1582.5281 845.90631 1709.9824 3551268
1591.8704 845.4859 1709.1327 7498332
1604.4089 846.75781 1711.7037 4142891
1615.6837 847.35089 1712.9027 2563861
1655.4465 862.78387 1744.1002 1971209
1660.8339 860.22076 1738.9189 2497554
0 0 0 0
0 0 0 0
0 0 0 0
0 0 0 0
0 0 0 0
0 0 0 0
0 0 0 0
0 0 0 0
0 0 0 0
0 0 0 0
0 0 0 0
-1665.4907 958.15662 1913.9655 5261876
-1655.01 958.65582 1914.9626 5722428
-1639.4254 956.18518 1910.0273 5722427
-1633.3066 959.23926 1916.1282 5064494
-1614.0134 954.5448 1906.7507 5130802
-1602.8114 954.60303 1906.8671 5393974
-1583.7135 949.92603 1897.5245 5854271
-1553.8257 938.664 1875.0281 5656890
-1567.3536 953.65607 1904.9753 5459255
-1545.7561 947.33862 1892.356 5262133
-1517.1171 936.58173 1870.8684 4867629
-1518.0214 944.039 1885.7649 6249283
-1492.3691 934.9693 1867.6477 5393719
-1485.7347 937.76776 1873.2377 6512710
-1487.7396 946.10236 1889.8865 5722681
-1446.8054 927.04993 1851.8282 5854523
-1423.4501 919.05615 1835.8602 5130801
-1398.4388 909.86169 1817.4939 6446405
-1388.1515 910.17865 1818.1272 5328182
-1388.875 917.77673 1833.3047 6380868
-1397.5726 930.80548 1859.3302 5525814
-1389.1415 932.54254 1862.8 3222804
-1370.1272 927.14606 1852.0203 4999213
-1345.7249 917.98694 1833.7245 5985848
-1348.9182 927.65625 1853.0394 5656884
-1344.0343 931.88409 1861.4847 5459503
-1334.7915 933.13458 1863.9827 5327659
-1324.2833 933.51385 1864.7404 6117433
-1313.0795 933.40515 1864.5232 4538402
-1306.3635 936.5119 1870.729 2960398
-1289.4545 932.30188 1862.3193 7301708
-1300.5488 948.44116 1894.5583 3222285
-1313.6438 966.33307 1930.2982 6380344
-1289.0028 956.53656 1910.7292 4209175
-1274.6969 954.30359 1906.2688 4208921
-1278.0081 965.33783 1928.3102 4669476
-1259.5916 960.01111 1917.6698 3287825
-1243.4684 956.35126 1910.3591 1313794
-1222.4454 948.82111 1895.3173 2366224
-1191.0736 933.04419 1863.8022 3221783
-1165.6597 921.68304 1841.1077 5787966
-1131.3508 903.00739 1803.8021 8749161
-1133.4801 913.33679 1824.4355 7434069
-1133.7434 922.34692 1842.4338 7236948
-1138.9097 935.56 1868.8275 7697243
-1132.6901 939.58771 1876.873 5526588
-1133.6648 949.72223 1897.1174 7105618
-1125.3578 952.20624 1902.0793 6382408
-1108.4633 947.40082 1892.4803 5395770
-1086.4847 938.10742 1873.9163 4014121
-1085.9674 947.34381 1892.3663 4474423
-1061.8824 935.99915 1869.7048 263172
-1028.2791 915.93671 1829.6292 7
-1000.2848 900.49634 1798.7861 197388
-996.19562 906.47534 1810.7295 1842216
-992.97186 913.38055 1824.5231 591888
-1004.9099 934.53796 1866.7861 1840919
-996.95428 937.4599 1872.6227 7828065
-996.20978 947.30475 1892.2883 5393462
-979.12451 941.65826 1881.0092 4735529
-962.73694 936.56042 1870.8259 6511680
-951.89728 936.80365 1871.3119 3748115
-939.27008 935.27283 1868.254 4142361
-927.07355 934.13947 1865.99 4339996
-904.77026 922.67194 1843.083 6511679
-904.96509 934.14771 1866.0065 8024922
-902.03625 942.64319 1882.9766 6511426
-900.23474 952.54443 1902.7548 5392946
0 0 0 0
0 0 0 0
0 0 0 0
0 0 0 0
-863.9469 975.22516 1948.0608 5458994
-850.87665 973.47961 1944.574 6511681
-837.50757 971.33978 1940.2994 6182716
-830.39496 976.49744 1950.6022 6182719
-822.47302 980.83563 1959.2678 4603691
-787.17743 952.18634 1902.0396 4472107
-782.26947 959.99615 1917.64 4998452
-766.34351 954.31555 1906.2927 2300937
-751.49237 949.82355 1897.3197 5524790
-731.54706 938.65863 1875.0173 4603945
-718.03259 935.5282 1868.764 3880479
-702.47662 929.59802 1856.9182 4538152
-693.11823 931.81104 1861.3387 3353623
-684.96533 935.74243 1869.192 2893076
-666.11102 924.94336 1847.6204 5787962
-650.09753 917.79401 1833.3391 7500117
-638.81543 917.19476 1832.1421 2761999
-627.04968 915.86841 1829.4927 5327667
-623.37695 926.52399 1850.7777 6380355
-605.01025 915.33057 1828.4183 7762008
-594.45709 915.76569 1829.2875 7893850
-590.38214 926.38202 1850.4941 6183488
0 0 0 0
-565.47656 921.53754 1840.817 4604458
-566.17859 940.83191 1879.3585 8420711
0 0 0 0
-542.57721 938.53754 1874.7754 5393721
-522.69452 923.04602 1843.8303 4011813
-517.67072 933.69312 1865.0984 5657400
-505.41241 931.47174 1860.6611 3946530
-483.57901 911.11084 1819.9891 4209701
-471.12729 907.90015 1813.5756 4209959
0 0 0 0
0 0 0 0
0 0 0 0
0 0 0 0
0 0 0 0
0 0 0 0
0 0 0 0
0 0 0 0
0 0 0 0
0 0 0 0
0 0 0 0
0 0 0 0
0 0 0 0
0 0 0 0
0 0 0 0
0 0 0 0
0 0 0 0
0 0 0 0
0 0 0 0
-99.257889 351.77676 702.69153 1025
-95.53183 353.39789 705.92987 1031
-91.515976 354.04642 707.22534 773
-87.942917 356.55246 712.23126 1025
-83.492325 355.57397 710.27667 3159090
0 0 0 0
0 0 0 0
0 0 0 0
-170.36586 908.8197 1815.4126 1973004
-160.36053 913.10852 1823.9796 5524795
-149.09688 910.33429 1818.438 6446409
-138.63185 912.38385 1822.5321 5064498
-126.64296 903.90338 1805.5918 6775115
-117.47977 915.88708 1829.5299 4077607
-106.31811 913.14307 1824.0487 6248519
-95.361565 911.7392 1821.2444 5525052
-84.576515 911.82581 1821.4172 6445895
-73.489052 908.20044 1814.1755 5327672
-62.007271 897.62433 1793.0492 5459001
-50.907074 889.33997 1776.5009 5261623
-40.55307 893.17053 1784.1525 8222564
-30.308422 902.96088 1803.7092 3880231
-19.567484 900.578 1798.9493 3879712
-8.8328533 893.12866 1784.0688 4011294
1.7576413 902.22559 1802.2405 5524532
12.328796 894.29688 1786.4025 3419164
23.018652 898.32642 1794.4517 6775630
33.295227 888.77728 1775.3767 6117188
44.058014 893.67645 1785.1631 7103825
54.523273 891.81183 1781.4385 5459515
65.689072 900.15179 1798.0979 4209193
75.873276 894.59015 1786.9882 2696728
86.533821 895.31915 1788.4446 6972240
96.422173 888.77148 1775.3652 5525050
107.01464 889.36395 1776.5487 4274986
118.48296 896.47705 1790.7576 4669486
129.04028 896.09454 1789.9934 5853758
139.06044 892.32324 1782.4601 4406312
151.95056 906.20026 1810.1799 6709323
163.00165 908.00262 1813.7804 5524792
171.31424 895.27112 1788.3485 5919294
184.5932 908.4646 1814.7032 6050626
197.72726 919.53162 1836.8101 4735020
208.28397 918.08301 1833.9165 4208679
218.75563 916.42194 1830.5984 5392948
232.3708 927.46448 1852.6565 5722169
240.78255 917.67932 1833.11 3353627
251.80179 918.24756 1834.2451 4274729
261.34924 913.62372 1825.0089 5261624
265.52747 891.34357 1780.5032 2564628
276.05267 891.25818 1780.3325 6512718
287.4104 893.76807 1785.3461 5393722
295.91486 887.54181 1772.9089 5064501
308.70361 894.15198 1786.1129 9407095
321.42691 900.1405 1798.0753 6643788
329.87936 894.16815 1786.1453 5261623
341.74365 897.52777 1792.8563 3616801
350.99576 894.03119 1785.8718 4340780
363.37137 898.46246 1794.7234 3090713
375.79697 902.76172 1803.3114 4801077
385.21985 899.80945 1797.4141 5459007
397.05685 902.50317 1802.795 5525574
405.30585 897.11414 1792.03 5591618
413.57529 892.04419 1781.9026 5393726
421.34177 886.16907 1770.1667 5261884
436.57449 895.90082 1789.6064 3288094
445.92947 893.39532 1784.6016 5722947
454.5358 889.54071 1776.9019 4275761
469.42999 897.88757 1793.5752 4472110
474.44568 887.38849 1772.6025 393984
486.1568 889.59589 1777.012 4669234
502.13776 899.35712 1796.5106 3287836
512.48395 898.83044 1795.4585 2563858
519.07697 891.87646 1781.5675 1971723
531.59576 895.17841 1788.1633 3551007
530.56268 875.97675 1749.807 4406316
546.77051 885.43073 1768.6919 4932659
557.20056 885.34875 1768.5281 4932919
572.14313 892.30762 1782.4287 3879975
589.20081 902.25281 1802.2948 2958873
593.84375 893.17163 1784.1547 7038040
606.82611 896.73163 1791.266 5196090
616.42169 895.25043 1788.3073 3683113
628.7912 897.77991 1793.36 1840652
630.92566 885.8548 1769.5389 6314317
636.54004 879.12567 1756.0972 3024663
658.38495 894.66846 1787.1447 1380356
667.49432 892.68695 1783.1865 2102793
678.0838 892.71588 1783.2443 1905417
698.09924 904.96295 1807.7085 2300172
701.5282 895.66333 1789.132 3155736
708.3905 890.95886 1779.7346 2760721
711.99408 882.354 1762.5459 4668975
717.80347 876.69196 1751.2357 4076582
728.25964 876.78583 1751.4233 919811
739.49707 877.8045 1753.4581 5064501
749.69946 877.58319 1753.0161 2695697
761.51636 879.23218 1756.3099 5195574
771.07458 878.26398 1754.376 3287322
783.84052 880.92657 1759.6946 4734511
791.45978 877.81091 1753.4709 3023893
796.19904 871.62335 1741.111 3089941
812.73212 878.3399 1754.5276 2958355
818.95959 873.89008 1745.6388 5458747
828.9126 873.47687 1744.8135 5261106
838.55743 872.75323 1743.3679 3616550
849.79352 873.68317 1745.2256 4011047
860.29572 873.84534 1745.5494 2760724
871.78174 874.99103 1747.838 4932148
882.03107 874.88324 1747.6227 5524030
891.9397 874.44385 1746.7451 2169101
912.88599 884.71161 1767.2554 2959133
922.04785 883.45514 1764.7456 2235410
941.3924 891.87408 1781.5627 4340529
950.5097 890.52429 1778.8666 3090975
961.68988 891.11572 1780.0479 2366993
970.43073 889.45856 1776.7377 6445645
967.93469 877.64813 1753.1458 1380103
975.44208 875.06262 1747.9811 5063738
987.57239 876.63501 1751.1219 2695189
994.85339 873.91498 1745.6885 3418913
1003.3586 872.31519 1742.4928 3813669
1016.0627 874.36121 1746.58 2629651
1017.8029 867.02637 1731.9282 3352861
1031.1401 869.61835 1737.106 3418911
1046.3524 873.72485 1745.3088 3682337
1053.0626 870.72113 1739.3086 3682592
1049.4119 859.29156 1716.4777 2958614
1070.2588 867.94849 1733.7701 4142891
1084.0505 870.7735 1739.4135 1183240
1091.37 868.39551 1734.6632 2563092
1090.6174 859.69879 1717.2911 1314566
1094.8167 855.03027 1707.9655 2629911
1106.8804 856.53302 1710.9673 2630680
1114.0717 854.27228 1706.4513 3418909
1164.2639 884.72888 1767.2899 5786427
1164.0592 876.68695 1751.2257 3023121
1195.6698 892.53644 1782.8859 4274214
1201.5413 889.06281 1775.9473 5129780
1212.9963 889.74542 1777.3107 4274475
1231.0779 895.23486 1788.2762 1050885
1232.0635 888.30463 1774.4327 3090200
1241.6071 887.60968 1773.0444 3287835
1248.5194 885.06122 1767.9537 3090454
1243.3717 874.07703 1746.0123 3287835
1270.6257 885.86414 1769.5577 3682079
1290.6346 892.44855 1782.7103 4339752
1308.9091 897.73639 1793.2731 4142629
1307.3059 889.41541 1776.6516 6708556
1324.5619 893.95575 1785.7209 4932145
1344.4369 900.17755 1798.1493 4998194
1360.1875 903.56165 1804.9093 5590075
1363.4944 898.69122 1795.1804 4208424
1358.4463 888.43207 1774.6873 3090201
1349.4708 875.78174 1749.4175 524544
1375.3676 885.78314 1769.3958 3089690
1387.8025 887.02893 1771.8843 1379078
1385.1963 878.71448 1755.2758 2892309
1388.74 874.39618 1746.6498 4339242
1405.5038 878.40399 1754.6556 6970962
1419.4893 880.62933 1759.1008 4142375
1429.8164 880.56915 1758.9807 2957076
1432.5775 875.88403 1749.6218 3287067
1438.2318 873.02234 1743.9055 3221788
1449.6033 873.64716 1745.1537 2564372
1448.8364 866.99945 1731.8744 3288351
1452.757 863.23035 1724.3456 6511952
1453.1405 857.42712 1712.7533 4802362
1454.6874 852.38593 1702.6832 5064509
1443.6329 840.0813 1678.1041 6511440
1476.0164 853.04944 1704.0087 4932662
1491.8374 856.33441 1710.5704 3682597
1529.7777 872.18597 1742.2349 2234383
1537.5404 870.73511 1739.3365 4405807
1534.7224 863.35132 1724.587 2234895
1526.9076 853.27277 1704.4547 3748134
1542.1361 856.11926 1710.1409 1774601
1562.0426 861.50879 1720.9066 3550753
1576.2799 863.72186 1725.3274 4273963
1564.1439 851.54834 1701.0101 3419167
1562.9961 845.47461 1688.8774 4340270
1583.1796 850.94336 1699.8018 2234894
1593.6357 851.14795 1700.2102 6841433
1587.5496 842.57013 1683.0757 4603952
1630.5681 859.99835 1717.8895 2958107
1629.771 854.24445 1706.3958 2695191
0 0 0 0
0 0 0 0
0 0 0 0
0 0 0 0
0 0 0 0
0 0 0 0
0 0 0 0
0 0 0 0
0 0 0 0
0 0 0 0
0 0 0 0
0 0 0 0
-1637.3412 959.64856 1894.5186 6906958
-1637.1471 966.15991 1907.373 6380614
-1594.8541 947.74426 1871.0173 4209445
-1576.3096 943.28223 1862.2084 6249541
-1536.663 926.04047 1828.17 4933681
-1553.9115 943.08405 1861.8173 4867632
-1539.4899 941.013 1857.7288 3551515
-1533.8607 944.32544 1864.2679 5854270
-1508.4971 935.44806 1846.7424 5656891
-1488.2896 929.66162 1835.3191 5788991
-1475.9968 928.77057 1833.5598 6775885
-1482.4973 939.77942 1855.2935 7038799
-1460.4034 932.69104 1841.2996 6249538
-1433.1658 922.1861 1820.5609 7828313
-1432.1989 928.5542 1833.1327 3354134
-1411.2728 921.98035 1820.1548 5064753
-1398.7024 920.80615 1817.8365 2762259
-1389.5807 921.90155 1819.9991 6249026
-1377.7076 921.1745 1818.5638 5920573
-1376.0099 927.29309 1830.6431 6184257
-1369.0385 929.92676 1835.8424 5788473
-1356.8512 929.03149 1834.075 1841416
-1348.7629 930.95087 1837.8641 7630674
-1329.9879 925.46521 1827.0345 7104330
-1326.5197 930.62805 1837.2269 5393969
-1329.1265 940.17371 1856.0717 4538404
-1320.2861 941.71368 1859.1119 6577986
-1324.3799 952.58264 1880.5692 3419924
-1285.4073 932.39722 1840.7195 5393708
-1278.8179 935.55682 1846.9572 4209181
-1274.0018 940.07971 1855.8862 5261608
-1283.9211 955.64917 1886.6232 4801056
-1263.7035 948.86359 1873.2272 5458472
-1256.8752 952.10034 1879.6171 4011286
-1250.3635 955.63708 1886.5991 3550225
-1233.0308 950.8924 1877.2323 2760457
-1203.6211 936.66309 1849.1411 2563337
-1181.1921 927.6546 1831.3568 2432013
-1177.4741 933.31018 1842.5217 4538412
-1148.7722 919.08289 1814.4346 3879968
-1133.1499 915.15009 1806.6707 8157281
-1118.2588 911.73853 1799.9355 7696729
-1124.7424 925.85626 1827.8065 8222816
-1135.4053 943.72235 1863.0773 6644553
-1130.83 949.14905 1873.7908 6710604
-1118.9689 948.50775 1872.5247 7039827
-1119.3621 958.34515 1891.9454 7369048
-1097.6035 949.22437 1873.9393 6777166
-1086.2865 949.03955 1873.5743 6843472
-1077.3158 950.92181 1877.2904 5198401
-1065.6514 950.44092 1876.3409 2697513
-1049.4156 945.82977 1867.2377 4
-1023.3625 932.17767 1840.2861 9
0 0 0 0
-977.48157 909.77576 1796.0608 1644320
0 0 0 0
-974.13232 926.84338 1829.7552 5591100
-982.36047 945.19348 1865.9817 7105623
-972.72864 946.58154 1868.7219 5195573
-959.20465 944.17041 1863.9619 5130036
-938.87421 934.92523 1845.7103 5327411
-928.20215 935.19324 1846.2393 5261359
-925.9646 944.06708 1863.7579 5919546
-920.01208 949.32184 1874.1317 4077341
-908.4519 948.84796 1873.1962 7498577
-890.95624 942.0863 1859.8475 5853239
0 0 0 0
0 0 0 0
0 0 0 0
0 0 0 0
-849.65601 957.65051 1890.5741 5524535
-842.94885 962.78656 1900.7135 3287575
-838.55859 970.7439 1916.4227 4932906
-832.78937 977.30145 1929.3685 5919543
-815.03137 969.77655 1914.5131 3945502
-784.9613 947.18268 1869.9087 5919295
-771.92499 944.79004 1865.1853 4143141
-767.42822 952.93176 1881.2583 4406313
-755.2561 951.64227 1878.7126 2827794
-746.21326 954.31616 1883.9915 4801324
-727.62134 944.67365 1864.9554 2761230
-713.6568 940.83411 1857.3755 5327154
-690.94092 925.15643 1826.4249 5130032
-678.83594 923.41364 1822.9844 6577736
-674.95422 932.98132 1841.8727 5722942
-662.07709 930.2251 1836.4313 2302223
-648.67755 926.63031 1829.3346 9078125
-640.53528 930.55096 1837.0747 5327665
-630.78064 932.22424 1840.3782 4867367
-614.80682 924.60352 1825.3334 7630418
-603.69745 924.15656 1824.4509 6182974
-597.32715 931.08002 1838.1193 4406569
-584.26465 927.63574 1831.3195 7696728
0 0 0 0
-560.66144 924.50665 1825.1421 6380355
-554.75891 932.76837 1841.4523 4538665
0 0 0 0
0 0 0 0
-520.81085 930.60718 1837.1857 6512714
-512.36206 935.05792 1845.9722 6315594
0 0 0 0
-475.07919 905.69244 1787.9994 8683881
0 0 0 0
0 0 0 0
0 0 0 0
0 0 0 0
0 0 0 0
0 0 0 0
0 0 0 0
0 0 0 0
0 0 0 0
0 0 0 0
0 0 0 0
0 0 0 0
0 0 0 0
0 0 0 0
0 0 0 0
0 0 0 0
0 0 0 0
0 0 0 0
0 0 0 0
0 0 0 0
0 0 0 0
-95.859642 358.80841 708.35223 1033
-91.508705 358.20914 707.16919 776
-87.514992 359.01782 708.76562 771
-83.269669 358.82379 708.38257 5330257
0 0 0 0
0 0 0 0
0 0 0 0
-167.93991 906.48376 1789.5618 4867375
-157.85986 909.51019 1795.5364 4209444
-146.61746 905.79297 1788.198 5591100
-136.76562 910.75696 1797.9977 4998963
-125.65379 907.4599 1791.4889 6380361
-115.96442 914.77557 1805.9312 4340523
-104.38634 907.16479 1790.9062 3880229
-93.452255 904.06152 1784.7798 4866864
-82.797539 903.2135 1783.1057 5985088
-71.723869 896.87866 1770.5996 5393209
-60.990849 893.36218 1763.6575 2366733
-50.322174 889.52875 1756.0895 4801072
-40.441021 901.24664 1779.2228 7169876
-29.92992 902.24005 1781.1838 5459512
-19.261946 897.01044 1770.8596 5064241
-8.6117029 881.0752 1739.4006 4603435
1.7405964 904.0531 1784.7631 3682332
12.089713 887.33569 1751.76 3813920
22.6236 893.3609 1763.6548 6774089
33.065071 893.08209 1763.1045 3747870
43.412609 891.00922 1759.0122 4932398
54.346287 899.43982 1775.6556 4670515
64.771545 898.08575 1772.9825 3946022
74.400467 887.60931 1752.3002 3551263
85.704033 897.2309 1771.2949 5261878
96.076538 896.06909 1769.0013 6182724
106.98605 899.65167 1776.0739 3879970
118.20116 904.93201 1786.4983 6248773
128.58672 903.51538 1783.7017 6709322
140.94102 915.09668 1806.5651 5853497
151.74289 915.67456 1807.7061 5327154
160.06158 902.18005 1781.0654 2893596
170.5275 901.70911 1780.1356 7169616
182.59042 909.24573 1795.0143 3485213
193.35988 909.86584 1796.2386 5459002
204.98941 914.25745 1804.9083 4208934
215.78264 914.6684 1805.7197 4669741
227.49657 918.75891 1813.795 4471849
240.21919 926.37018 1828.821 3551266
252.50673 931.71881 1839.3802 1643272
258.37891 913.93256 1804.267 5064249
264.31638 897.78156 1772.3821 3353372
273.25562 892.67145 1762.2937 2564111
286.86075 902.61884 1781.9318 7037522
292.57443 887.91089 1752.8956 4536617
305.49927 895.34564 1767.573 5063731
317.8222 900.58191 1777.9104 7563865
329.20258 902.89703 1782.4808 6971471
339.76501 902.89453 1782.476 3945249
350.10071 902.30792 1781.3179 4142629
360.64301 902.27246 1781.2478 2958356
373.15503 907.02686 1790.6338 2037772
382.43918 903.88922 1784.4396 4208937
390.48227 898.0661 1772.9437 2827547
401.85104 899.99652 1776.7548 6248516
412.173 899.5437 1775.8608 5063989
420.13593 894.09326 1765.1006 4142891
432.79514 898.65906 1774.1143 788227
441.70572 895.40894 1767.6981 4208684
454.8848 900.76208 1778.2661 4208684
463.13843 896.34033 1769.5366 5854020
472.04257 893.34534 1763.6241 1511943
484.5553 897.16156 1771.158 5919812
497.18018 901.01923 1778.7737 3749158
508.85037 903.0224 1782.7284 3090203
514.7323 894.88104 1766.6559 3616543
519.42047 885.03015 1747.2084 3551007
523.30164 874.21625 1725.8599 3156250
542.08557 888.23596 1753.5372 3155993
552.70996 888.60986 1754.2754 5063223
564.508 890.82196 1758.6426 3484191
578.82336 896.85431 1770.5515 4010534
588.8598 896.16003 1769.1808 2761496
597.12897 892.84766 1762.6415 3155998
612.47705 900.05157 1776.8634 4407094
620.86475 896.95654 1770.7533 3551011
625.25665 888.2876 1753.6393 5524802
636.88391 890.01312 1757.0458 5525827
644.15912 885.69934 1748.5295 1643530
659.22064 892.05853 1761.0837 4077097
664.01556 884.54327 1746.2472 3024663
681.45728 893.84705 1764.6146 3024664
681.44055 880.31592 1737.9017 3748131
686.81281 874.0459 1725.5236 2301201
706.20697 885.54248 1748.2198 5064242
714.31897 882.76398 1742.7346 4208933
717.81 874.43536 1726.2925 3418907
729.59711 876.30505 1729.9836 3090456
731.93097 866.92627 1711.4681 3288093
745.38702 870.79742 1719.1104 5459519
764.02197 880.53259 1738.3295 1117446
776.38739 882.87946 1742.9625 4603435
787.03296 883.23456 1743.6636 4142628
796.20074 881.94348 1741.1147 3287321
803.37091 878.50092 1734.3186 2827031
807.55408 871.92041 1721.3275 6116163
