# .PCD v0.7 - Point Cloud Data file format
VERSION 0.7
FIELDS x y z rgb
SIZE 4 4 4 4
TYPE F F F U
COUNT 1 1 1 1
WIDTH 1354
HEIGHT 1
VIEWPOINT 0 0 0 1 0 0 0
POINTS 1354
DATA ascii
-106.32449 934.81854 1824.1581 1299
-105.61411 1033.6692 2017.0503 1452854
0 0 0 0
-74.253677 939.37598 1833.0513 1042
-69.518402 1030.1826 2010.2468 786
-57.391209 1026.3547 2002.7772 528
-41.743626 941.15942 1836.5314 270
-31.662357 965.63116 1884.2843 14
-19.980316 941.3501 1836.9034 13
-9.3262243 965.34229 1883.7206 12
1.8335595 963.47931 1880.0852 12
12.959764 962.32239 1877.8276 12
24.05864 961.14252 1875.5254 12
35.10923 959.38904 1872.1036 11
46.135075 957.96368 1869.3224 11
57.134007 956.63983 1866.739 11
67.958145 953.29346 1860.209 11
78.863113 951.85669 1857.4055 11
89.695724 950.00568 1853.7936 11
100.57988 949.04492 1851.9187 11
111.05753 944.81494 1843.6647 12
121.8852 944.05371 1842.1791 12
132.34401 940.79553 1835.8213 12
142.96968 939.12842 1832.5681 12
153.45433 936.83582 1828.0945 12
163.91374 934.70154 1823.9298 11
174.49097 933.46167 1821.5103 11
185.33426 933.70667 1821.9884 11
195.36554 930.05896 1814.8705 11
203.76889 919.44653 1794.1619 10
213.95872 917.54779 1790.4568 4
223.06696 911.4093 1778.4784 2
228.23598 890.45593 1737.5912 7237737
238.52809 890.43652 1737.5531 6053459
249.11557 891.47565 1739.5808 7698283
258.27347 887.51959 1731.8612 6645596
269.93829 892.15131 1740.8994 8290421
283.53864 902.60358 1761.2954 5394760
295.07449 905.97491 1767.8741 6118222
303.95151 901.23145 1758.6179 6183758
318.08115 911.8606 1779.359 6644565
330.27066 916.42407 1788.264 7104865
341.23532 917.41077 1790.1895 7039068
352.44437 918.97528 1793.2424 8947321
362.0036 916.27228 1787.9678 7763048
371.09818 912.58032 1780.7637 7105375
385.10513 920.83881 1796.8788 7236449
398.33255 926.83899 1808.5873 6709849
408.97086 926.65826 1808.2345 4736316
421.06152 929.6936 1814.1575 7762794
433.72562 933.81219 1822.1943 7236450
441.28339 927.00403 1808.9092 6512726
450.89426 924.72937 1804.4706 5723210
459.45596 920.45825 1796.1361 7565158
470.37711 921.00031 1797.1938 5920590
478.16498 915.51929 1786.4985 9276545
489.27667 916.50183 1788.4158 5066053
500.44763 917.55133 1790.4637 7237222
509.8255 915.33801 1786.1447 4605757
522.04724 918.21667 1791.762 6579290
539.56531 930.11035 1814.9708 3025702
550.65167 930.66895 1816.0608 6907485
551.6651 914.50787 1784.5249 5065535
562.29382 914.5946 1784.6941 6380881
557.47803 890.02063 1736.7417 4538935
579.89777 909.03119 1773.838 5460036
588.35822 905.87231 1767.6738 6052171
601.64923 910.13123 1775.9845 5788998
600.39209 892.61475 1741.8037 6380880
627.30066 916.85712 1789.109 4933691
635.87042 913.93524 1783.4073 2828830
644.09161 910.61609 1776.9305 5986380
654.38153 910.28156 1776.2777 5131069
666.4826 912.43701 1780.4839 4012846
665.15125 896.42242 1749.2338 6052682
692.29712 918.68915 1792.6841 6974301
697.50867 911.61548 1778.8809 7566182
704.03009 906.43903 1768.7797 7039325
711.76068 902.9483 1761.968 5920843
718.29657 898.06494 1752.4388 5130813
723.72321 891.95349 1740.5134 8617845
729.35645 886.26501 1729.4132 7302242
743.45044 890.87262 1738.4042 5591625
757.11945 894.85193 1746.1692 6512470
771.83716 899.94666 1756.111 8946811
784.6864 902.75629 1761.5934 6446933
797.08612 904.98181 1765.9362 6775898
807.01581 904.38153 1764.7648 4078385
820.52588 907.75769 1771.3529 7039328
829.19519 905.76086 1767.4563 5131330
840.94696 907.13879 1770.1453 4276022
850.96161 906.63202 1769.1564 5657671
864.68311 910.03894 1775.8044 5656902
857.9649 892.11078 1740.8203 4670264
867.42651 891.23236 1739.1062 5525829
877.92664 891.42914 1739.4902 6512980
887.15521 890.34528 1737.3752 5986128
895.60815 888.51678 1733.8071 6315089
902.95905 885.64874 1728.2107 6907225
923.64948 895.78223 1747.9846 6183241
947.77203 908.9826 1773.7432 6051398
955.20612 906.06335 1768.0468 5196602
966.62659 906.94788 1769.7727 5657153
973.33295 903.43768 1762.9231 4933687
982.06622 901.86365 1759.8514 4998965
994.51758 903.70105 1763.4369 2630164
1000.5126 899.69446 1755.6187 4867127
1006.2432 895.5351 1747.5023 5657413
1020.705 899.15192 1754.5599 5328705
1030.9985 899.06091 1754.3823 5723466
1051.755 908.00464 1771.8348 5921103
1063.9343 909.43982 1774.6354 6381400
1078.3358 912.72784 1781.0514 8947326
1096.916 919.45477 1794.178 4209973
1106.3903 918.49316 1792.3015 7302244
1112.5957 914.86188 1785.2156 2959906
1123.0784 914.78284 1785.0615 4341559
1130.6829 912.38293 1780.3784 4275766
1138.6957 910.35388 1776.4189 5196868
1148.6121 909.86987 1775.4744 7433832
1162.9269 912.84705 1781.2841 6512731
1185.2124 921.97125 1799.0886 4210747
1205.9191 929.71545 1814.2002 6710367
1201.2239 917.91211 1791.1676 5394764
1213.5803 919.2312 1793.7417 6184280
1221.746 917.3808 1790.1309 6184023
1244.9889 926.78577 1808.4834 5394763
1241.9368 916.62305 1788.6523 3946804
1259.1722 921.479 1798.1281 3157288
1264.8069 917.83514 1791.0175 4407354
1286.4602 925.7793 1806.5194 6578522
1270.5717 906.79926 1769.4825 6578522
1265.0878 895.49463 1747.4233 4933697
1285.0681 902.2522 1760.6097 4078901
1298.5632 904.38422 1764.7701 4933954
1314.7124 908.31586 1772.4421 657672
1354.5699 928.4353 1811.702 4933957
1370.252 931.79822 1818.2644 2499873
1388.4426 936.80145 1828.0275 986378
1373.3741 919.46051 1794.1891 5196871
1372.9839 912.13739 1779.8992 5131078
1400.7448 923.48541 1802.0432 4671038
1420.8912 929.67981 1814.1305 5920593
1414.9738 918.85565 1793.0089 7104866
1413.3845 910.9826 1777.6458 6644317
1435.6407 918.48163 1792.2792 5262662
1439.3977 914.12225 1783.7723 6380889
1449.2527 913.6709 1782.8915 6315352
1453.5891 909.77197 1775.2834 2367772
1462.0751 908.50763 1772.8163 5394250
1481.7787 914.18201 1783.889 6184023
1498.3162 917.83655 1791.0203 3289131
1505.175 915.55243 1786.5632 4407869
1509.7128 911.89819 1779.4325 5723728
1534.5515 920.47186 1796.1627 5921108
1587.9539 945.94263 1845.8651 5986901
1581.702 935.77222 1826.019 5065284
1593.0692 936.09296 1826.6449 4538938
1595.9395 931.45007 1817.5851 3617836
1608.2177 932.32373 1819.2898 5065283
1619.7689 932.76691 1820.1547 2236185
1628.1493 931.3905 1817.4688 2630942
1616.0798 918.41052 1792.1404 5657420
1626.7106 918.41626 1792.1515 4802111
1650.0175 925.53217 1806.0372 2499355
1658.8159 924.47083 1803.9661 2959650
1672.7723 926.27924 1807.4949 1117703
1668.4602 918.01294 1791.3644 5986385
1694.9153 926.67273 1808.2627 4933439
1708.2289 928.08398 1811.0166 5459524
1715.5063 926.21851 1807.3763 2959390
1723.8539 924.9505 1804.9021 5393988
0 0 0 0
0 0 0 0
0 0 0 0
0 0 0 0
0 0 0 0
0 0 0 0
0 0 0 0
0 0 0 0
0 0 0 0
0 0 0 0
0 0 0 0
0 0 0 0
0 0 0 0
-1432.364 865.08655 1668.7885 28
-1422.5602 865.13867 1668.8892 286
-1410.5074 863.81439 1666.3344 801
-1410.3201 869.789 1677.8597 1057
-1404.2347 872.18536 1682.4823 1314
-1463.0052 915.18658 1765.4336 1571
-1446.9062 911.63519 1758.5828 1829
-1406.6515 892.70227 1722.0603 1829
-1384.479 885.052 1707.3027 133928
-1373.8682 884.73456 1706.6903 2598
-1368.824 888.02368 1713.0352 199976
-1356.7642 886.77667 1710.6296 266282
-1341.6254 883.48322 1704.2765 134181
-1326.6947 880.27795 1698.0934 2592
-1315.494 879.51752 1696.6265 1818
-1302.3483 877.43494 1692.609 531
-1287.0511 873.85919 1685.7113 12
-1249.9276 855.29242 1649.8951 264462
-1235.891 852.35504 1644.2289 256
-1223.1721 850.28717 1640.2399 3553334
-1214.4556 850.99054 1641.5967 2500643
-1210.1533 854.82349 1648.9906 1645334
-1206.4325 859.13287 1657.3036 2500387
-1199.8014 861.42352 1661.7224 1316373
-1193.8483 864.24292 1667.161 1052690
-1188.9161 867.85455 1674.1282 4
-1207.6058 888.91504 1714.7546 6
-1197.8158 889.19116 1715.2874 9
-1189.1768 890.33374 1717.4913 9
-1181.296 892.06873 1720.8383 9
-1168.9663 890.44495 1717.7059 9
-1163.7679 894.27252 1725.0895 9
-1151.9403 893.02875 1722.6902 4
-1140.3237 891.9278 1720.5664 1
-1141.0377 900.53864 1737.1771 65536
-1111.6647 885.3446 1707.8671 591875
-1103.9633 887.28943 1711.6187 3091490
-1105.0579 896.40552 1729.204 7368545
0 0 0 0
0 0 0 0
0 0 0 0
-1059.2811 892.37347 1721.426 4671795
-1055.8311 898.11633 1732.5044 5658435
-1046.2252 898.68439 1733.6002 3948073
-1021.3231 885.99432 1709.1205 4473647
-1024.4597 897.61731 1731.5416 3289370
-1014.1783 897.59955 1731.5074 5657918
-993.00433 887.84259 1712.6858 2763803
-997.02527 900.64337 1737.3792 3882021
-989.8067 903.45233 1742.7977 5920574
-967.93536 892.80524 1722.2589 3223320
-950.27856 885.85986 1708.8612 5263158
-945.99561 891.36652 1719.4838 5789248
-953.23315 907.96661 1751.5059 7565917
-939.02124 904.27625 1744.3871 7369052
-929.45526 905.02747 1745.8363 6185037
-913.80597 899.80573 1735.7633 5789764
-897.98224 894.2912 1725.1256 3486495
-877.44983 883.90656 1705.093 1447174
-865.18182 881.7019 1700.8402 5328698
-854.68024 881.26672 1700.0006 4077860
-817.89575 853.39746 1646.2397 1907724
-817.88959 863.69324 1666.1007 5065527
-799.8548 854.96979 1649.2728 6118213
-795.94489 861.31537 1661.5138 4276010
-794.71509 870.75665 1679.7263 3091736
-780.60681 866.14752 1670.8352 4210218
-755.58826 849.15869 1638.0629 4078376
-758.37799 863.38629 1665.5087 3618084
-748.08362 862.89703 1664.5648 3223323
-736.87103 861.32141 1661.5253 5657663
-736.28076 872.28748 1682.6793 4012583
-724.74274 870.40656 1679.051 3091740
-716.71851 872.75201 1683.5756 2432528
-711.42169 878.53186 1694.7251 3024923
-699.11908 875.7019 1689.266 5591361
-692.25897 879.70599 1696.99 591361
-682.84485 880.53461 1698.5885 1775117
-669.84662 876.6972 1691.1859 1117192
-665.18011 883.81329 1704.9132 1445899
-655.92377 884.95654 1707.1185 2564121
-651.55505 892.83319 1722.3129 3288351
-643.77698 896.21417 1728.835 1973265
-631.42566 893.23517 1723.0884 5394236
-613.5224 882.17511 1701.7531 4539440
-592.9798 866.88696 1672.2615 5658690
-596.90308 887.45398 1711.9362 5395520
-590.71185 893.43445 1723.4727 6053448
-589.16803 906.77795 1749.213 6184780
-579.6731 908.14301 1751.8462 4145454
-564.95844 901.23108 1738.5129 5461573
-556.39325 904.0545 1743.9592 5592903
-547.33197 906.16339 1748.0275 5790286
-538.74554 909.15503 1753.7983 6250325
-530.43677 912.74213 1760.718 5395269
-519.08435 911.13068 1757.6095 6447187
-512.70886 918.36804 1771.5707 2368024
-504.25485 922.10712 1778.7836 2236177
-493.10114 920.96356 1776.5775 3485212
-481.91553 919.70929 1774.1581 4801841
-469.30161 915.61237 1766.2549 6249800
-454.89099 907.74329 1751.0751 7434075
-443.8912 906.47192 1748.6226 4342060
-438.05777 915.94226 1766.8914 1710343
-427.26678 915.25677 1765.569 5263164
-410.03177 900.38641 1736.8834 4013098
-406.11859 914.75684 1764.6046 2829080
-389.6232 900.7973 1737.676 4539960
-371.60239 882.45734 1702.2974 1183761
-363.44992 887.18243 1711.4124 65539
-355.41495 892.47375 1721.6195 6
-349.03607 902.35938 1740.6893 131075
-345.66531 920.86096 1776.3796 3157035
-330.21127 907.32343 1750.2653 722948
-317.8497 901.68066 1739.38 854533
-307.95273 902.88556 1741.7043 131073
-300.04822 910.21832 1755.8495 65795
-292.41006 918.91504 1772.6259 3
-290.2345 946.06598 1825.0012 6
-273.14899 924.83624 1784.0481 9
-268.71246 946.44867 1825.7394 10
-254.87679 935.38025 1804.3879 11
-258.53183 990.3432 1910.4138 11
-239.27592 958.5575 1849.0979 11
-229.96075 965.45532 1862.4041 12
-219.4604 967.8219 1866.9694 12
-209.01462 970.69324 1872.5083 12
-198.84279 975.23022 1881.2604 14
-189.14262 982.75684 1895.7794 13
-178.40765 985.51788 1901.1056 13
-166.8176 983.60925 1897.4238 14
-155.97185 986.13062 1902.2875 13
-144.67593 985.97687 1901.9911 16
-127.25887 940.55646 1814.373 271
-116.72607 942.32892 1817.7922 530
-106.03132 943.02167 1819.1285 531
-95.418427 944.68134 1822.3303 785
0 0 0 0
-73.974937 946.67194 1826.1702 1042
-62.905823 942.97174 1819.0323 530
-54.01442 977.13654 1884.9376 528
-41.310692 942.16931 1817.4844 270
-30.531914 941.92316 1817.0095 13
-19.76614 942.02863 1817.213 14
-9.0038404 942.75024 1818.6051 12
1.8263342 970.78052 1872.6765 12
12.913595 969.98285 1871.1378 12
23.967319 968.56683 1868.4064 12
34.956806 966.2702 1863.976 11
45.960548 965.37585 1862.2509 11
56.927696 964.20807 1859.998 11
67.708534 960.77539 1853.3763 11
78.631706 960.03888 1851.9554 11
89.418968 958.02655 1848.0737 11
100.10899 955.52539 1843.2488 11
110.66929 952.39978 1837.2194 12
121.50145 951.96411 1836.379 12
132.0181 949.33142 1831.3003 12
142.50494 946.90051 1826.6111 12
152.92355 944.3916 1821.7712 12
163.40549 942.57874 1818.2742 11
173.99951 941.59674 1816.38 11
184.74559 941.50415 1816.2013 11
194.77324 937.96204 1809.3684 11
202.89946 926.11072 1786.5067 8
212.99704 923.98657 1782.4092 4
221.17024 914.10968 1763.3562 328965
0 0 0 0
238.33685 900.01141 1736.16 6119252
247.10008 894.48871 1725.5066 8487284
258.09863 897.17517 1730.6888 7961200
269.33072 900.43707 1736.9811 8224373
280.37051 902.83954 1741.6155 5855312
285.95035 888.11359 1713.2087 8027249
300.09412 900.0838 1736.2997 7369319
312.229 905.43475 1746.6218 2236954
326.18216 915.54584 1766.1266 6973532
336.8241 916.02313 1767.0472 6644310
350.396 924.19965 1782.8202 6513495
359.44363 920.31372 1775.324 7170911
369.71231 919.68616 1774.1134 6315345
381.46564 922.68427 1779.897 6776670
394.91595 929.51544 1793.0746 5592651
404.5083 927.146 1788.5038 7105632
418.46265 934.64001 1802.9601 7236961
426.75583 929.43146 1792.9125 7170658
440.11429 935.23969 1804.1169 5591625
451.80792 937.3186 1808.1271 6117966
462.55792 937.38867 1808.2625 5328706
467.85577 926.65704 1787.5605 5065534
474.86636 919.71771 1774.1743 4604730
480.96368 911.34863 1758.0299 6118224
494.16534 916.51044 1767.9874 6512982
506.53433 919.94574 1774.6141 5460041
516.01935 918.11017 1771.0732 6447191
529.4364 923.2041 1780.8998 6315604
538.97888 921.47467 1777.5636 5591878
540.50787 906.37396 1748.4336 4801849
551.80621 907.91522 1751.4069 5065021
556.29126 898.39636 1733.0444 3551782
572.73633 908.18744 1751.932 5131068
587.87512 915.59552 1766.2224 4999483
594.98077 910.4519 1756.3002 6446926
609.76862 917.03845 1769.0059 5920580
623.84558 922.35138 1779.2548 7499612
630.06183 916.05884 1767.1162 5394241
635.6944 909.13721 1753.7642 4078639
645.10687 907.75732 1751.1022 5591879
666.6059 923.15918 1780.8131 4868156
674.25714 919.2027 1773.1808 6447187
683.29724 917.23187 1769.379 6512980
692.85486 916.00494 1767.0122 7105116
703.95001 916.81683 1768.5785 6512465
707.74542 908.23737 1752.0283 6380881
715.25916 904.60876 1745.0284 7367776
704.00299 877.68298 1693.0875 6314836
729.29242 896.43524 1729.2614 10262668
741.81335 899.19025 1734.576 6249555
756.78589 904.80127 1745.3999 7368036
771.5506 910.01587 1755.459 8025965
780.76202 908.62885 1752.7834 8552310
793.51965 911.35101 1758.0347 4934208
801.60858 908.71027 1752.9406 5789518
823.02191 921.04852 1776.7415 7434343
830.73572 917.93726 1770.7399 4868155
837.27783 913.62531 1762.4219 5196608
849.29199 915.31696 1765.6852 5788999
850.12518 905.06409 1745.9069 3157534
860.19263 904.77045 1745.3403 4407344
868.76007 902.9248 1741.78 4473394
875.57068 899.31793 1734.8223 6381393
883.23743 896.66412 1729.7029 5986637
892.44 895.6123 1727.674 5065535
899.06152 892.02362 1720.7512 6249808
918.34424 900.93652 1737.9446 6118222
943.94092 915.77734 1766.5732 5197115
937.47375 899.52667 1735.225 5525309
950.65588 902.27802 1740.5323 4406574
971.67389 912.32745 1759.9182 4669491
979.94629 910.32349 1756.0525 4998710
989.59778 909.62927 1754.7133 5327675
1002.2474 911.6767 1758.6628 5131068
1004.5925 904.40503 1744.6356 6380625
1017.179 906.40784 1748.499 3157281
1029.4929 908.1297 1751.8204 4012336
1055.7106 921.95935 1778.4985 5789006
1043.2334 902.05713 1740.1064 6381144
1064.6925 911.60126 1758.5173 7105125
1090.6104 924.74097 1783.8643 7301989
1103.5186 926.70306 1787.6493 3420202
1106.6832 920.52344 1775.7286 3946802
1108.3931 913.2616 1761.7202 4012848
1125.7432 918.90179 1772.6003 5526086
1126.2493 910.81561 1757.0018 4472887
1143.307 916.14069 1767.274 7433829
1160.1837 921.22522 1777.0824 4144183
1188.3212 935.07941 1803.8076 6249559
1193.6675 930.91205 1795.7688 3420461
1193.9036 922.86847 1780.2522 8815486
1203.9674 922.49585 1779.5334 2368544
1214.8583 922.75781 1780.0387 7763312
1230.583 926.65527 1787.5573 4867648
1236.5359 923.19067 1780.8739 4078134
1250.1594 925.46313 1785.2574 4802366
1267.412 930.36139 1794.7064 4933696
1263.8916 920.05627 1774.8274 5460038
1271.4679 917.93256 1770.7307 7302499
1269.5585 909.05145 1753.5986 4802111
1285.561 913.03601 1761.285 3487020
1299.218 915.30402 1765.66 8091758
1308.145 914.22998 1763.5883 6051921
1318.0261 913.83459 1762.8256 5394249
1372.8948 944.3916 1821.7714 1381647
1381.3779 942.81293 1818.726 2565920
1383.174 936.72992 1806.9917 4012340
1375.5574 924.41479 1783.2352 5328714
1388.328 925.88397 1786.0692 3355181
1395.8395 923.84998 1782.1456 6117972
1405.4188 923.20496 1780.9012 4670268
1411.4882 920.28082 1775.2606 6841692
1425.3358 922.43408 1779.4143 5854798
1435.056 921.90411 1778.392 4407352
1430.2131 912.09448 1759.4688 6578523
1444.877 914.77692 1764.6433 2433566
1445.9658 908.88794 1753.2833 3815217
1470.899 917.96387 1770.7911 3223595
1488.0146 922.06702 1778.7063 6381660
1496.2202 920.63 1775.9342 3881523
1488.3707 909.40344 1754.2776 6513501
1503.6165 912.34589 1759.9537 5855314
1465.6299 883.17078 1703.6737 4342331
1555.8156 931.1015 1796.1342 4210746
1592.9888 946.87018 1826.5525 4210747
1593.8981 941.01636 1815.2603 4079161
1599.0068 937.70367 1808.8701 3420974
1607.2063 936.2356 1806.038 4079158
1624.6438 940.13269 1813.5557 1184269
1612.4524 926.94586 1788.1178 4933695
1614.1399 921.85767 1778.3024 5525834
1630.7179 925.28448 1784.9128 6380887
1647.4575 928.75818 1791.6138 2433563
1657.0809 928.20129 1790.5396 2433563
1669.8458 929.40009 1792.8521 4538939
1672.4059 924.93976 1784.2479 3091493
1690.9564 929.32367 1792.7046 5262149
1704.8148 931.09021 1796.1123 4012335
1711.8191 929.11456 1792.3013 3749420
0 0 0 0
0 0 0 0
0 0 0 0
0 0 0 0
0 0 0 0
0 0 0 0
0 0 0 0
0 0 0 0
0 0 0 0
0 0 0 0
0 0 0 0
0 0 0 0
0 0 0 0
-1428.1229 872.38544 1663.8474 1315
-1420.5322 873.78156 1666.51 2086
-1410.6737 873.79236 1666.5308 1831
-1402.2115 874.67444 1668.213 2345
-1391.7938 874.34052 1667.5763 134443
-1384.9949 876.29144 1671.2971 134441
-1439.7052 917.4679 1749.8304 134441
-1389.1322 891.66223 1700.6128 134698
-1378.9224 891.57703 1700.4503 1826
-1364.6985 888.87616 1695.2992 2080
-1350.8811 886.40198 1690.5803 463145
-1337.5408 884.20618 1686.3925 397091
-1330.8784 886.42517 1690.6245 2078
-1316.2054 883.30188 1684.6677 1045
-1301.0621 879.81287 1678.0133 14
-1313.806 895.27332 1707.5001 526
-1275.1484 875.67511 1670.1217 10
-1243.4104 860.55939 1641.2924 197384
-1236.8861 862.79333 1645.553 658961
-1216.6401 855.41498 1631.4807 724496
-1213.1924 859.82373 1639.8893 2237473
-1215.7671 868.60657 1656.6401 789771
-1196.6415 861.90222 1643.8535 1
-1187.1606 862.0918 1644.215 65796
-1186.4447 868.70203 1656.8223 5
-1229.5492 907.77521 1731.3441 9
-1201.3771 894.43958 1705.9099 9
-1191.1199 894.3288 1705.6986 9
-1183.2433 896.0188 1708.9219 9
-1213.2177 926.64838 1767.3397 9
-1163.6646 896.53973 1709.9154 9
-1157.9869 900.00269 1716.5201 7
-1149.5554 901.36786 1719.1238 4
-1169.9885 925.59253 1765.326 0
-1122.3458 895.91272 1708.7195 197120
-1107.1631 891.8396 1700.9512 2763556
-1092.014 887.71906 1693.0923 4276016
-1096.5708 899.68994 1715.9236 3683878
0 0 0 0
0 0 0 0
0 0 0 0
0 0 0 0
-1043.8296 898.05817 1712.8114 6513230
-1042.9626 906.12372 1728.1943 3881509
-1030.9735 904.59045 1725.27 6250058
-1024.4728 907.8902 1731.5635 3091737
-1010.2332 904.32941 1724.7721 3815458
-985.79498 891.47278 1700.2515 1184261
-977.79535 893.36987 1703.8698 2959899
-976.76025 901.73621 1719.8263 6645842
-960.91418 896.46143 1709.766 1645072
-945.41803 891.40411 1700.1206 5723972
-939.09229 894.97754 1706.936 4605233
-933.07294 898.92395 1714.4626 7566174
-931.08636 906.88519 1729.6466 4999989
-871.11353 857.91595 1636.2506 4013097
-855.56506 852.08795 1625.1354 4671025
-869.14526 875.46802 1669.7266 3947301
-862.01251 878.28259 1675.0946 4012583
-848.22882 874.30719 1667.5126 6644046
-839.64905 875.66534 1670.1029 2762774
-815.62195 860.75378 1641.663 4868148
-805.13855 859.94788 1640.126 5525825
-797.97241 862.70856 1645.3914 4276015
-795.6228 870.80945 1660.8416 5526336
-789.39996 874.82074 1668.4921 3815204
-775.77722 870.62915 1660.4977 2762775
-755.854 859.16821 1638.639 3485989
-746.2937 859.34167 1638.9698 5526083
-745.5083 869.75696 1658.8344 4604726
-739.40985 874.16943 1667.2499 4802104
-731.43378 876.45135 1671.6022 591873
-719.09668 873.49866 1665.9705 3026205
-714.71375 880.26019 1678.8663 4144172
-704.58826 880.0401 1678.4467 3881000
-692.84473 877.76385 1674.1053 2499608
-686.17719 881.94574 1682.0812 3091745
-680.53809 887.59222 1692.8503 1249543
-665.45648 880.9079 1680.1018 2038801
-660.84375 888.08942 1693.7987 3222817
-651.6524 889.24457 1696.0018 4341552
-636.90308 882.73273 1683.582 4209965
-635.05481 894.17853 1705.412 4276271
-621.98376 889.93701 1697.3225 8224106
-615.69763 895.42358 1707.7866 1908243
-604.43243 893.73126 1704.5591 5198139
-592.21741 890.55316 1698.4976 6053449
-589.08313 901.15649 1718.7207 5000760
-584.25751 909.50012 1734.6339 7500898
-564.70135 894.80127 1706.5997 3158560
-566.25098 913.61938 1742.4904 4606264
-555.91504 913.60376 1742.4606 5987916
-544.84863 912.36426 1740.0964 6448209
-536.35132 915.46185 1746.0044 7896167
-524.90338 913.54602 1742.3506 1382154
-515.00812 914.31 1743.8075 6513748
-509.17905 922.47174 1759.374 3354915
-501.88864 928.27216 1770.4366 3815206
-491.86047 929.14832 1772.1077 3749157
-477.06601 920.86243 1756.3046 5788996
-463.91028 915.4408 1745.9641 4538672
-451.35461 910.98297 1737.462 5723460
-442.7124 914.3999 1743.979 6644818
-433.18124 916.10022 1747.222 2631701
-424.09409 918.84583 1752.4585 3355683
-413.54349 918.47906 1751.759 3618343
-401.72534 915.20569 1745.5159 3092003
-389.58902 911.01526 1737.5237 4474171
-377.14963 905.86926 1727.7091 2631202
-362.66507 895.38684 1707.7166 65540
-354.82895 901.18811 1718.781 7
-348.31445 910.78815 1737.0906 9
-343.31912 925.06635 1764.3224 7
-335.01065 931.03381 1775.7039 6
-324.41141 930.8158 1775.288 7
-315.79565 936.46472 1786.062 7
-305.98972 938.85382 1790.6185 7
-294.25699 935.29022 1783.8219 9
-283.55267 934.85181 1782.9856 9
-277.99536 952.00543 1815.7018 11
-269.31198 959.40399 1829.8126 11
-260.52515 967.03955 1844.3754 12
-251.17574 973.164 1856.0563 12
-240.07208 972.74158 1855.2505 12
-230.17276 977.39246 1864.121 11
-220.08015 981.65039 1872.2417 12
-209.75114 985.24982 1879.1067 12
-199.55498 989.91187 1887.9984 12
-189.01012 993.29529 1894.4514 14
-178.90802 999.57977 1906.4374 14
-167.17027 996.95703 1901.4352 14
-156.33861 999.74933 1906.7606 13
-145.13171 1000.3901 1907.9829 16
-133.84731 1000.5598 1908.3065 15
-116.41093 950.52838 1812.8846 530
-106.07263 954.17377 1819.8373 1042
-95.543358 956.73193 1824.7163 1299
-84.717255 956.59137 1824.4482 1299
-73.888145 956.37091 1824.0277 787
-62.911007 953.83032 1819.1823 530
-52.016266 951.7467 1815.2083 272
-41.462559 956.4433 1824.1659 16
-30.516233 952.2019 1816.0764 14
-20.469597 986.70691 1881.8857 14
-9.3067122 985.60248 1879.7794 12
1.8299844 983.84076 1876.4193 12
12.936337 982.79932 1874.433 12
24.002424 981.07434 1871.1431 12
35.015648 978.96155 1867.1135 11
46.025909 977.80054 1864.8992 11
56.876259 974.34967 1858.3175 11
67.707031 971.73737 1853.3353 11
78.661415 971.3808 1852.6552 11
89.390709 968.6723 1847.4895 11
100.13863 966.7348 1843.7942 11
110.72003 963.72925 1838.0618 12
121.36839 961.79248 1834.3679 12
131.83109 958.82391 1828.7062 12
142.3815 956.89575 1825.0288 12
150.03145 937.12323 1787.3177 12
160.29536 935.20886 1783.6667 11
171.04564 936.19342 1785.5446 11
181.44467 935.25287 1783.7505 11
191.66357 933.53839 1780.4807 11
201.96034 932.36243 1778.2378 8
212.44565 932.13031 1777.795 5
220.64398 922.3598 1759.1605 723725
0 0 0 0
236.68932 904.00769 1724.1587 8947838
245.97258 900.58636 1717.6332 5395273
256.33936 901.24628 1718.8918 8684667
268.15759 906.76385 1729.4153 7171428
275.87344 898.51385 1713.6805 5329480
284.77609 894.5777 1706.1735 7763821
296.20535 898.57642 1713.7999 7566185
315.61765 925.72461 1765.578 4737085
322.21777 914.75769 1744.6614 6579033
333.7114 917.93292 1750.7174 5591879
344.7771 919.77527 1754.2311 8157806
356.11151 922.20563 1758.8663 5460039
366.77994 922.82208 1760.042 6512728
378.11334 925.03125 1764.2555 6512727
389.9147 928.23547 1770.3668 4934465
403.73199 935.94525 1785.0712 8092528
413.66171 934.47919 1782.275 3881265
422.41498 930.49457 1774.6754 4933953
434.80576 934.52167 1782.3561 6249557
445.82938 935.48907 1784.201 2499355
455.3244 933.27832 1779.9846 6841694
462.26566 926.05182 1766.202 4473146
471.9314 924.48248 1763.2089 5131075
484.01175 927.6087 1769.1713 6250327
489.62653 918.47369 1751.7488 5395017
499.17206 916.9386 1748.8209 4604731
509.27109 916.46191 1747.9119 6973277
522.8327 922.11127 1758.6864 2959647
532.66907 921.09796 1756.7538 6051660
541.43048 918.30042 1751.4182 6315089
541.75214 901.56287 1719.4957 5657158
550.34363 898.95154 1714.5154 3749417
568.63147 911.98633 1739.3757 5262912
581.565 916.12238 1747.2642 6644565
592.72687 917.3717 1749.647 4802104
610.55939 928.72485 1771.3002 4538930
622.36768 930.68561 1775.0397 5394238
625.48505 919.80078 1754.2798 5460033
633.3479 916.13629 1747.2906 4012846
640.7345 911.9118 1739.2336 6776152
658.80927 922.79193 1759.9847 4078895
662.59534 913.63086 1742.5122 5395525
672.05176 912.44952 1740.2592 6710617
680.70459 910.22931 1736.0248 8092012
693.97858 914.16272 1743.5266 6249809
700.56909 909.30573 1734.2633 4605241
705.76923 902.81073 1721.8756 7236705
705.53235 889.64496 1696.7655 3814186
727.28156 904.18317 1724.4933 6710362
744.64423 912.94049 1741.1956 7630951
752.40039 909.84167 1735.2854 7236448
766.18958 914.02368 1743.2614 7302241
782.02081 920.49786 1755.6094 7039070
790.5011 918.26312 1751.3472 7170657
804.41846 922.32025 1759.0851 7104864
816.88147 924.62732 1763.4852 6052176
828.18701 925.58264 1765.3073 7368036
833.02502 919.37616 1753.4698 6183762
837.55884 912.99103 1741.292 2763553
848.43427 913.58984 1742.4341 6973788
854.69977 909.27008 1734.1952 3881000
863.3772 907.58844 1730.9879 4802100
863.97552 897.55304 1711.848 4407607
874.01105 897.44092 1711.6342 6578774
881.16486 894.40625 1705.8463 5065280
891.93396 895.0686 1707.1095 8420977
905.2312 898.22449 1713.1285 6315602
931.45068 913.99036 1743.1979 5789000
939.79419 912.06189 1739.5199 6906969
950.08765 912.04724 1739.4919 6446675
957.84448 909.6239 1734.8701 5854537
954.90112 897.19849 1711.1719 5328449
969.89349 901.70911 1719.7745 5525569
977.98615 899.77777 1716.0911 3025434
995.81158 906.74866 1729.3862 6184528
1011.7457 911.8728 1739.1593 2171417
1022.8762 912.60779 1740.561 5065533
1036.3912 915.43445 1745.9521 5394502
1036.4402 906.42828 1728.7753 7368038
1045.1174 905.07056 1726.1857 5130820
1068.2646 916.14868 1747.3143 5657678
1083.7864 920.53723 1755.6843 6381143
1098.4763 924.1424 1762.5603 4867899
1099.3682 916.18091 1747.3757 4999743
1109.7886 916.23462 1747.4781 5263171
1121.962 917.72131 1750.3137 4736316
1126.6627 913.12427 1741.546 7039842
1142.8995 917.87543 1750.6077 6250583
1171.6057 932.46545 1778.4343 6513501
1185.679 935.25293 1783.7507 5196869
1190.6788 930.89734 1775.4436 5065027
1201.1962 930.8941 1775.4374 5131079
1214.0071 932.65283 1778.7916 6710110
1226.1124 933.84381 1781.0632 3881009
1220.8745 921.91809 1758.3181 5525835
1240.5358 928.83734 1771.5146 6710360
1252.3082 929.78333 1773.3188 9078906
1259.8083 927.56793 1769.0935 1973269
1269.1777 926.75391 1767.5411 6447449
1276.5541 924.51001 1763.2614 3815729
1286.344 924.03619 1762.3577 5855056
1281.8556 913.39594 1742.0642 6907487
1294.0894 914.74591 1744.639 5460042
1317.4357 923.86737 1762.0358 4933698
1342.8208 934.26398 1781.8645 5262921
1355.4862 935.71759 1784.6368 4736577
1367.4799 936.68854 1786.4888 2630686
1359.9254 924.35748 1762.9706 4473147
1365.0342 920.75623 1756.1021 5855569
1377.2864 921.99139 1758.4578 5921362
1394.0288 926.19128 1766.468 5526604
1406.481 927.49951 1768.963 6250584
1415.3024 926.41174 1766.8884 4671295
1422.7983 924.47864 1763.2015 5000260
1429.0394 921.7644 1758.0249 5197382
1441.78 923.2514 1760.861 5131078
1444.7142 918.4826 1751.7656 5460558
1459.8531 921.48572 1757.4933 5789778
1475.3311 924.65863 1763.5449 5197898
1476.3929 918.81537 1752.4004 5526350
1492.3583 922.26385 1758.9775 5197385
1486.931 912.53583 1740.4238 7171427
1495.6981 911.59302 1738.6255 5329223
1514.3809 916.6651 1748.2992 4802881
1564.9406 940.83228 1794.3918 4539709
1579.5305 943.19464 1798.8973 5460810
1575.0231 934.19788 1781.7385 5723983
1596.5135 940.63855 1794.0225 4473916
1599.1907 935.98285 1785.1428 3223849
1616.8728 940.11279 1793.0197 4079159
1623.1631 937.6084 1788.2432 4605503
1625.6659 932.96283 1779.3829 2829091
1637.3401 933.60675 1780.6111 2433562
1655.5304 937.93408 1788.8643 1775374
1659.853 934.39954 1782.1232 5328196
1663.7588 930.6767 1775.0227 4143665
1657.5856 921.39789 1757.3258 4736317
1687.6157 932.23364 1777.9922 5460041
1701.0499 933.82428 1781.0259 6117201
0 0 0 0
0 0 0 0
0 0 0 0
0 0 0 0
0 0 0 0
0 0 0 0
0 0 0 0
0 0 0 0
0 0 0 0
0 0 0 0
0 0 0 0
0 0 0 0
0 0 0 0
-1420.3656 877.45355 1654.8097 68907
-1413.2235 879.11115 1657.9358 199980
-1405.0059 880.11823 1659.835 134444
-1395.3038 880.20306 1659.995 134443
-1384.8656 879.82147 1659.2753 266030
-1375.4475 880.08704 1659.7761 397613
-1363.9766 879.03345 1657.7893 463406
-1358.7838 882.0401 1663.4595 397868
-1334.7377 872.7627 1645.963 1565
-1327.5586 874.45898 1649.1621 535
-1310.5914 869.68524 1640.1592 265248
-1304.8534 872.34729 1645.1797 133146
-1316.807 886.96606 1672.7495 66579
-1306.114 886.43671 1671.7512 14
-1300.2567 889.20636 1676.9745 13
-1315.4038 906.49347 1709.5767 14
-1273.6838 884.55554 1668.2036 11
-1260.3861 882.16766 1663.7002 9
-1229.5737 867.38678 1635.8245 5
-1224.007 870.32153 1641.3593 6
-1210.5293 867.63336 1636.2896 4
-1199.8217 866.90314 1634.9125 5
-1247.473 908.67023 1713.682 7
-1237.2075 908.5896 1713.5298 7
-1196.0499 885.63306 1670.2356 9
-1191.8696 889.90228 1678.287 9
-1186.3376 893.22565 1684.5546 9
-1220.1415 926.47369 1747.2579 9
-1217.4821 932.36676 1758.3718 8
-1196.3671 924.10608 1742.7927 7
-1148.0586 894.51367 1686.9836 6
-1142.3475 897.88269 1693.3374 5
-1138.3562 902.67517 1702.3757 3
-1156.5332 925.28912 1745.0239 0
-1103.9536 891.19147 1680.7183 1381648
-1093.9135 891.12646 1680.5957 2828833
-1093.3658 898.86395 1695.1881 5065021
-1089.2391 903.77557 1704.4509 2499095
-1088.0874 911.27039 1718.5857 2565143
-1074.8567 908.69537 1713.7292 7170648
-1056.4624 901.66406 1700.4689 4276785
-1045.4529 900.86078 1698.954 5527108
-1031.2877 897.29639 1692.2317 4803130
-1025.41 900.94324 1699.1094 5592645
-1017.178 902.57355 1702.1841 5658439
-1005.7091 901.33557 1699.8492 1513226
-996.00775 901.67261 1700.4849 2763032
-977.65814 894.1073 1686.2174 1776395
-976.36206 902.14301 1701.3721 3157790
-962.25293 898.38391 1694.2827 4342063
-956.53088 902.45837 1701.9669 5394751
-942.75262 898.93793 1695.3275 5856075
-922.50305 889.10461 1676.7826 5198401
-888.15778 865.32379 1631.934 8290160
-880.54517 867.3515 1635.7581 4342322
-859.17987 855.72705 1613.8351 3947304
-860.32782 866.51587 1634.1821 4934199
-845.97766 861.76318 1625.2189 4802354
-825.35168 850.43457 1603.8539 5328955
-819.84338 854.6004 1611.7104 4013095
-834.91577 880.57068 1660.6882 4934453
-812.98901 867.67261 1636.3635 4868149
-794.99542 858.71143 1619.4635 6117960
-782.71527 855.77826 1613.9316 3486499
-800.44702 885.99176 1670.912 4670517
-788.63501 883.8512 1666.8751 4144171
-776.81989 881.65302 1662.7295 4077865
-747.12427 858.84406 1619.7136 3354398
-745.16638 867.74188 1636.4941 2104590
-737.61481 870.27448 1641.2705 4604724
-733.18884 876.61194 1653.2224 3552294
-727.35168 881.41089 1662.2729 1446921
-719.30035 883.6217 1666.4424 1710352
-711.00616 885.59155 1670.1572 5723464
-698.53784 882.34454 1664.0337 4802104
-686.19635 879.16699 1658.0411 1973006
-673.09619 874.91101 1650.0146 3881260
-671.24683 885.3692 1669.738 3157795
-663.05005 887.64301 1674.0262 4999228
-655.95557 891.48395 1681.27 3486243
-648.68396 895.19885 1688.276 4144172
-640.3335 897.51813 1692.6499 4275500
-632.43884 900.56012 1698.387 4209962
-622.11426 900.18457 1697.6786 5131577
-612.80695 901.29279 1699.7686 6513231
-603.90283 903.04102 1703.0656 3684390
-589.67651 896.75476 1691.2102 5264195
-586.22345 906.91797 1710.3773 6316882
-567.33032 893.1319 1684.3779 7039836
-557.32959 893.10181 1684.3212 5263683
-556.98071 908.81964 1713.9636 1513744
-553.43549 919.80896 1734.6886 4343091
-543.13367 919.77216 1734.6194 4276782
-535.14374 923.72467 1742.0735 6118732
-524.82166 923.72784 1742.0793 2039577
-513.96887 922.77826 1740.2886 4934711
-506.25931 927.54883 1749.2855 5723972
-494.9632 925.81036 1746.0068 4013097
-483.94775 924.53369 1743.5992 4604719
-472.73022 922.80695 1740.3427 3880997
-461.51746 921.01263 1736.9587 4868147
-451.61362 921.80804 1738.4589 6184008
-437.12814 913.07068 1721.9808 5394751
-431.20044 922.21832 1739.2325 1513482
-419.23834 918.59192 1732.3936 3553063
-406.99039 914.14136 1724.0001 4803133
-397.30237 915.35968 1726.2977 1776403
-387.45169 916.25775 1727.9915 1447185
-370.98022 901.12238 1699.4473 1315091
-365.29919 912.08405 1720.1201 65540
-357.29492 917.70782 1730.7261 7
-354.38739 937.14185 1767.3772 11
-345.30179 940.92468 1774.5114 9
-334.39572 939.8288 1772.4446 9
-324.63049 941.97217 1776.4868 7
-316.06665 947.86206 1787.5947 9
-307.01556 952.6485 1796.6216 9
-296.98199 954.62091 1800.3413 9
-288.27802 961.17334 1812.6989 10
-279.46695 967.86218 1825.3134 11
-270.677 975.16559 1839.0872 11
-261.78159 982.6861 1853.2701 11
-251.21158 984.30383 1856.321 11
-241.28137 988.69147 1864.5957 11
-231.72777 995.11743 1876.7146 11
-220.3414 993.92413 1874.4641 11
-210.12253 998.14996 1882.4337 12
-200.67706 1006.7296 1898.6144 13
-189.4675 1006.953 1899.0356 14
-178.48001 1008.4595 1901.8767 14
-167.25743 1008.751 1902.4265 14
-155.9543 1008.5638 1902.0735 13
-144.76988 1009.175 1903.2262 16
-126.50916 956.39343 1803.6842 16
-115.97972 957.71118 1806.1693 271
-105.44628 959.2605 1809.0912 530
-95.076683 962.81964 1815.8036 1042
-84.296471 962.59845 1815.3864 1043
-73.497711 962.0697 1814.3892 1042
-62.634796 960.37598 1811.1951 530
-51.741631 957.42218 1805.6243 272
-41.39996 965.7934 1821.4119 16
-30.343306 957.50745 1805.7852 14
-20.420622 995.47186 1877.3832 14
-9.2712431 992.94366 1872.6152 12
1.8226638 990.98065 1868.913 12
12.886905 990.10974 1867.2705 12
23.917828 988.66626 1864.5482 12
34.862309 985.69104 1858.9371 11
45.861668 985.32367 1858.2444 11
56.653923 981.51056 1851.0531 11
67.445488 978.9245 1846.176 11
78.283867 977.64508 1843.7632 11
89.063759 976.03809 1840.7324 12
99.779976 974.16003 1837.1906 12
110.25357 970.51593 1830.3181 11
120.89259 968.85028 1827.1769 12
131.26065 965.46539 1820.7933 11
138.54941 941.66614 1775.9097 11
149.16379 942.23431 1776.9812 11
159.59926 941.67212 1775.9209 11
169.98033 940.87823 1774.4237 11
180.20367 939.35474 1771.5505 11
190.48582 938.28864 1769.5399 11
204.72418 955.80432 1802.5731 9
214.68121 952.58551 1796.5028 4
0 0 0 0
0 0 0 0
230.04057 888.54425 1675.726 6974307
243.44199 901.39526 1699.9619 6777182
253.13055 900.02374 1697.3752 8553593
265.63443 908.38434 1713.1427 8158833
275.98541 909.03821 1714.376 8158577
279.85538 889.05652 1676.692 7763306
288.56396 885.28967 1669.588 5526086
305.82391 907.13751 1710.7914 6644823
319.2995 916.71844 1728.8602 5525828
327.07501 909.84717 1715.9016 5723208
342.21323 923.25421 1741.1862 5789002
352.10446 922.13483 1739.0751 7236194
363.63675 925.2547 1744.959 6117457
374.18625 925.77063 1745.9319 4933440
384.34879 925.32697 1745.0953 3683116
395.86224 928.07385 1750.2758 4209462
407.05225 929.94159 1753.798 1973015
420.33182 936.37103 1765.9236 1315084
430.3616 935.42462 1764.1385 1117194
439.82819 933.32782 1760.1842 459521
448.60791 929.90454 1753.7281 2959397
463.54077 939.10199 1771.0739 2630687
469.51752 930.14954 1754.1902 3288616
471.97769 914.76917 1725.1841 4934211
489.1264 927.90619 1749.9595 6908256
492.51569 914.93713 1725.5007 4539707
495.17059 901.15906 1699.5164 7105374
511.42117 912.17987 1720.3008 5065534
526.19934 920.19501 1735.4166 5065019
539.68799 925.6908 1745.7815 6446674
546.58783 919.89124 1734.844 5722951
550.13165 908.76202 1713.855 6249295
567.02997 919.69659 1734.4769 6249549
580.94751 925.49341 1745.4091 5920583
592.29462 927.0639 1748.371 5591619
597.66937 919.39319 1733.9047 6446930
611.87134 925.33124 1745.1033 4539188
623.4928 927.23431 1748.6923 6184013
633.65649 926.9425 1748.1421 4276274
634.43512 913.15216 1722.1344 5920843
644.18585 912.50757 1720.9188 6447188
656.98419 916.13293 1727.756 3486760
670.49573 920.6261 1736.2299 7960686
673.88599 911.29669 1718.6351 7039839
680.80048 906.93982 1710.4185 5986637
694.37762 911.45624 1718.9362 7236447
702.6767 909.01428 1714.3308 4670522
707.06079 901.64948 1700.4413 4473143
702.89386 883.74054 1666.6664 7368292
731.21393 906.60736 1709.7916 6776410
749.45697 916.52594 1728.4971 5855307
762.29919 919.66107 1734.4098 6578774
776.73419 924.60889 1743.7411 7368035
782.54407 919.29449 1733.7184 7301987
797.41034 924.61884 1743.7598 6118225
805.57648 922.13739 1739.08 6249555
824.16791 931.50183 1756.7405 6052174
829.57587 925.91785 1746.2096 6249811
849.02655 935.95203 1765.1333 5986382
850.6795 926.3609 1747.0452 7302243
848.8017 913.20166 1722.2279 6710105
867.54333 922.27557 1739.3406 5460294
860.70258 904.25922 1705.3632 3288871
856.69012 889.59821 1677.7135 4012596
878.02661 901.29407 1699.7711 8683895
888.45148 901.65094 1700.4441 7104863
898.453 901.57501 1700.3009 6775897
912.42896 905.44482 1707.599 6315345
927.6687 910.46997 1717.0762 5986123
929.02515 901.90808 1700.9291 6116937
943.37659 906.01031 1708.6655 4473138
955.43835 907.84973 1712.1345 5722950
957.12805 899.89862 1697.1394 5525572
966.60779 899.36102 1696.1254 4341298
987.78278 909.604 1715.4429 4867899
1003.843 914.97632 1725.5747 3222817
1007.5447 909.08942 1714.4725 6447188
1019.3063 910.51978 1717.17 3617833
1022.4775 904.32422 1705.4857 6446934
1035.0884 906.51691 1709.621 4998976
1040.2021 902.16504 1701.4137 6183251
1056.0117 907.08405 1710.6906 6512729
1070.2325 910.55774 1717.2417 3947572
1083.5613 913.21429 1722.2516 6842720
1080.4414 902.08783 1701.2679 4934724
1102.8059 912.24786 1720.4291 5196357
1113.5575 912.70361 1721.2886 4407610
1137.7679 924.08209 1742.7476 6512985
1145.9656 922.36749 1739.5139 5920849
1152.2479 919.15558 1733.4565 5329224
1178.2683 931.60657 1756.9381 4408122
1178.9802 924.00433 1742.6008 7829358
1202.9219 934.58191 1762.5493 4210745
1211.7395 933.32819 1760.1849 5921361
1213.8549 926.97772 1748.2084 5066052
1242.5583 940.86719 1774.4028 3487021
1246.1821 935.69257 1764.6439 6512730
1252.0869 932.30249 1758.2506 3552044
1270.0067 937.84094 1768.6956 3354924
1277.3378 935.53339 1764.3439 5329223
1294.6343 940.50293 1773.7158 5987153
1282.2292 923.98907 1742.572 6052178
1293.8175 924.89075 1744.2726 5920592
1317.3892 934.27667 1761.9736 3025443
1324.4926 931.92767 1757.5437 3683117
1342.4435 937.18829 1767.4648 4999488
1345.2706 931.89099 1757.4745 5591626
1362.6714 936.69281 1766.5303 4210487
1371.6121 935.65033 1764.5643 4342586
1373.6837 929.97339 1753.858 5790030
1379.3369 926.78827 1747.8511 8224372
1398.8094 932.86664 1759.3145 3815986
1413.9253 935.97101 1765.1692 5593164
1417.5801 931.49878 1756.7347 2433563
1418.5386 925.33301 1745.1066 4144694
1426.6378 923.88062 1742.3676 5592140
1424.9191 916.13684 1727.7633 2368796
1470.1787 938.49225 1769.924 5723727
1463.4205 927.56055 1749.3076 5000005
1469.0608 924.58582 1743.6975 4605502
1440.5972 900.33844 1697.9689 5986900
1460.5989 906.5072 1709.6025 6382165
1483.069 914.1123 1723.9452 5395016
1481.707 907.0246 1710.5784 4144696
1521.3702 924.97607 1744.4333 6644575
1529.8809 923.87256 1742.3523 4934212
1572.9034 943.48547 1779.3408 5723983
1576.1083 939.112 1771.0928 5131843
1592.9761 942.88348 1778.2056 2566176
1595.444 938.13824 1769.2563 3881779
1584.9335 925.87329 1746.1256 4079158
1583.6421 919.1181 1733.3857 4342330
1608.1018 927.29901 1748.8145 3683886
1626.6635 931.99603 1757.6725 4670779
1624.8203 925.0166 1744.5099 4802106
1638.1063 926.68408 1747.6547 4604982
1649.9202 927.50311 1749.1992 3618087
1654.0531 924.021 1742.6323 4604472
1664.0555 923.84064 1742.2921 5591368
0 0 0 0
0 0 0 0
0 0 0 0
0 0 0 0
0 0 0 0
0 0 0 0
0 0 0 0
0 0 0 0
0 0 0 0
0 0 0 0
0 0 0 0
0 0 0 0
0 0 0 0
-1419.6807 886.83246 1654.0117 332339
-1409.9918 886.90363 1654.1444 398388
-1402.3279 888.25842 1656.6713 464435
-1392.2544 888.09528 1656.3669 594995
-1382.1282 887.896 1655.9952 463408
-1370.2286 886.54651 1653.4784 726833
-1360.7832 886.77679 1653.908 660269
-1343.3256 881.75134 1644.535 199200
-1340.2358 886.15228 1652.7432 18
-1324.7815 882.38257 1645.7123 18
-1314.1632 881.80194 1644.6293 16
-1300.7659 879.33374 1640.026 12
-1287.2091 876.72003 1635.1511 11
-1275.4498 875.30011 1632.5029 11
-1264.8469 874.65808 1631.3055 11
-1252.2947 872.64789 1627.5564 11
-1240.2217 870.94299 1624.3766 11
-1229.403 870.09912 1622.8027 9
-1219.2316 869.70374 1622.0653 9
-1212.3075 871.63678 1625.6707 7
-1200.3076 869.92218 1622.4728 6
-1186.151 866.60425 1616.2844 7
-1182.121 870.6908 1623.9064 7
-1164.0293 864.40253 1612.1781 7
-1151.6075 862.25543 1608.1736 7
-1146.2478 865.40417 1614.0463 7
-1133.2853 862.81769 1609.2223 7
-1121.0573 860.75116 1605.368 6
-1106.6226 856.94055 1598.2609 3
-1084.2314 846.84955 1579.4406 1579548
-1065.2712 839.28607 1565.334 987152
-1112.0702 883.85388 1648.4564 592650
-1095.5802 878.4649 1638.4055 460292
-1083.6936 876.70361 1635.1206 1512978
-1092.98 892.19397 1664.0114 2894114
-1081.7944 891.10321 1661.9771 2630943
-1065.1157 885.4259 1651.3883 2763037
-1090.2479 914.72284 1706.0294 3618088
-1098.9822 930.6814 1735.7935 3091743
-1069.5022 914.27386 1705.1921 4407856
-1025.7653 885.24933 1651.0591 6315345
-1024.2461 892.45111 1664.491 4275760
-1033.025 908.85333 1695.0824 3553318
-1011.5496 898.69849 1676.1427 4408368
-1001.796 898.8595 1676.4431 3816487
-999.95178 906.19171 1690.1182 3881510
-983.38159 900.19189 1678.9281 3026201
-971.65033 898.54449 1675.8555 3289116
-965.10522 901.70837 1681.7563 2368532
-962.69067 908.83777 1695.0533 5526592
-951.83075 908.06061 1693.6039 2171159
-933.21478 899.78864 1678.1759 5461567
-916.47955 893.17114 1665.834 6118987
-890.59338 877.39447 1636.4091 7632483
-869.15198 865.69745 1614.5933 5658948
-857.85962 863.9613 1611.3552 5329212
-846.96613 862.59229 1608.8019 7236952
-837.18958 862.34253 1608.3361 6447693
-819.33881 853.67444 1592.1694 4803381
-812.68256 856.60394 1597.6332 5657921
-807.17755 860.83026 1605.5156 3289376
-796.89166 859.99792 1603.9631 5592130
-789.6402 862.45978 1608.5547 2894873
-791.64832 875.21875 1632.3512 6644305
-779.36462 872.29755 1626.903 4012846
-780.05853 884.01019 1648.7479 3683880
-762.66791 875.26532 1632.4381 5723207
-740.88898 861.19507 1606.1959 1512710
-738.49829 869.58826 1621.85 2170129
-735.84985 877.89532 1637.3433 3749163
-727.51733 879.55255 1640.4341 5656904
-716.19611 877.59247 1636.7783 3288612
-705.30408 876.11163 1634.0165 3223076
-686.81976 865.02728 1613.3434 3025436
-691.51465 883.2356 1647.3032 3222814
-681.54144 882.96234 1646.7936 2696983
-677.79181 890.86108 1661.5254 525569
-667.1217 889.7627 1659.4768 2104595
-658.11835 890.88763 1661.575 1644045
-644.21497 885.31299 1651.1779 3617829
-642.3775 896.40363 1671.8627 6118474
-638.37268 904.77008 1687.4668 6447437
-618.34741 890.33539 1660.5449 4342318
-612.52539 896.21539 1671.5116 5263164
-601.29315 894.24268 1667.8324 4276269
-594.22284 898.49701 1675.767 2631701
-589.20288 906.04883 1689.8518 5657926
-582.37817 911.0387 1699.1582 5395269
-567.88373 903.99493 1686.021 5066303
-556.41699 901.6048 1681.5634 4868924
-549.53894 906.69861 1691.0636 1974031
-543.60193 913.56311 1703.8663 4671545
-538.54181 922.1889 1719.9541 1974034
-529.92792 924.94476 1725.0941 1974035
-522.88342 930.60223 1735.6458 8355953
-510.47919 926.75635 1728.4728 5000510
-501.62732 929.33405 1733.2805 5527105
-491.8486 930.26666 1735.0199 6710610
-480.59006 928.38037 1731.5018 4736050
-466.28873 920.40564 1716.6283 3749668
-454.94434 918.04218 1712.2202 3486237
-442.61655 913.54108 1703.8253 6907988
-432.74069 914.00867 1704.6974 3486753
-423.15524 915.12659 1706.7825 4276528
-414.92566 919.30334 1714.5725 4276789
-405.55087 921.08881 1717.9025 1184266
-392.97552 915.50995 1707.4974 262913
-378.73984 905.66583 1689.1375 262915
-372.01575 913.73706 1704.1909 2
-373.54562 943.09778 1758.9508 5
-363.49924 944.07825 1760.7797 9
-353.65945 945.66919 1763.7468 12
-343.75949 947.19122 1766.5854 8
-333.55435 947.94153 1767.9849 8
-323.74915 949.914 1771.6637 7
-315.46973 956.64557 1784.2186 8
-306.63092 962.08875 1794.3706 9
-297.12616 965.75867 1801.2153 9
-288.84277 973.81989 1816.25 10
-279.11331 977.44098 1823.0037 11
-272.81592 993.85651 1853.6199 12
-261.18152 991.3913 1849.0221 12
-251.94029 998.19202 1861.7059 12
-242.14296 1003.3114 1871.254 12
-231.19591 1003.9297 1872.4072 12
-210.30174 959.23907 1789.0558 12
-211.28697 1014.8989 1892.8657 12
-189.25845 960.05768 1790.5824 12
-178.88133 961.31659 1792.9304 14
-168.57237 963.1239 1796.3011 14
-157.66451 961.52246 1793.3143 14
-146.99391 961.24097 1792.7894 14
-136.43036 961.67023 1793.59 14
-125.91076 962.50806 1795.1526 14
-115.40291 963.59863 1797.1866 271
-104.89314 964.89325 1799.6012 272
-94.750076 970.23608 1809.566 274
-84.096527 971.04797 1811.0803 786
-73.152641 968.2547 1805.8706 530
-62.20092 964.38257 1798.6488 528
-51.514969 963.88165 1797.7144 272
-40.754322 961.35742 1793.0066 270
-30.082726 959.89423 1790.2776 14
-20.568943 1013.9089 1891.0192 11
-9.330864 1010.498 1884.6576 12
1.8319386 1007.1553 1878.4232 10
12.939536 1005.2645 1874.8966 10
23.989134 1002.6964 1870.1071 11
34.96677 999.69403 1864.5073 11
45.921444 997.63464 1860.6664 11
56.795979 994.96881 1855.6945 11
67.54837 991.37531 1848.9923 11
78.406425 990.1192 1846.6495 11
89.199173 988.4472 1843.531 11
99.89241 986.15765 1839.2609 12
106.21287 945.39655 1763.2384 11
116.57978 944.72876 1761.9928 11
126.96518 944.30817 1761.2084 11
136.85368 940.53662 1754.1741 11
147.13026 939.77618 1752.756 10
157.39908 939.06989 1751.4386 9
167.87407 939.60498 1752.4366 9
178.08179 938.66882 1750.6907 9
188.11589 936.97107 1747.5242 9
197.8557 934.06122 1742.0969 7
207.86795 932.66217 1739.4877 2
223.82707 956.8172 1784.5387 4934988
0 0 0 0
229.46237 896.2168 1671.5142 7434856
240.49481 900.43512 1679.3817 5000771
249.14703 895.76074 1670.6636 8092786
261.37836 903.81976 1685.6943 8882557
269.53555 897.71613 1674.3105 5921358
280.07758 899.70685 1678.0234 5986894
294.07956 912.29449 1701.5004 7500132
310.34039 930.82263 1736.0569 5526086
314.75281 913.7644 1704.2419 3091748
326.55157 918.5437 1713.1556 5196352
341.34409 931.20172 1736.7639 5460038
351.29056 930.28564 1735.0553 6117970
362.33444 932.245 1738.7097 4144183
371.53024 929.47272 1733.5392 722693
379.58337 924.06787 1723.4586 327937
392.27368 929.93927 1734.4092 393990
402.48761 929.79016 1734.1311 4
412.73019 929.71301 1733.9873 65541
424.59729 933.21008 1740.5095 65543
435.86386 935.25269 1744.3191 65541
449.28693 941.72076 1756.3826 4
457.2887 936.78998 1747.1864 196866
466.8035 935.10846 1744.0503 525573
472.12201 925.27576 1725.7115 986123
481.09549 922.87134 1721.2271 2762532
488.35385 917.34491 1710.9199 3551790
496.06854 912.88324 1702.5984 7105122
507.79749 915.83911 1708.1115 7894638
519.2132 918.12561 1712.376 5197634
526.43036 913.04266 1702.8958 5262913
539.84717 918.70123 1713.4495 6315344
551.15771 920.63257 1717.0515 7236445
563.80383 924.68439 1724.6085 4604722
577.5033 930.28888 1735.0613 5460033
581.45447 920.26843 1716.3724 5065532
590.07257 917.85199 1711.8656 4407602
601.66083 920.0592 1715.9822 5723462
619.56812 931.69556 1737.6848 4012588
628.6283 929.86469 1734.2701 6184271
636.40375 926.22302 1727.4781 7105375
641.35022 918.64447 1713.3435 7303012
