# .PCD v0.7 - Point Cloud Data file format
VERSION 0.7
FIELDS x y z rgb
SIZE 4 4 4 4
TYPE F F F U
COUNT 1 1 1 1
WIDTH 1452
HEIGHT 1
VIEWPOINT 0 0 0 1 0 0 0
POINTS 1452
DATA ascii
1794.7985 1049.7983 2257.3589 4011819
1789.3459 1038.866 2233.8511 4669748
1816.1689 1046.6949 2250.6858 6249038
1810.6315 1035.896 2227.4648 8091755
1845.3779 1048.1337 2253.7793 9012602
1876.6991 1058.264 2275.5623 7236191
1867.5422 1045.587 2248.3035 6578003
1862.8596 1035.577 2226.7791 5919817
1879.813 1037.651 2231.2385 7103833
1923.929 1054.5848 2267.6511 6314831
1929.0278 1050.0452 2257.8894 7038297
1928.0249 1042.2695 2241.1697 8551279
1935.3025 1039.046 2234.2383 8815479
1948.0105 1038.7621 2233.6277 6644054
1947.8049 1031.6422 2218.3181 6183758
1965.8705 1034.2302 2223.8831 7104603
1974.399 1031.7999 2218.6572 8025963
1983.8099 1029.8596 2214.4851 6117710
1960.9108 1011.2821 2174.5381 7630691
1977.984 1013.4271 2179.1504 9407359
2014.7072 1025.5466 2205.2107 5525572
2025.4376 1024.3641 2202.668 7565155
2046.5209 1028.3992 2211.3445 7170397
2060.0481 1028.61 2211.7979 7039322
2081.7173 1032.8579 2220.9321 7104603
2090.929 1030.9104 2216.7444 5262400
2108.8916 1033.2748 2221.8284 2433301
2086.7214 1016.0684 2184.8301 4669747
0 0 0 0
0 0 0 0
0 0 0 0
0 0 0 0
0 0 0 0
0 0 0 0
0 0 0 0
0 0 0 0
0 0 0 0
0 0 0 0
0 0 0 0
0 0 0 0
0 0 0 0
0 0 0 0
0 0 0 0
-1539.0343 856.3269 1818.1724 8623260
-1250.8345 700.87787 1488.1195 8557467
-1520.0731 857.78772 1821.2739 7702158
-1353.2244 769.09467 1632.959 8294295
-1498.8967 858.02252 1821.7725 8294294
-1490.9053 859.63965 1825.2061 8623259
-1457.4657 846.50012 1797.3079 8754588
-1391.6094 814.20087 1728.7294 8623002
-1430.4255 843.11829 1790.1274 8491159
-1423.2415 845.15179 1794.4452 8491157
-1299.2928 777.35675 1650.5011 8227471
-1300.5045 783.98358 1664.5714 7438212
-1264.0243 767.81622 1630.2445 7701126
-1314.8888 804.86493 1708.9072 8358800
-1300.7798 802.40887 1703.6924 8490386
-1302.6583 809.85364 1719.4993 8161166
-1268.4684 794.81549 1687.5698 7042428
-1254.9929 792.62103 1682.9106 7963016
-1245.6111 792.99762 1683.7102 7042171
-1232.0276 790.68372 1678.7972 7897223
-1239.3395 801.85144 1702.5088 9476253
-1235.5023 805.92981 1711.1681 8555407
-1222.9504 804.34412 1707.8011 6450286
-1212.8507 804.35797 1707.8308 6384494
-1216.2156 813.37701 1726.9802 9082007
-1212.4755 817.75708 1736.28 7634304
-1191.9091 810.7666 1721.4376 7370874
-1186.1748 813.8316 1727.9453 7963008
-1196.1927 827.85162 1757.713 7962749
-1169.0681 816.18689 1732.946 6053726
-1143.6025 805.48389 1710.2213 5197898
-1151.5079 818.3042 1737.4418 3026211
-1149.2969 824.10181 1749.7513 4670004
-1146.0551 829.25909 1760.7014 4604211
-1131.5856 826.31262 1754.4453 2697239
-1123.3466 827.90308 1757.8223 1776656
-1112.7678 827.78308 1757.5674 6579544
-1111.1622 834.3988 1771.614 7171680
-1101.9998 835.41199 1773.7653 4934461
-1082.7198 828.70093 1759.5162 2829342
-1071.0391 827.73218 1757.4592 6052942
-1069.8496 834.93188 1772.746 4868919
-1060.8466 836.11627 1775.2607 5526078
-1046.7513 833.27069 1769.2188 5064754
-1033.2965 830.88239 1764.1479 4998701
-1031.5284 837.93884 1779.1304 4669480
-1025.3928 841.55646 1786.8113 4011293
-1027.5551 852.13086 1809.2632 4998187
-1003.6299 841.06635 1785.7708 4537379
-991.52734 839.77911 1783.0377 4931369
-978.69196 837.83704 1778.9142 4142628
-972.95123 841.99219 1787.7366 1840651
-971.5683 850.0517 1804.8486 393216
-960.43542 849.6651 1804.0278 393216
-951.40485 851.15051 1807.1818 327680
-944.36761 854.47357 1814.2372 525314
-932.17798 853.15741 1811.4426 2301202
-929.98444 861.0658 1828.234 1709063
-922.62823 864.32428 1835.1526 1314304
-911.00232 863.61298 1833.6422 1511682
-903.07867 866.43646 1839.6372 1840388
-885.7821 860.22644 1826.4519 2564366
-870.70886 856.04865 1817.5815 3024402
-855.44684 851.57831 1808.0901 5129777
-848.73077 855.6098 1816.6498 5919295
-841.81689 859.54297 1825.0007 1182725
-837.39679 866.15784 1839.0455 4340520
-826.98102 866.66376 1840.1198 4537642
-810.26093 860.48822 1827.0077 2235153
-799.3678 860.4173 1826.8571 4669233
-792.38788 864.61426 1835.7682 1774606
-778.83319 861.6543 1829.4834 2300171
-771.38458 865.4613 1837.5668 4603697
-764.07892 869.5401 1846.2269 7762533
-751.6134 867.78015 1842.4901 4210229
-747.33844 875.56421 1859.0173 6907743
-741.92957 882.23279 1873.1763 1316369
-735.44043 887.7998 1884.9963 526599
-722.2627 885.33984 1879.7733 2040103
-715.08862 890.2774 1890.2567 3158570
-705.84399 892.75317 1895.5133 1184266
-690.70923 887.73859 1884.8663 5327934
-672.49225 878.53278 1865.3203 3551774
-659.1853 875.54071 1858.9674 5787965
-653.36359 882.55798 1873.8667 5722426
-643.76947 884.63409 1878.2747 4998702
0 0 0 0
-619.57404 881.88226 1872.432 5459255
-599.1485 868.36127 1843.724 6051136
0 0 0 0
0 0 0 0
-572.41315 877.62738 1863.3978 1972232
-563.57526 881.07458 1870.717 2235660
0 0 0 0
0 0 0 0
-529.38226 879.52252 1867.4218 3288860
0 0 0 0
0 0 0 0
0 0 0 0
0 0 0 0
0 0 0 0
0 0 0 0
0 0 0 0
0 0 0 0
0 0 0 0
0 0 0 0
0 0 0 0
0 0 0 0
0 0 0 0
0 0 0 0
0 0 0 0
0 0 0 0
0 0 0 0
0 0 0 0
0 0 0 0
0 0 0 0
0 0 0 0
0 0 0 0
0 0 0 0
0 0 0 0
0 0 0 0
0 0 0 0
0 0 0 0
0 0 0 0
0 0 0 0
0 0 0 0
0 0 0 0
-179.9874 903.31537 1917.9392 5657661
-171.85327 920.62946 1954.7008 5064752
-161.36081 926.89929 1968.0132 4604457
-148.73492 920.9364 1955.3527 4801834
-138.12125 927.47791 1969.2417 6973260
-126.80243 930.05481 1974.7131 4604715
-113.90526 920.40192 1954.2178 5854525
-101.54197 913.36621 1939.2795 6643785
-90.251305 915.41437 1943.6282 5459254
-77.538002 901.52081 1914.1292 5393719
-67.139389 914.39008 1941.4534 3288091
-55.740925 916.14874 1945.1874 7499092
-43.837704 908.36536 1928.6615 7959898
-32.753742 918.05487 1949.2345 4406819
-21.260342 920.5741 1954.5834 6709317
-9.5751829 910.8822 1934.0054 5196335
1.9065424 920.7326 1954.9199 6709574
13.418577 915.73456 1944.308 5130543
24.718592 907.57001 1926.9729 5590841
36.407429 914.33032 1941.3264 4011553
47.686527 910.02478 1932.1848 4866608
58.784794 904.60388 1920.675 6709582
70.485565 908.70923 1929.3917 6117701
82.283234 912.74353 1937.9573 6183238
94.808075 922.8678 1959.4534 6709836
105.8223 917.68262 1948.4442 7104849
117.15554 916.01227 1944.8976 7038801
128.60013 915.43353 1943.6688 6643786
140.71346 919.31909 1951.9187 7367508
153.77994 928.36841 1971.1326 6709321
164.20511 921.32031 1956.1678 7170130
175.90906 921.90356 1957.4061 5986111
184.79642 908.56653 1929.0887 7170128
199.34036 922.97449 1959.6798 3091228
212.87071 931.36115 1977.4868 6972490
222.74455 923.70941 1961.2404 5261363
235.10258 926.60742 1967.3934 5655865
245.44006 921.64429 1956.8557 5195056
258.12051 925.53003 1965.106 4273698
267.0705 916.28174 1945.4697 5326386
281.01007 924.20898 1962.301 1642759
292.93417 925.14087 1964.2797 4340523
309.87332 941.23462 1998.4503 3353879
321.17471 939.64935 1995.0845 3156244
333.50858 941.09009 1998.1434 7827544
344.90118 939.86713 1995.5468 5459251
355.55966 936.79095 1989.0154 3747605
370.78088 945.54779 2007.6082 4405532
384.25211 949.43628 2015.8643 6249793
402.72601 965.07855 2049.0762 13815488
408.81543 950.99591 2019.1757 197377
421.56857 952.77472 2022.9525 1841160
439.16342 965.09521 2049.1116 1315334
453.18155 969.10413 2057.6233 3681299
461.25296 960.51935 2039.396 5064237
474.35291 962.57715 2043.7651 4536612
483.62613 956.96039 2031.8395 4998449
492.7973 951.41956 2020.0752 4866865
503.41904 948.87555 2014.6737 4209447
519.64581 956.76941 2031.4342 6709582
534.31598 961.50476 2041.4883 2960414
544.08539 957.40686 2032.7875 7960679
554.70966 954.95795 2027.588 4671025
576.05597 970.67999 2060.9695 7105109
595.30231 982.28418 2085.6077 5986885
604.71698 977.52362 2075.4998 5789507
614.27386 973.17792 2066.2729 7235669
619.94891 962.97241 2044.6045 7367512
633.29883 964.8512 2048.5935 6578252
643.83966 962.46008 2043.5166 7039060
659.21558 967.25159 2053.6902 7104337
671.57648 967.52582 2054.2722 8485989
685.66528 970.23517 2060.0249 7366996
695.81409 967.37219 2053.946 5986111
692.31073 945.95361 2008.4698 7301201
719.77765 966.86084 2052.8604 6709064
720.38043 951.58679 2020.4302 6906188
746.73529 970.27325 2060.1057 6181949
757.1283 967.95203 2055.1772 3354657
779.11407 980.29047 2081.3745 6577995
802.61597 994.12225 2110.7424 6775374
827.47937 1009.1901 2142.7346 6051651
830.72992 997.84174 2118.6396 7828062
840.95728 995.08685 2112.7905 5130550
864.45599 1007.8862 2139.9663 9407092
878.45721 1009.4022 2143.1851 6380611
879.86194 996.60712 2116.0183 8551781
895.05249 999.56714 2122.3032 7432789
902.27576 993.67096 2109.7842 7629912
899.93103 977.54266 2075.5403 5787709
916.63251 982.25909 2085.5544 6774602
915.97003 968.49066 2056.3208 9274736
928.61713 968.9715 2057.3418 6182209
948.1214 976.50232 2073.3315 6906703
964.30267 980.46191 2081.7385 5130550
972.18555 975.99054 2072.2449 7564634
993.55548 985.00165 2091.3774 6775121
1002.7685 981.88696 2084.7642 7038547
1022.2811 988.81042 2099.4644 7433049
1031.3865 985.62207 2092.6946 7039061
1047.7147 989.32971 2100.5669 6775372
1056.8013 986.19232 2093.9055 7696731
1102.3186 1016.7302 2158.7441 6973268
1092.84 996.42328 2115.6282 6709325
1101.4194 992.85516 2108.0522 7762013
1121.8484 999.92896 2123.0713 5854020
1112.8196 980.88062 2082.6274 7170907
1160.9242 1012.0572 2148.8223 6512467
1182.8339 1019.9691 2165.6211 6578772
1202.3895 1025.7031 2177.7957 7236702
1225.2225 1034.0814 2195.5847 8552561
1224.923 1022.965 2171.9822 7170906
1231.9849 1018.1636 2161.7876 7303006
1248.5641 1021.2456 2168.3313 6645077
1260.0033 1020.1035 2165.9062 8157547
1265.4226 1014.1597 2153.2864 9275512
1270.0613 1007.7153 2139.6035 8091235
1295.2916 1017.575 2160.5378 9143412
1297.7808 1009.5511 2143.5015 7301720
1301.5836 1002.6949 2128.9441 8090465
1318.3993 1005.8987 2135.7463 7169619
1327.0447 1002.8671 2129.3098 5327158
1334.8625 999.27319 2121.679 9669495
1339.954 993.72437 2109.8977 8222050
1353.8254 994.72931 2112.0315 8353892
1366.3749 994.75342 2112.0825 4538156
1377.4904 993.74255 2109.9363 6840913
1386.9647 991.57666 2105.3376 7367001
1405.0471 995.54865 2113.771 6840654
1427.5186 1002.5328 2128.5999 7893342
1430.9445 996.13623 2115.0186 7893342
1448.1359 999.35022 2121.8425 8814444
1453.1393 994.17041 2110.8447 7301719
1468.0499 995.79932 2114.3032 4801585
1485.0851 998.82947 2120.7368 6709838
1508.9376 1006.3555 2136.7163 8091235
1533.2461 1014.0578 2153.0701 7433305
1559.7485 1023.0721 2172.2095 7893855
1598.744 1040.0662 2208.2915 6577995
1603.6484 1034.7863 2197.0813 7169875
1607.5433 1028.9453 2184.6794 7301975
1633.6914 1037.3275 2202.4768 6577996
1640.7383 1033.5444 2194.4446 5920065
1631.1981 1019.4545 2164.5286 7498843
1648.007 1021.9235 2169.7705 7564636
1663.6273 1023.6228 2173.3787 6907221
1670.4397 1019.918 2165.5127 7893861
1689.6445 1023.7787 2173.7097 6709329
1700.9889 1022.8542 2171.7468 6643537
1726.9076 1030.6416 2188.2812 7104344
1765.5978 1045.8784 2220.6323 7169623
1808.4336 1063.3273 2257.6802 5656383
1818.9498 1061.6562 2254.1321 5854023
1801.2849 1043.6809 2215.9666 7762789
1817.3966 1045.3949 2219.6055 7696998
1833.8894 1047.3016 2223.6541 5526086
1843.7129 1045.3997 2219.6157 5657672
1851.6953 1042.488 2213.4338 7828328
1852.4077 1035.5533 2198.71 6841690
1883.3101 1045.4747 2219.7751 7433312
1894.4055 1044.3395 2217.3647 3946283
1899.6469 1040.0149 2208.1826 8748915
1926.4547 1047.4757 2224.0237 7104860
1936.4459 1045.7537 2220.3674 5920330
1940.2139 1040.7168 2209.6729 6973018
1916.3757 1021.0389 2167.8923 7894120
1936.4185 1024.847 2175.978 7696741
1936.3235 1018.0173 2161.4771 7104604
1946.4281 1016.6047 2158.4775 8617587
1963.0227 1018.578 2162.6675 7762534
1995.6051 1028.7677 2184.3025 7301983
2000.0983 1024.4388 2175.1113 7828327
1985.277 1010.3362 2145.1682 6117709
2022.4147 1022.6873 2171.3923 5196607
2009.9874 1009.9768 2144.4053 6775639
2016.0752 1006.6711 2137.3865 7367776
2020.4523 1002.5579 2128.6531 8552049
2050.4619 1011.1356 2146.8655 7499618
0 0 0 0
0 0 0 0
0 0 0 0
0 0 0 0
0 0 0 0
0 0 0 0
0 0 0 0
0 0 0 0
0 0 0 0
0 0 0 0
0 0 0 0
0 0 0 0
0 0 0 0
0 0 0 0
-1338.6647 748.96875 1570.4664 8294552
-1497.0065 843.42303 1768.5219 8426137
-1342.6611 761.7973 1597.3658 8557722
-1346.7616 769.54944 1613.6208 7373192
-1355.0415 779.81781 1635.1519 7964815
-1348.203 781.47076 1638.6178 7833229
-1335.3936 779.66162 1634.8245 8293780
-1315.8901 773.88934 1622.7208 8227987
-1306.1487 773.81537 1622.5657 8096657
-1298.5323 775.00861 1625.0677 8227728
-1315.4031 790.94354 1658.4808 8490644
-1288.1599 780.39349 1636.359 8818834
-1279.4318 780.98511 1637.5995 5134425
-1273.9709 783.5954 1643.073 6844529
-1295.0652 802.70538 1683.1434 6646380
-1280.4678 799.81787 1677.0889 6580073
-1274.6204 802.39343 1682.4894 6185316
-1258.9125 798.75342 1674.8568 5198162
-1262.6609 807.49823 1693.1932 6382178
-1253.6675 808.16907 1694.6 7303539
-1231.1931 800.09027 1677.66 7040880
-1233.3043 807.98694 1694.2181 5988707
-1215.6653 802.9679 1683.6938 7304053
-1213.9148 808.44714 1695.1831 6316899
-1209.199 812.02667 1702.6887 5132882
-1222.1324 827.61829 1735.3818 7764603
-1205.9816 823.61176 1726.9807 7369590
-1197.4196 824.76367 1729.3961 5066579
-1176.8156 817.56964 1714.3114 4474950
-1165.9939 817.10547 1713.338 5131849
-1163.5608 822.56342 1724.7825 4671034
-1152.9441 822.28143 1724.1913 4472884
-1139.0892 819.66437 1718.7037 3551781
-1138.252 826.45184 1732.9359 5854537
-1133.441 830.45135 1741.3224 2367254
-1125.4725 832.18976 1744.9674 2959902
-1116.6699 833.33783 1747.3748 5854790
-1104.1583 831.71356 1743.969 6380877
-1090.7866 829.40466 1739.1276 6841428
-1086.9004 834.33295 1749.4614 3683620
-1075.376 833.43652 1747.5817 4867636
-1064.749 833.22491 1747.1379 920577
-1055.2515 833.90161 1748.5569 5327928
-1045.036 834.01886 1748.8027 5130293
-1035.3942 834.60077 1750.0229 4341031
-1039.6655 846.52289 1775.0217 4274208
-1029.812 847.0705 1776.17 2958098
-1017.8359 845.86536 1773.6429 3813401
-1002.8404 842.09961 1765.7468 2497288
-993.80542 843.31238 1768.2898 7497553
-980.61725 840.9892 1763.4185 2431497
-977.96021 847.74487 1777.584 1576452
-973.7774 853.31073 1789.2546 393216
-962.67548 852.86902 1788.3286 393216
-955.98248 856.36719 1795.6636 196608
-946.86487 857.74768 1798.5582 131072
-941.82935 862.8996 1809.361 3485738
-931.05988 862.8562 1809.2699 328704
-920.0531 862.58929 1808.7103 1512199
-923.04852 875.59845 1835.9885 1446402
-913.63116 877.00287 1838.9333 788224
-893.71326 868.23999 1820.559 2564624
-878.40314 863.79419 1811.2368 2103559
-862.22974 858.37885 1799.8817 2761488
-846.1228 852.89478 1788.3826 4669486
-846.34363 863.9389 1811.5403 4208935
-835.28381 863.6037 1810.8374 4537899
-826.65228 865.80298 1815.449 4604462
-815.24036 865.1098 1813.9955 2564629
-806.3363 867.09509 1818.1582 2893077
-794.73065 866.18951 1816.2594 3288097
-785.95355 868.38422 1820.8615 4208687
-777.47253 870.97174 1826.287 656640
-766.97174 871.33789 1827.0547 3485217
-759.67706 875.40894 1835.5909 4866354
-748.05402 874.53802 1833.7649 2893086
-742.61676 880.97974 1847.2721 5525836
-725.99677 874.14941 1832.9501 6777964
-708.12366 865.57983 1814.9811 2961482
-714.83362 887.25873 1860.4382 2106680
-703.1842 886.47205 1858.7886 3093560
-696.12958 891.54498 1869.4257 3685167
-687.27039 894.43329 1875.4821 5723208
-668.24255 883.96533 1853.5326 5065527
-652.51642 877.5882 1840.1606 7038805
-644.11664 881.01501 1847.3462 5854529
0 0 0 0
0 0 0 0
-613.24567 883.85767 1853.3068 7235666
0 0 0 0
-587.44379 878.12402 1841.2842 3551260
-575.36377 876.34479 1837.5533 854787
-566.95483 880.19629 1845.6293 3090966
0 0 0 0
0 0 0 0
-536.54565 884.15704 1853.9343 3551255
-522.68488 879.32208 1843.7963 2037509
0 0 0 0
0 0 0 0
0 0 0 0
0 0 0 0
0 0 0 0
0 0 0 0
0 0 0 0
0 0 0 0
0 0 0 0
0 0 0 0
0 0 0 0
0 0 0 0
0 0 0 0
0 0 0 0
0 0 0 0
0 0 0 0
0 0 0 0
0 0 0 0
0 0 0 0
0 0 0 0
0 0 0 0
0 0 0 0
0 0 0 0
0 0 0 0
0 0 0 0
0 0 0 0
0 0 0 0
0 0 0 0
0 0 0 0
0 0 0 0
0 0 0 0
-182.02972 925.06049 1939.7023 3353620
-163.53253 887.0777 1860.0587 6973005
-150.57722 875.83905 1836.4929 6775882
-138.53647 868.58301 1821.2782 4999984
-127.6088 867.66931 1819.3622 5657142
-125.02277 928.53992 1946.9982 5722683
-105.42261 862.57727 1808.6852 6314820
-99.684845 907.94385 1903.8115 5261875
-88.110001 904.94025 1897.5135 4867118
-75.548355 889.44006 1865.0121 5196083
-66.281448 914.06396 1916.6444 5459511
-54.985691 915.10724 1918.832 7170641
-43.48962 912.49158 1913.3474 7565658
-32.232948 914.82544 1918.2412 6315589
-20.996645 920.59564 1930.3403 4669992
-9.481041 913.27521 1914.9906 4340768
1.8674719 913.21204 1914.858 6577730
13.414671 926.98706 1943.7421 5525043
24.443014 908.74426 1905.4899 4340513
35.83276 911.22137 1910.684 4669482
47.055328 909.27826 1906.6096 3353880
58.433765 910.51648 1909.2058 4735278
69.969818 913.41058 1915.2743 4998962
81.790298 918.69147 1926.3475 6512200
92.988174 916.54205 1921.8406 5920064
105.23801 924.09894 1937.6862 6907216
116.48993 922.26843 1933.8478 7433816
125.9213 907.64319 1903.181 7630683
0 0 0 0
148.31979 906.6723 1901.1453 6446410
160.09636 909.56964 1907.2206 7368024
174.24054 924.64917 1938.84 8618859
183.7179 914.62946 1917.8302 5131061
198.63457 931.27887 1952.7413 7236176
209.53107 928.28461 1946.4628 6840904
221.6062 930.55206 1951.2173 5656377
233.60815 932.30261 1954.8878 4998191
240.88538 915.92273 1920.542 3023889
251.33394 912.53534 1913.4391 3090453
262.57712 912.20087 1912.7379 2300943
275.68829 918.11505 1925.1389 3616541
292.9212 936.74011 1964.1926 4142882
308.68082 949.4101 1990.7596 4669739
320.60376 949.78125 1991.5378 4143139
331.98148 948.56824 1988.9943 5721915
339.68344 937.29565 1965.3575 4077090
356.09592 950.00891 1992.0151 3549720
369.06427 953.01257 1998.3135 1050881
381.91061 955.52448 2003.5803 5129781
394.67984 957.69751 2008.137 2629129
408.69656 962.68207 2018.5886 3682585
422.49966 966.89398 2027.4205 3551005
438.85345 976.54901 2047.6654 4537643
452.58975 980.01666 2054.9365 3945503
460.09753 970.16888 2034.2874 3550743
467.0462 959.67523 2012.2839 4077087
481.97986 965.703 2024.9231 3945758
485.05069 948.2467 1988.3202 4932656
490.57272 936.29675 1963.2631 4143396
500.44418 933.0094 1956.37 7169875
519.23779 946.12848 1983.8784 5656635
537.57483 957.85291 2008.4628 6512202
547.03632 953.59772 1999.5403 7038289
561.7182 958.43005 2009.673 5722688
584.30548 976.27026 2047.0811 6643788
597.00781 977.20477 2049.0405 5262134
605.31708 971.05457 2036.1445 8157026
607.27087 955.1485 2002.7921 2367763
627.10162 967.43127 2028.547 5591101
642.87024 973.10303 2040.4397 5722687
648.39142 963.34039 2019.9691 8288614
662.73517 966.80212 2027.2278 6314823
676.54608 969.37708 2032.6271 6709325
683.16315 961.73468 2016.6022 5788219
696.16541 963.18945 2019.6526 8419683
714.04565 971.22998 2036.5123 8025182
726.43256 971.65546 2037.4044 6643530
740.99133 974.9245 2044.2592 7367251
742.6062 961.33209 2015.7579 6577479
754.50153 961.26782 2015.6232 7301202
761.70081 955.31573 2003.1427 7367253
799.14117 986.89221 2069.3535 6183491
818.5885 995.62994 2087.675 9539192
835.01971 1000.4935 2097.8733 6841424
853.93823 1008.151 2113.9297 6643531
865.47003 1006.9922 2111.5 4143398
870.3808 998.27283 2093.2168 7498583
897.95056 1015.4216 2129.175 8353892
893.62738 996.52972 2089.5618 7630424
905.91205 996.42126 2089.3345 7695705
903.60364 980.48126 2055.9106 6906701
910.92657 975.27698 2044.9983 7433044
922.54993 974.75317 2043.8999 6577735
938.34033 978.58875 2051.9424 5459256
955.005 983.22638 2061.6667 7629914
968.22266 984.24274 2063.7979 6973010
969.8894 973.63812 2041.5618 6709583
991.31714 982.88776 2060.9568 8551533
1007.6465 986.91876 2069.4092 7169879
1018.8724 985.91449 2067.3032 5393212
1032.4869 987.21783 2070.0364 7433051
1043.3257 985.86786 2067.2056 7038293
1073.238 1002.3632 2101.7937 7433307
1078.7711 995.97192 2088.3921 6906706
1095.533 999.97504 2096.7861 7564635
1110.0654 1001.8762 2100.7725 6380364
1125.3396 1004.3971 2106.0583 6643788
1140.1555 1006.4583 2110.3804 8090469
1154.4885 1008.053 2113.7244 6643536
1166.0759 1007.242 2112.0237 8683121
1184.6544 1012.4229 2122.8872 6841173
1203.1136 1017.3939 2133.3105 8617583
1212.5 1014.6691 2127.5972 5327933
1236.3647 1023.9918 2147.1453 9539197
1249.9774 1024.72 2148.6721 7565408
1249.6107 1014.0888 2126.3804 7433820
1238.5066 995.04333 2086.4451 8288617
1273.5767 1013.1049 2124.3174 5788737
1282.6005 1010.2966 2118.4287 8288615
1299.0076 1013.302 2124.7305 8551529
1311.3174 1013.0842 2124.2739 5261622
1315.46 1006.6209 2110.7214 6577482
1323.8497 1003.4988 2104.1748 4538158
1325.4963 995.37122 2087.1326 7630172
1349.3627 1003.9254 2105.0693 7367258
1364.8965 1006.1802 2109.7974 6380616
1375.6516 1004.9033 2107.1199 5130552
1387.7301 1004.6075 2106.4995 6512718
1417.4081 1016.9438 2132.3669 6643275
1416.324 1007.1866 2111.9075 7366742
1427.895 1006.5206 2110.5112 6512203
1440.48 1006.5749 2110.625 8551529
1458.4579 1010.3643 2118.5706 8486249
1469.7264 1009.4806 2116.7178 5196086
1487.1383 1012.7957 2123.6689 9209459
1499.9897 1012.9755 2124.0459 6906708
1512.9291 1013.2111 2124.5398 6906707
1508.5562 1001.9444 2100.9155 7301465
1540.1985 1014.5868 2127.4246 7038293
1554.7571 1015.8615 2130.0974 8749424
1581.3263 1024.9001 2149.05 8420459
1591.4646 1023.2302 2145.5483 6512462
1619.8252 1033.2097 2166.4739 7235673
1614.0754 1021.4462 2141.8076 7433310
1641.7795 1030.8717 2161.5715 6907479
1648.4825 1027.0669 2153.5933 8486510
1622.1265 1002.8817 2102.8809 6907223
1683.1832 1032.6964 2165.3975 6248780
1687.5671 1027.552 2154.6104 7367260
1714.1898 1035.9243 2172.1658 6775639
1744.2966 1046.2616 2193.8413 7959912
1767.0348 1052.0588 2205.9973 6643538
1785.0082 1054.9548 2212.0698 7038296
1782.8807 1046.0155 2193.3254 7762534
1765.4923 1028.3168 2156.2141 7828327
1777.0052 1027.5851 2154.6799 5854538
1802.8982 1035.1201 2170.4795 6512981
1815.9521 1035.2291 2170.708 6381140
1832.1671 1037.126 2174.6855 5065539
1823.6184 1025.0764 2149.4194 6973280
1851.3691 1033.4567 2166.9917 6841691
1873.2631 1038.4747 2177.5137 6907484
1884.342 1037.4696 2175.4062 7565156
1901.066 1039.5651 2179.8 7433570
1918.062 1041.7802 2184.4446 7630949
1910.1311 1030.5173 2160.8281 7959912
1924.3582 1031.2791 2162.4255 9604738
1912.5524 1018.1719 2134.9419 7170397
1935.2477 1023.4834 2146.0793 7301983
1928.1523 1013.0732 2124.2507 7696741
1924.2529 1004.4662 2106.2034 8288878
1955.6544 1014.2787 2126.7786 6183501
1963.4763 1011.8145 2121.6116 7104604
1967.3575 1007.364 2112.2795 6973017
1994.4473 1014.7782 2127.8259 7959912
1996.8461 1009.6154 2117.0002 7893863
2014.6514 1012.2581 2122.5415 6117963
2003.9288 1000.623 2098.1448 6775893
0 0 0 0
0 0 0 0
0 0 0 0
0 0 0 0
0 0 0 0
0 0 0 0
0 0 0 0
0 0 0 0
0 0 0 0
0 0 0 0
0 0 0 0
0 0 0 0
0 0 0 0
0 0 0 0
-1367.5195 774.62024 1604.3177 8096402
-1364.6392 778.40045 1612.1469 7372421
-1369.1335 786.47028 1628.8602 6714234
-1370.7959 793.01624 1642.4176 7898251
-1361.682 793.37708 1643.165 8227729
-1351.238 792.96259 1642.3066 7307138
-1345.6602 795.41858 1647.3931 7635076
-1364.0376 812.17383 1682.095 8161162
-1343.9954 806.13147 1669.5807 8095110
-1312.4645 793.0575 1642.5033 6581615
-1299.5436 791.11743 1638.485 6975599
-1290.3981 791.46356 1639.202 6579812
-1283.1855 793.00977 1642.4042 5724245
-1275.8649 794.51202 1645.5156 5131335
-1282.5668 804.8371 1666.8998 5262662
-1268.048 801.90247 1660.822 3814704
-1263.3729 805.1958 1667.6428 4867135
-1254.9856 806.15649 1669.6324 4538427
-1244.1536 805.5495 1668.3754 2235931
-1230.4734 803.07391 1663.2483 3814710
-1225.2184 806.10156 1669.5188 3354159
-1213.0717 804.60736 1666.4241 4341053
-1210.02 809.17072 1675.8752 4209979
-1212.4285 817.49103 1693.1074 2105117
-1214.3514 825.6203 1709.944 3683892
-1222.1094 837.88672 1735.3491 4868166
-1188.3427 821.65027 1701.7217 2828321
-1167.9603 814.4693 1686.8491 5131332
-1154.0603 811.72369 1681.1628 3485734
-1166.3934 827.54254 1713.9252 4209712
-1151.9927 824.50537 1707.6348 2893597
-1150.6714 830.8584 1720.7927 3617574
-1136.0549 827.63928 1714.1256 3354402
-1129.4415 830.24506 1719.5225 2960157
-1122.677 832.78632 1724.7855 5328447
-1129.9961 845.91711 1751.9808 3880999
-1108.5444 837.55396 1734.6599 4275755
-1091.2213 832.18274 1723.5355 6381134
-1085.3376 835.51636 1730.4398 4209966
-1078.1639 837.91101 1735.3993 3552292
-1065.7668 836.25323 1731.9659 3025433
-1058.5337 838.65454 1736.9393 5131063
-1051.7059 841.42737 1742.682 2038535
-1041.2551 841.32764 1742.4756 4208933
-1032.1124 842.29364 1744.4762 4340263
-1019.7922 840.65967 1741.092 3090193
-1015.0826 845.33026 1750.7654 2366734
-1008.0752 848.164 1756.6343 5392690
-994.25281 845.26312 1750.6262 3550741
-983.72992 845.13568 1750.3624 3419157
-981.77008 852.44061 1765.4916 4603690
-965.92267 847.71478 1755.704 393472
-959.36182 851.12494 1762.7668 262144
-954.7359 856.34576 1773.5796 262144
-947.78027 859.56989 1780.2572 196608
-941.66211 863.63464 1788.6757 393984
-934.38892 866.72064 1795.067 196608
-924.72656 867.63605 1796.9629 196608
-913.11011 866.71783 1795.0613 328448
-913.75244 877.55127 1817.4983 657669
-905.72131 880.21381 1823.0127 3354654
-894.47021 879.77356 1822.1011 3222551
-872.39014 868.54156 1798.8383 4472359
-852.80322 859.54425 1780.204 3814429
-842.42633 859.72076 1780.5696 3155990
-832.99878 860.88306 1782.9767 2432525
-822.29828 860.74249 1782.6857 4735535
-818.9707 868.41644 1798.5792 5262136
-811.50342 871.84515 1805.6804 2103818
-805.12469 876.55072 1815.4261 3551010
-789.49512 871.17584 1804.2942 2695445
-774.78333 866.67999 1794.9828 3879719
-771.21735 874.70026 1811.5936 2629396
-759.44336 873.50623 1809.1207 3484707
-750.55566 875.64532 1813.551 3025439
-733.05078 867.64728 1796.9861 1118220
-730.67352 877.58252 1817.5631 6841694
-718.05566 875.33142 1812.9009 4736575
-694.91766 859.99292 1781.1332 3815985
-689.92706 866.98572 1795.6161 6513242
-687.22528 877.11902 1816.6031 5723980
-678.62567 879.92749 1822.4197 2893853
-667.06708 878.92792 1820.3496 6644309
-654.87659 877.04938 1816.4589 6512201
-646.9118 880.86194 1824.3551 2893336
-634.4187 878.53326 1819.5321 4274724
-630.03754 887.55157 1838.2101 4471845
0 0 0 0
-602.72137 879.48383 1821.501 4209444
-596.13177 885.73163 1834.4408 4735788
-589.69635 892.44495 1848.3446 5788223
-574.70386 886.21686 1835.4458 1117700
-562.65485 884.37518 1831.6313 3946276
0 0 0 0
0 0 0 0
0 0 0 0
0 0 0 0
-508.72485 884.97217 1832.8678 1380873
-496.16687 881.95746 1826.624 1709320
0 0 0 0
0 0 0 0
0 0 0 0
0 0 0 0
0 0 0 0
0 0 0 0
0 0 0 0
0 0 0 0
0 0 0 0
0 0 0 0
0 0 0 0
0 0 0 0
0 0 0 0
0 0 0 0
0 0 0 0
0 0 0 0
0 0 0 0
0 0 0 0
0 0 0 0
0 0 0 0
0 0 0 0
0 0 0 0
0 0 0 0
0 0 0 0
0 0 0 0
0 0 0 0
0 0 0 0
0 0 0 0
0 0 0 0
0 0 0 0
-159.11406 873.83502 1809.8018 6117695
-149.80527 882.17645 1827.0776 5657140
-138.48169 879.02856 1820.558 7564626
-126.82915 873.08417 1808.2466 4011553
-115.70879 870.04401 1801.9502 5260333
-106.0528 878.51617 1819.4968 4996648
-96.548828 890.30804 1843.9191 4865059
-86.01516 894.40271 1852.3995 3878421
-75.311508 897.66943 1859.1653 4207642
-64.985046 907.32202 1879.1566 4931878
-54.928429 925.51373 1916.8336 4866600
-43.192844 917.52612 1900.2905 7959128
-31.875767 915.93005 1896.9847 5327409
-20.792625 922.97894 1911.5836 6380354
-9.4416895 920.78613 1907.0422 7367251
1.8653443 923.50653 1912.6765 6248770
13.299386 930.44055 1927.0376 3748122
24.489437 921.78394 1909.1089 3945502
35.762848 920.74445 1906.9559 5129774
46.903942 917.61548 1900.4756 5063983
58.368095 920.7948 1907.0602 6249022
69.624817 920.20111 1905.8306 5130800
81.035347 921.52216 1908.5667 6183748
92.729271 925.34766 1916.4896 5723196
104.1038 925.49878 1916.8026 4407342
114.48029 917.62042 1900.4856 7170646
124.46001 908.25781 1881.0948 5985857
135.52191 907.68268 1879.9037 6643785
149.01393 922.2348 1910.0426 5920067
157.28265 904.68787 1873.701 6117443
170.04926 913.62079 1892.202 8288869
182.17163 918.20129 1901.6887 8354406
193.20868 917.09644 1899.4004 7038032
208.01567 933.02264 1932.3853 7695961
216.99187 922.49841 1910.5886 4076575
230.26401 930.37567 1926.9032 4603175
241.34688 929.08087 1924.2216 3550490
252.83531 929.39368 1924.8693 1708548
265.97583 935.49017 1937.4957 591360
275.5015 928.89392 1923.8342 4735020
290.87451 941.75391 1950.4685 1774853
301.42679 938.61938 1943.9767 3484951
317.89151 953.44879 1974.6899 5524534
328.22134 949.47809 1966.4661 3616536
338.14545 944.64624 1956.459 3748122
350.90659 947.79761 1962.9857 3024400
361.58585 945.30408 1957.8213 3090707
378.60175 959.0166 1986.2213 4669737
395.10638 970.64612 2010.3074 3353622
409.24313 975.94794 2021.2881 4275236
418.43713 969.49634 2007.926 1972488
429.41974 967.43091 2003.6483 7301199
441.64761 968.20654 2005.2548 4801321
452.43311 965.8623 2000.3995 4932648
458.97031 954.80011 1977.4886 4143134
471.79022 957.03326 1982.1138 4143906
475.69803 941.51868 1949.9816 5196851
488.55151 944.02594 1955.1742 9539707
490.98196 926.7431 1919.3796 3420444
519.90912 959.12372 1986.4432 6183749
531.92072 959.55579 1987.3381 7104847
543.34161 958.9267 1986.0352 9671031
556.95422 962.11023 1992.6287 7499608
565.41858 956.45294 1980.9117 6512457
573.58514 950.53229 1968.6495 6117184
589.44653 957.34521 1982.7598 7104336
595.5802 948.40125 1964.236 7630683
621.27112 970.34637 2009.6865 5327929
632.17651 968.80707 2006.4984 6052165
644.38239 969.2807 2007.4795 7696990
659.1792 973.56384 2016.3503 6183751
673.38623 976.83905 2023.1334 6512200
680.29486 969.59747 2008.1355 4801843
686.11584 961.08142 1990.4978 9144689
700.65881 964.86401 1998.332 6841427
717.48187 971.60858 2012.3007 6972498
736.75116 981.39111 2032.5613 5920581
747.92889 980.25403 2030.2062 7434074
757.93811 977.64557 2024.8038 7302745
773.21112 981.80225 2033.4127 7565661
780.04541 975.28052 2019.9056 8881008
793.86444 977.55695 2024.6204 8618349
822.82349 998.13129 2067.2319 7039317
846.37915 1011.6435 2095.217 8485993
848.55524 999.58014 2070.2327 4867122
866.68555 1006.3868 2084.3298 5985344
871.8219 998.12549 2067.22 5392950
882.81708 996.70789 2064.2839 6182466
887.65656 988.47424 2047.2312 8945774
896.84387 985.23889 2040.5305 7301205
903.45679 979.29926 2028.2288 7695962
913.68329 977.38098 2024.256 6577733
924.71954 976.36749 2022.1569 6840904
945.85468 985.90643 2041.913 6643271
967.07104 995.2879 2061.343 6249026
972.75134 988.64545 2047.5858 6643789
986.91125 990.67865 2051.7969 7762270
997.09467 988.71924 2047.7386 4472883
1008.3171 987.82495 2045.8865 8880497
1020.9219 988.29004 2046.8497 7630430
1033.5734 988.78876 2047.8827 8485739
1040.6097 983.96667 2037.8956 6643535
1055.0947 986.21747 2042.5571 8156775
1075.1451 993.5603 2057.7649 7498845
1081.0508 987.81354 2045.8628 7695968
1118.3837 1010.5926 2093.0405 6446668
1124.9879 1005.4095 2082.3059 5261623
1136.9087 1005.0386 2081.5378 5328442
1151.3851 1006.9108 2085.4153 8092009
1174.7286 1016.4154 2105.1001 7499872
1175.5414 1006.4305 2084.4207 7762787
1189.3051 1007.626 2086.8965 7631204
1199.9967 1006.2209 2083.9863 7433823
1226.5562 1018.0143 2108.4116 9012598
1235.272 1014.9095 2101.9812 6512720
1239.9756 1008.6029 2088.9197 9012855
1250.1526 1006.8292 2085.2461 7433051
1268.2037 1011.3696 2094.6499 7893601
1272.7654 1005.1688 2081.8074 8485482
1281.8441 1002.62 2076.5286 6380621
1307.4927 1012.957 2097.9375 7894631
1309.984 1005.3276 2082.1362 9736578
1308.3337 994.69183 2060.1084 7301978
1331.3579 1002.8385 2076.9812 7959395
1349.7925 1007.4105 2086.4502 9143926
1349.467 998.02533 2067.0125 8551789
1370.2582 1004.2855 2079.978 7960164
1393.3506 1012.1058 2096.1746 8025957
1392.2583 1002.3758 2076.0227 9472633
1409.797 1006.1122 2083.7612 8156772
1406.6932 995.18018 2061.1199 7038547
1434.7242 1006.2733 2084.095 9472634
1455.4044 1012.0654 2096.0911 7630430
1461.1196 1007.4412 2086.5137 7235928
1482.2041 1013.4028 2098.8606 7630428
1471.3727 997.62531 2066.1841 7828062
1510.3597 1015.6077 2103.4272 6314823
1548.181 1032.5181 2138.4504 6906961
1551.9363 1026.619 2126.2329 8419946
1557.7203 1022.1462 2116.9692 6314828
1574.4911 1024.8965 2122.6655 6775639
1604.8184 1036.3578 2146.4028 7236188
1598.8994 1024.4156 2121.6694 6775123
1594.2198 1013.4479 2098.9543 6511951
1602.8525 1011.047 2093.9817 7301466
1611.3739 1008.6133 2088.9414 6577744
1638.6976 1017.8961 2108.167 6117195
1663.2319 1025.3188 2123.5403 6446674
1706.3757 1044.016 2162.2639 6315088
1728.6857 1049.7826 2174.2073 5130814
1739.7843 1048.7059 2171.9773 6709846
1750.859 1047.6307 2169.7505 7762534
1783.2715 1059.2457 2193.8062 8025706
1766.9805 1041.9724 2158.0315 7170398
1768.5167 1035.3845 2144.3872 5262400
1781.4609 1035.5219 2144.6716 8223085
1803.2941 1040.7874 2155.5771 7038811
1805.1403 1034.5245 2142.606 7367776
1812.6383 1031.5654 2136.4775 5525572
1833.5311 1036.2175 2146.1125 6446674
1851.3607 1039.0863 2152.054 5525829
1868.5195 1041.5419 2157.1396 7696998
1858.2992 1028.8062 2130.7627 7697255
1850.7318 1017.7013 2107.7634 8354930
1875.0015 1024.1349 2121.0879 7236191
1862.3875 1010.4708 2092.7883 9538689
1892.6738 1020.1099 2112.752 7433570
1862.687 997.34985 2065.6135 6117709
1900.887 1011.1584 2094.2124 4999228
1912.432 1010.7007 2093.2646 6973018
1927.0975 1011.8877 2095.7229 6315088
1940.7926 1012.5532 2097.1011 7038811
1996.6735 1035.0792 2143.7549 7236190
1976.4669 1018.126 2108.6431 8091756
1975.957 1011.4684 2094.8545 7630948
1987.8608 1011.2085 2094.3162 7762532
2008.7437 1015.4911 2103.186 7762788
0 0 0 0
0 0 0 0
0 0 0 0
0 0 0 0
0 0 0 0
0 0 0 0
0 0 0 0
0 0 0 0
0 0 0 0
0 0 0 0
0 0 0 0
0 0 0 0
0 0 0 0
0 0 0 0
-1378.3629 790.34528 1617.0387 8225414
-1383.3842 798.77789 1634.2916 6054758
-1366.2166 794.427 1625.3899 8094853
-1362.3668 797.81329 1632.3182 6975606
-1355.4987 799.4679 1635.7035 7173497
-1354.4875 804.62567 1646.2562 6580846
-1351.7059 808.79883 1654.7944 8094340
-1342.0775 808.90625 1655.0143 7041393
-1318.8717 800.77161 1638.3708 7435891
-1307.7712 799.92072 1636.6299 4276797
-1298.6846 800.29797 1637.4019 5197124
-1288.6089 800.06702 1636.9292 5262400
-1295.1881 810.25159 1657.7667 4341298
-1275.6211 804.11011 1645.2013 2103825
-1275.3663 810.14148 1657.5415 3617579
-1270.6646 813.4198 1664.249 1972757
-1261.4067 813.81012 1665.0475 2499357
-1252.3251 814.32104 1666.0929 986116
-1244.785 815.85059 1669.2222 5196610
-1229.4987 812.2868 1661.9308 3222567
-1219.9781 812.50543 1662.3782 2959140
-1214.3062 815.31177 1668.1198 3946291
-1209.7673 818.93127 1675.5253 2564639
-1210.3175 826.08392 1690.1597 2499360
-1208.799 831.93237 1702.1254 2236189
-1192.1953 827.40973 1692.8722 2828323
-1180.0374 825.92206 1689.8284 525824
-1169.0745 825.25244 1688.4583 4012336
-1152.1443 820.32245 1678.3717 1709582
-1146.6006 823.48444 1684.8412 2696732
-1134.1543 821.70105 1681.1923 3288867
-1133.6724 828.6311 1695.3711 1841934
-1128.6366 832.32684 1702.9325 2696988
-1135.8447 845.20007 1729.271 2368021
-1112.5449 835.3996 1709.2192 6710355
-1104.1729 836.73114 1711.9437 4802357
-1100.9371 842.01575 1722.756 4538931
-1083.0964 836.12451 1710.7026 1643785
-1077.1913 839.4231 1717.4514 1315079
-1073.1487 844.24982 1727.3269 1841422
-1061.519 843.14337 1725.063 4933175
-1054.1112 845.40106 1729.6824 3683365
-1047.951 848.71375 1736.46 2827280
-1035.8364 847.22192 1733.4077 2696469
-1018.0725 841.03326 1720.7458 3222040
-1018.7685 850.12341 1739.3442 3090453
-1007.7236 849.50201 1738.0728 6972236
-1000.2425 851.90308 1742.9852 2499087
-978.89563 842.42151 1723.5862 4209183
-979.28656 851.64441 1742.4562 4998446
-973.75916 855.8623 1751.0858 2564108
-961.10791 853.84204 1746.9525 327680
-955.27069 857.8974 1755.2496 196608
-950.55194 863.0575 1765.8071 196608
-941.64825 864.49042 1768.739 196608
-934.62244 867.6991 1775.3038 196608
-929.23438 872.51862 1785.1646 262144
-919.99292 873.78931 1787.7643 525827
-907.44574 871.91321 1783.9259 2038542
-905.17456 879.98291 1800.4364 1973004
-885.02576 870.65778 1781.3572 3880484
-877.0199 873.19751 1786.5536 3880224
-861.98651 868.71692 1777.3862 1709318
-852.45038 869.73413 1779.4675 4406568
-840.58832 868.37402 1776.6848 1117188
-820.20514 858.065 1755.5925 4340780
-816.72443 865.40094 1770.6018 2498582
-817.94031 877.96912 1796.3163 2103566
-800.48767 870.56592 1781.1693 2827289
-790.21606 870.87891 1781.8097 7498846
-788.2522 880.4801 1801.4536 5722694
-767.7027 869.29962 1778.5786 2169360
-765.84967 879.27356 1798.985 1577225
-748.76562 871.79535 1783.6847 4011822
-742.37848 876.73572 1793.7927 1644304
-733.3269 878.62738 1797.663 7696485
-716.1178 870.65686 1781.3553 5394239
-706.18555 871.42743 1782.932 4670770
-695.04504 870.70776 1781.4596 5328445
-687.24634 874.21692 1788.6392 5525827
-677.65784 875.52356 1791.3126 3289124
-673.23505 883.65198 1807.9434 5656901
-665.35919 887.43787 1815.6891 3879975
-653.32404 885.70935 1812.1526 4340522
-632.86871 872.31708 1784.7522 4472106
-618.03101 866.34424 1772.5319 3551004
-619.09766 882.84473 1806.2917 1643526
-613.30457 889.97174 1820.8734 3814174
-600.5365 887.05127 1814.8982 3287830
-592.71857 891.4693 1823.9375 3156500
0 0 0 0
-570.09857 889.90533 1820.7377 2432524
-559.41034 890.0675 1821.0693 2959126
0 0 0 0
0 0 0 0
-510.41595 862.00226 1763.6481 5130549
-505.362 871.30872 1782.6891 2433292
-494.59579 870.95374 1781.9626 3288348
0 0 0 0
0 0 0 0
0 0 0 0
0 0 0 0
0 0 0 0
0 0 0 0
0 0 0 0
0 0 0 0
0 0 0 0
0 0 0 0
0 0 0 0
0 0 0 0
0 0 0 0
0 0 0 0
0 0 0 0
0 0 0 0
0 0 0 0
0 0 0 0
0 0 0 0
0 0 0 0
0 0 0 0
0 0 0 0
0 0 0 0
0 0 0 0
0 0 0 0
0 0 0 0
0 0 0 0
0 0 0 0
0 0 0 0
0 0 0 0
-170.31894 887.05829 1814.9126 4998959
-158.96651 883.74017 1808.1237 1841163
-147.58122 879.74646 1799.9526 7894105
-136.82422 879.16742 1798.7679 3879455
-125.36213 873.57733 1787.3307 4076571
-114.34939 870.37561 1780.7799 4801840
-104.21149 873.85876 1787.9065 5788731
-93.535912 873.11139 1786.3774 3090198
-83.47258 878.6178 1797.6433 4866601
-73.444992 886.16638 1813.0876 3813144
-63.262455 894.11224 1829.3448 4998188
-53.45747 911.7843 1865.5017 1972487
-42.509171 914.08655 1870.212 7564115
-31.864178 926.83484 1896.295 5130028
-20.625235 926.78564 1896.1943 5787960
-9.3726006 925.26727 1893.0876 3485211
1.8415829 922.93317 1888.3121 4603428
13.142369 930.74066 1904.2864 5787958
24.51215 933.96307 1910.8793 4999215
35.715561 930.81311 1904.4344 3880222
47.10004 932.76172 1908.4213 7301713
58.218395 929.70593 1902.1692 6381380
69.884293 934.96692 1912.9331 6512706
81.46357 937.76221 1918.6523 5986107
92.44873 933.87128 1910.6915 4735788
103.24438 929.12402 1900.9786 7367509
113.96484 924.70087 1891.9288 5656892
124.0821 916.61395 1875.3832 4669998
136.07669 922.58484 1887.5995 5261880
146.6757 918.90546 1880.0715 6709325
157.40259 916.49005 1875.1298 7038547
168.70985 917.54974 1877.2979 5919809
179.32018 914.92249 1871.9224 7301206
192.3777 924.35992 1891.2312 4472106
204.3139 927.66693 1897.9974 7103823
214.98204 925.17181 1892.8925 5195568
223.30124 913.31677 1868.6371 5853498
238.20439 928.23853 1899.1669 4406567
251.39433 935.43896 1913.8989 2893847
262.78699 935.61859 1914.2665 3157531
275.13217 939.03448 1921.2554 1052165
284.30716 931.78888 1906.4309 5788994
301.77072 951.22388 1946.1947 4735534
312.13287 947.66742 1938.9182 1906183
326.88339 957.21393 1958.4502 3222038
336.00232 950.18005 1944.0591 4603431
346.53665 947.4826 1938.5402 2432521
358.03436 947.50781 1938.5917 5063979
373.51257 957.73798 1959.5225 4209183
390.71997 971.65137 1987.9891 4735267
398.23157 961.34436 1966.9011 6710343
415.21127 973.82983 1992.4462 3815453
424.14587 967.27771 1979.0406 3748887
436.71637 969.14679 1982.8649 4669734
451.94153 976.65485 1998.2263 4801064
454.26373 956.60785 1957.2102 4472099
466.15039 957.19879 1958.4193 7104592
474.32101 950.31586 1944.3369 2103563
485.74869 950.13031 1943.9573 8222563
492.55869 941.13037 1925.5435 6447181
509.51022 951.47656 1946.7117 5328698
524.39465 957.59003 1959.2197 4670509
546.50464 976.34723 1997.5968 7302232
548.4104 958.97882 1962.0612 6578511
560.97595 960.58502 1965.3474 4406570
570.94672 957.77289 1959.594 6314564
581.44324 955.93738 1955.8385 6906957
596.68304 961.81952 1967.8733 3880222
606.28949 958.56952 1961.2239 4932654
628.94653 975.68732 1996.2467 6117956
637.83557 971.20892 1987.0839 9012849
651.8432 974.54547 1993.9105 8289383
665.76544 977.63788 2000.2374 5460286
667.05493 962.39612 1969.053 5196853
678.93872 962.70062 1969.676 8222819
693.6297 966.90796 1978.2843 7367255
717.79779 983.96698 2013.1868 6511948
731.28046 986.05975 2017.4686 4143145
743.27759 986.1145 2017.5804 3222046
752.4433 982.47034 2010.1246 4735278
763.12646 980.89026 2006.8918 6840906
777.32019 983.80176 2012.8488 7301459
786.177 979.97278 2005.0148 5985602
798.41687 980.41205 2005.9135 5919809
823.72418 996.64917 2039.1344 6116932
846.44019 1009.3268 2065.0728 6709069
851.38147 1000.7499 2047.5244 6116931
858.00427 994.36267 2034.4563 4011555
875.52673 1000.6093 2047.2369 5458745
881.22308 993.35443 2032.3934 7761245
893.29681 993.38702 2032.4602 6709068
906.36365 994.50848 2034.7546 8353893
904.52106 979.45593 2003.9572 6906956
931.83826 995.95978 2037.7239 7893594
937.34015 989.02325 2023.5317 7827800
953.48993 993.35498 2032.3945 7433553
970.31677 998.27515 2042.4612 6972748
982.64355 998.50146 2042.9242 4802097
991.8382 995.57837 2036.9435 9801852
1003.289 994.96295 2035.6844 6051398
1014.021 993.65778 2033.0142 8814704
1026.5514 994.12494 2033.9698 2695956
1034.3988 990.09863 2025.7321 6643535
1032.5077 976.95032 1998.8308 6512204
1052.7303 984.78693 2014.8644 7170134
1073.5708 993.01904 2031.7073 7630684
1086.7848 994.09265 2033.9037 7564893
1108.4724 1002.8085 2051.7363 8156776
1118.5785 1000.9713 2047.9775 8289132
1136.1501 1005.7827 2057.8215 4868153
1153.3958 1010.2061 2066.8718 9209976
1166.5684 1011.0068 2068.51 6380106
1169.579 1003.0756 2052.2827 7564895
1178.6085 1000.4164 2046.8423 6841172
1182.1475 993.19861 2032.0746 5920327
1211.2089 1007.353 2061.0344 7762531
1225.1108 1008.7428 2063.8779 7828582
1231.3855 1003.887 2053.9429 7235418
1248.4607 1007.8451 2062.041 7630429
1258.5123 1006.1115 2058.4941 7630430
1255.095 993.74689 2033.1964 9012083
1268.5913 994.88177 2035.5183 9012084
1282.5109 996.32416 2038.4694 9275511
1291.1575 993.6814 2033.0625 8551789
1314.7922 1002.516 2051.1379 8881010
1333.5073 1007.4718 2061.2773 7762529
1338.6562 1002.1813 2050.4531 8025442
1352.7354 1003.6115 2053.3794 8025440
1359.8917 999.92596 2045.8387 8288612
1360.7454 991.71198 2029.033 5459515
1387.2493 1002.1723 2050.4346 8946544
1399.5852 1002.3044 2050.7051 7959649
1413.1926 1003.3371 2052.8179 7827809
1417.6459 997.90839 2041.7107 8090981
1447.2202 1010.1051 2066.665 6775121
1450.9082 1004.181 2054.5444 5525054
1452.2869 996.77057 2039.3827 7696994
1469.1724 1000.0375 2046.0669 7236441
1504.8923 1015.9664 2078.6572 8486509
1537.0687 1029.2638 2105.8635 8551532
1543.9647 1025.5548 2098.2751 8157031
1563.3452 1030.1315 2107.6389 8156776
1573.575 1028.6538 2104.6155 6051147
1586.6941 1029.0732 2105.4736 5262657
1576.9048 1014.7444 2076.1572 5328450
1572.189 1003.8771 2053.9226 8946294
1593.0208 1009.364 2065.1489 5196092
1602.3136 1007.5119 2061.3594 8091498
1636.5002 1021.2221 2089.4104 5131070
1663.7466 1030.428 2108.2456 6249551
1692.1987 1040.2379 2128.3167 5920330
1707.5276 1041.8954 2131.7075 4144178
1711.4387 1036.6124 2120.8989 6183502
1718.4463 1033.2686 2114.0574 6380881
1728.8859 1032.0217 2111.5063 6841432
1754.3324 1039.6865 2127.1885 6907482
1754.9607 1032.6385 2112.7683 6775895
1763.8182 1030.4984 2108.3896 7038811
1783.1519 1034.4658 2116.5068 7432286
1790.7874 1031.6388 2110.7229 3880233
1816.088 1038.957 2125.6958 5788487
1813.9617 1030.5917 2108.5806 2103310
1832.8253 1034.1848 2115.9319 7302497
1794.6831 1005.7816 2057.8193 7631202
1829.7898 1018.5352 2083.9131 7433826
1851.8191 1023.887 2094.8628 8223086
1829.8262 1004.9896 2056.1987 8092012
1825.5133 995.98822 2037.782 5789001
1844.5645 999.76855 2045.5167 7631205
1875.97 1010.1521 2066.7612 8486000
1883.5876 1007.6749 2061.6929 7696485
1906.8757 1013.559 2073.7317 6709846
1937.1091 1023.0356 2093.1208 6315088
1959.239 1028.1394 2103.563 7696741
1959.1312 1021.5827 2090.1482 9999496
1970.3651 1020.9854 2088.926 6841945
1976.6062 1017.8245 2082.459 7236702
1963.7322 1004.921 2056.0583 8420208
0 0 0 0
0 0 0 0
0 0 0 0
0 0 0 0
0 0 0 0
0 0 0 0
0 0 0 0
0 0 0 0
0 0 0 0
0 0 0 0
0 0 0 0
0 0 0 0
0 0 0 0
0 0 0 0
-1372.757 796.6748 1610.462 5526863
-1375.8678 804.07043 1625.4121 4802630
-1361.0817 801.03735 1619.2809 4473667
-1354.7131 802.95038 1623.1479 6579045
-1353.9111 808.21381 1633.7878 3618103
-1349.4594 811.35852 1640.1448 6447714
-1341.2394 812.26691 1641.9811 4145726
-1327.0369 809.53888 1636.4666 5132105
-1314.1428 807.57489 1632.4963 5395273
-1291.0511 799.26855 1615.7053 3749932
-1284.1075 800.90973 1619.0229 3157282
-1273.1379 800.04584 1617.2764 3486248
-1271.8219 805.28107 1627.8594 3157286
-1269.2218 809.77704 1636.948 3683886
-1262.0048 811.37396 1640.176 2762013
-1253.811 812.36298 1642.1753 3025187
-1244.8541 812.86902 1643.1982 2103829
-1246.2617 820.2041 1658.0261 2433306
-1235.2747 819.43378 1656.4689 5525576
-1229.7678 822.31561 1662.2944 3946032
-1211.4159 816.58551 1650.7111 3025188
-1206.4727 819.87402 1657.3588 394244
-1206.8378 826.85358 1671.4678 2763041
-1194.4066 825.10883 1667.9408 3618093
-1193.2098 831.16046 1680.1741 4341303
-1178.418 827.7644 1673.309 2565148
-1158.1803 820.45276 1658.5287 2565147
-1162.0371 830.23053 1678.2943 789255
-1150.5885 829.14771 1676.1053 4670776
-1140.9305 829.3476 1676.5095 3289121
-1146.2854 840.55975 1699.1746 2565399
-1136.756 840.95947 1699.9827 3025692
-1122.2458 837.64868 1693.2899 3157277
-1118.8108 842.6192 1703.3376 3881000
-1104.4569 839.38202 1696.7937 3091484
-1096.1259 840.70453 1699.4673 3552548
-1091.6704 845.05188 1708.2554 1381129
-1084.1995 847.12439 1712.4449 2235666
-1075.8326 848.52948 1715.2852 3419940
-1065.3096 848.24445 1714.7091 591877
-1058.7104 851.10858 1720.4988 5131068
-1043.8374 847.31207 1712.8242 1841675
-1031.0631 845.16144 1708.4767 5065015
-1020.4455 844.75348 1707.652 1183495
-1013.2817 847.22516 1712.6484 5657148
-1008.9235 852.11639 1722.536 3879963
-1005.6923 858.06909 1734.5693 6643268
-997.72076 860.05865 1738.5911 4800554
-984.94971 857.90912 1734.2458 854016
-976.79364 859.77643 1738.0206 3287833
-968.90991 861.92578 1742.3656 2497807
-957.59808 861.03894 1740.5729 393216
-948.28253 861.94745 1742.4093 262144
-939.93939 863.76953 1746.0927 460035
-934.01019 867.87512 1754.3921 65536
-924.06287 868.29767 1755.2461 131072
-917.42181 871.87183 1762.4712 196608
-916.60608 881.12817 1781.1827 2631195
-904.83362 879.94476 1778.7906 3354655
-879.36475 865.25696 1749.0995 2170379
-887.51239 883.69037 1786.3622 5065520
-869.97559 876.6864 1772.2037 5130285
-856.95563 874.11841 1767.0127 3946272
-850.61792 878.38733 1775.6422 7234898
-838.28973 876.49969 1771.8264 1643527
-824.89703 873.43707 1765.6354 3090202
-810.38324 869.09344 1756.8547 2563602
-804.90393 874.45166 1767.6864 3090202
-800.24298 880.85217 1780.6249 1511176
-792.64917 884.15222 1787.2958 2498579
-778.05701 879.6297 1778.1537 2366740
-762.79968 874.22083 1767.2196 328448
-752.24585 874.12671 1767.0295 3353378
-742.55267 875.04425 1768.8843 2959132
-736.02533 879.77228 1778.4419 1710099
-728.13245 882.98169 1784.9296 5130038
-711.84064 875.95044 1770.7161 6051136
-702.05408 876.83344 1772.5011 5393721
-687.1275 871.2262 1761.1661 5459772
-686.21252 883.48578 1785.9486 3420448
-677.09192 885.39923 1789.8167 3880488
-673.58612 894.8327 1808.8862 3485474
-657.44727 887.5174 1794.0984 3617055
-651.48938 893.93109 1807.0637 2695439
-640.1618 893.06812 1805.3192 5656635
-622.10376 882.62695 1784.2125 4077603
-610.64307 881.34662 1781.6244 1577735
-611.60199 898.26196 1815.8184 3485211
0 0 0 0
0 0 0 0
-571.63812 886.35211 1791.7429 3880483
-567.63263 896.79956 1812.8622 5196857
0 0 0 0
0 0 0 0
0 0 0 0
0 0 0 0
0 0 0 0
0 0 0 0
0 0 0 0
0 0 0 0
0 0 0 0
0 0 0 0
0 0 0 0
0 0 0 0
0 0 0 0
0 0 0 0
0 0 0 0
0 0 0 0
0 0 0 0
0 0 0 0
0 0 0 0
0 0 0 0
0 0 0 0
0 0 0 0
0 0 0 0
0 0 0 0
0 0 0 0
0 0 0 0
0 0 0 0
0 0 0 0
0 0 0 0
0 0 0 0
0 0 0 0
0 0 0 0
0 0 0 0
0 0 0 0
0 0 0 0
-178.02011 882.66937 1784.2983 5524791
-167.91251 885.12866 1789.2697 8025181
-156.44724 880.28027 1779.4688 3485723
