# .PCD v0.7 - Point Cloud Data file format
VERSION 0.7
FIELDS x y z rgb
SIZE 4 4 4 4
TYPE F F F U
COUNT 1 1 1 1
WIDTH 1349
HEIGHT 1
VIEWPOINT 0 0 0 1 0 0 0
POINTS 1349
DATA ascii
374.73898 950.0531 2096.3052 3813656
379.06635 930.18695 2052.4702 2629392
392.99414 934.38208 2061.7268 1905155
409.02899 943.18274 2081.1458 4141854
424.57883 950.38275 2097.0325 2234888
433.94955 943.73499 2082.3643 4077090
449.07135 949.61639 2095.3416 4143395
461.20642 949.03534 2094.0596 6051133
471.11234 944.01801 2082.9885 5196590
478.55075 934.43866 2061.8516 4472867
495.60022 943.63605 2082.1458 11776150
504.70465 937.62646 2068.8857 7433554
517.00879 937.70526 2069.0596 7695956
529.39105 937.91901 2069.531 8353886
540.65924 936.19391 2065.7246 8025177
551.48718 933.7995 2060.4414 9012073
560.88141 929.13403 2050.147 8485981
572.30975 927.9646 2047.5667 7695955
588.89105 935.02533 2063.1462 8222041
609.84296 948.59735 2093.093 6708546
612.5968 933.8858 2060.6318 6182202
617.14069 922.4248 2035.3429 5984566
617.15253 904.75916 1996.3635 5918517
634.8327 913.1731 2014.929 7760721
654.74768 924.43158 2039.771 5260585
665.27338 922.26562 2034.9918 8287321
678.28296 923.55884 2037.8452 5655601
691.67212 925.3147 2041.7196 5128744
705.86108 928.06165 2047.7808 6247226
739.46094 955.80579 2108.9985 4470815
744.04559 945.74677 2086.8032 4470814
749.32996 936.89154 2067.2639 6511164
759.77985 934.67566 2062.3748 7629390
767.30481 928.98883 2049.8267 6379581
783.9718 934.37518 2061.7117 5984822
793.59631 931.33142 2054.9956 7234888
811.86816 938.37439 2070.5359 5524012
803.29669 914.64362 2018.1736 6313784
822.57129 922.84973 2036.2805 2958092
843.57709 932.73279 2058.0876 6906178
838.04089 913.40521 2015.441 7102787
862.97931 927.36932 2046.2531 6116148
858.58929 909.86621 2007.6323 7498059
882.89191 922.83234 2036.2422 8024149
894.70135 922.56659 2035.6558 6510912
909.4765 925.32526 2041.7428 6839620
917.38806 921.12006 2032.464 6445891
925.00745 916.73407 2022.7864 9472118
951.13196 930.56549 2053.3054 6971729
980.64429 947.32019 2090.2749 4340526
992.6662 946.97137 2089.5054 6182988
1008.3689 950.09949 2096.4075 6906707
1024.8486 953.87457 2104.7373 8814700
1048.8798 964.50269 2128.1885 8156510
1053.1149 956.89117 2111.3936 7432531
1066.7367 957.88727 2113.5913 7432528
1078.011 956.77667 2111.1409 6774595
1081.2345 948.62823 2093.1611 8484698
1092.0005 947.20685 2090.0249 8550235
1104.5698 947.3642 2090.3721 6971465
1118.4156 948.60065 2093.1003 7958876
1126.4174 944.90765 2084.9517 8222048
1134.7106 941.53656 2077.5134 8748393
1145.66 940.41827 2075.0459 6445634
1160.7823 942.71277 2080.1086 6840649
1178.7115 947.2146 2090.042 4801584
1190.8245 946.99738 2089.5627 8222561
1200.8998 945.18091 2085.5547 8552038
1231.6484 959.5069 2117.165 7433301
1238.3164 954.97327 2107.1616 5590841
1249.1772 953.73126 2104.4211 11051658
1258.1628 951.09637 2098.6072 8354915
1281.7096 959.41272 2116.9573 6775626
1292.1626 957.86145 2113.5344 7762266
1300.5889 954.85211 2106.8943 10065023
1316.209 957.13129 2111.9233 9670267
1325.9207 955.11151 2107.4666 9078127
1336.224 953.55151 2104.0244 7499095
1348.9476 953.73163 2104.4219 8946283
1358.6903 951.82013 2100.2041 9735542
1368.3575 949.89093 2095.9475 9932664
1384.527 952.46967 2101.6375 9143147
1400.009 954.53369 2106.1917 8549981
1417.8379 958.14709 2114.1648 9866351
1429.4608 957.54022 2112.8257 7103827
1445.1992 959.6767 2117.5398 6772025
1447.3511 952.83191 2102.4368 6181437
1461.7694 954.11041 2105.2578 6970947
1478.8619 957.09808 2111.8501 5392688
1482.9436 951.68579 2099.9077 6115642
1487.4923 946.66083 2088.8201 6444607
1504.4982 949.58124 2095.2639 6576451
1510.9741 945.86212 2087.0579 7694934
1523.9102 946.21466 2087.8357 5063470
1539.6775 948.3053 2092.4487 7761500
1555.9508 950.67175 2097.6702 6840396
1572.6692 953.27026 2103.4041 6511689
1582.53 951.7041 2099.9482 8090719
1583.8469 945.06433 2085.2974 8551270
1589.8535 941.30377 2076.9998 7827805
1597.165 938.3678 2070.5215 9603959
1600.3572 933.07489 2058.8425 7169615
1645.2129 951.96979 2100.5344 8025182
1671.0933 959.68365 2117.5552 7827804
1706.8854 972.93225 2146.7883 7958621
1708.7122 966.7677 2133.1863 9208945
1730.5508 971.93304 2144.5835 8814700
1749.7113 975.52991 2152.52 7959390
1727.6428 956.25421 2109.988 9143408
1773.2886 974.46631 2150.1733 9209201
1795.8005 979.79669 2161.9348 4801071
1807.1931 979.02777 2160.238 8682860
1813.4185 975.48987 2152.4319 6577998
1833.6261 979.47052 2161.2151 7564637
1822.4501 966.7478 2133.1423 8354154
1827.2542 962.61896 2124.032 6973016
1849.3434 967.59045 2135.0015 9144181
1844.1714 958.32794 2114.5637 9275257
1844.4602 952.00891 2100.6208 8618096
1864.4767 955.88885 2109.1819 8354411
1898.0168 966.60419 2132.8254 7038295
1914.4426 968.51971 2137.052 7696738
1909.8141 959.82849 2117.8748 7631202
1954.8433 976.0448 2153.6562 7170395
1988.6663 986.4917 2176.7075 7499360
1982.8267 977.25592 2156.3286 6972245
2013.8577 986.19403 2176.0505 7564638
2009.718 977.90472 2157.7603 7367772
2019.8804 976.63556 2154.9597 7433822
2005.3846 963.53479 2126.0527 10196100
2012.4624 960.89832 2120.2354 7433820
2047.6895 971.65173 2143.9629 7828322
0 0 0 0
0 0 0 0
0 0 0 0
0 0 0 0
0 0 0 0
0 0 0 0
0 0 0 0
0 0 0 0
0 0 0 0
0 0 0 0
0 0 0 0
0 0 0 0
-1653.1705 878.23926 1912.8342 8556180
0 0 0 0
-1578.8412 850.41473 1852.2316 7898507
-1547.2739 839.2464 1827.9065 7964555
0 0 0 0
-1474.5259 811.14545 1766.7017 8819863
-1450.25 803.49634 1750.0416 8491155
-1544.307 861.77039 1876.9645 8491155
-1507.4581 847.31055 1845.4705 8161675
-1479.5715 837.71368 1824.5682 8818575
-1477.2875 842.57819 1835.1631 6712680
-1459.3928 838.5451 1826.379 6317662
-1443.0563 835.35364 1819.428 5001804
-1428.1866 832.96985 1814.2358 5922138
-1438.9092 845.58936 1841.7216 3093300
-1432.3239 848.15277 1847.3049 5133655
-1430.7993 853.77557 1859.5515 8160904
-1426.4355 857.77832 1868.2697 9216423
-1421.5708 861.53998 1876.4628 6253934
-1467.8162 896.58051 1952.7821 1316633
-1420.8923 874.81549 1905.3771 1777955
-1418.0085 880.03351 1916.7422 5922402
-1441.6235 901.91418 1964.3989 6777970
-1444.6375 911.15741 1984.5311 5528419
-1410.5833 896.98126 1953.6549 7041914
-1379.9567 884.76801 1927.054 7502464
-1359.1281 878.6853 1913.8057 7437440
-1347.2375 878.32751 1913.0264 8095370
-1312.2386 862.77014 1879.1421 8227470
-1305.4249 865.63647 1885.385 7174007
-1289.9198 862.73914 1879.0745 8686471
-1286.2367 867.76727 1890.0258 7303783
-1275.562 868.12512 1890.8054 6579798
-1267.7595 870.46155 1895.8942 5065783
-1259.1421 872.27527 1899.8444 6973519
-1248.4222 872.6521 1900.6652 5920065
-1231.094 868.37433 1891.3481 8485219
-1217.1251 866.40942 1887.0684 2366476
-1201.7169 863.3739 1880.457 5327413
-1187.4456 861.10602 1875.5175 5656893
-1181.5974 864.9613 1883.9144 5196857
-1177.4086 870.11633 1895.1422 5723713
-1161.379 866.53607 1887.3444 3354909
-1156.5463 871.32147 1897.7672 3618081
-1132.5715 861.63824 1876.6768 5986890
-1134.0588 871.32593 1897.7769 5394239
-1123.1058 871.55383 1898.2731 4275505
-1117.3037 875.82391 1907.5735 2893596
-1102.4393 873.00513 1901.434 3157023
-1089.3639 871.5592 1898.2849 3946540
-1077.0067 870.66388 1896.3348 4603955
-1064.4349 869.5744 1893.9618 1906444
-1056.6901 872.4469 1900.2184 1577738
-1033.188 862.23132 1877.9685 2235668
-1032.4268 870.97797 1897.0189 3946796
-1027.3239 876.21436 1908.4238 1512716
-1020.3167 879.9248 1916.5054 2565139
-1014.6411 884.88013 1927.2983 5459774
-999.88965 881.94312 1920.9014 1446410
-979.81281 874.18707 1904.0084 2564887
-970.73029 876.17371 1908.3353 3353881
-960.68109 877.3244 1910.8416 6381128
-951.25549 879.0788 1914.6627 4407847
-939.47186 878.67017 1913.7727 5197112
-929.21808 879.69989 1916.0154 4144170
-921.47192 883.15826 1923.5481 4143659
-906.26404 879.46246 1915.4984 4407089
-894.01141 878.57703 1913.5698 4078381
-881.15283 877.06567 1910.2782 2302226
-869.90057 877.13477 1910.4286 3552037
-863.96057 882.63269 1922.4032 4209707
-854.16846 884.28955 1926.0118 3749156
-838.53363 879.8606 1916.3656 1840649
-828.24072 880.99231 1918.8304 1906184
-818.59735 882.85596 1922.8895 4208677
-813.90009 890.18195 1938.8458 3682592
-793.65234 880.46631 1917.6847 2630160
-779.62671 877.47125 1911.1615 4737083
-780.08807 890.93353 1940.4828 1578763
-767.4353 889.5968 1937.5714 2959389
-760.88519 895.40118 1950.2135 1907216
-747.53131 893.25452 1945.538 7039061
-726.13208 881.27612 1919.4487 4274728
-723.4278 891.9671 1942.7339 3353623
-706.71826 885.45636 1928.5533 5326898
-696.25806 886.69012 1931.2405 3879964
-686.01318 888.24396 1934.6248 9209197
-677.10382 891.60913 1941.9543 4208405
-667.1842 893.73749 1946.59 4931875
-655.19299 893.11688 1945.2383 4010781
-640.87811 889.24976 1936.8156 459264
-636.93921 899.90143 1960.0151 393216
-626.63135 901.78314 1964.1136 327680
-614.45569 900.99738 1962.4022 262144
-604.49744 903.49536 1967.8429 327936
-591.4057 901.31628 1963.0968 656128
-578.77496 899.7663 1959.7208 393984
-569.4975 903.47272 1967.7935 657667
-554.31683 897.77307 1955.3795 2958868
-537.04309 888.36786 1934.8948 3879964
-522.25702 882.75708 1922.6741 5195567
-509.15347 879.80328 1916.2407 6445633
-496.73792 877.93073 1912.1622 6116673
-493.90741 893.30676 1945.6517 2892815
0 0 0 0
0 0 0 0
0 0 0 0
0 0 0 0
0 0 0 0
0 0 0 0
-411.259 889.12128 1936.5356 6446408
-399.5705 888.64929 1935.5077 7434338
-388.90729 890.49713 1939.5323 5526344
-384.29251 906.72876 1974.8853 592392
-375.27264 913.25983 1989.1102 1118477
-361.98853 909.50055 1980.9224 3092006
-352.14014 914.41101 1991.6174 3750443
-346.04401 929.74329 2025.0118 4276014
-329.11407 916.02368 1995.13 3353884
-315.02734 909.48993 1980.8992 3090967
0 0 0 0
0 0 0 0
0 0 0 0
0 0 0 0
0 0 0 0
0 0 0 0
0 0 0 0
0 0 0 0
0 0 0 0
0 0 0 0
-182.72578 893.98065 1947.1195 6445893
-173.64471 906.81683 1975.077 1840391
-163.01317 912.82629 1988.166 1380097
-151.57512 914.90417 1992.6915 1380611
-139.86288 915.53839 1994.0729 6380354
-127.35639 910.61053 1983.34 5985599
-116.24409 915.66284 1994.3439 2629903
-104.49245 916.25269 1995.6287 5525049
-92.302719 912.66138 1987.8066 5458738
-80.554695 913.02563 1988.6002 4271384
-68.64814 911.41022 1985.0815 6243628
-56.213715 900.66864 1961.6863 5519647
-44.497341 898.83051 1957.6826 5125662
-32.977116 901.05518 1962.528 5653290
-21.412672 903.8374 1968.5879 3680277
-9.6907816 898.67969 1957.3541 3812631
1.9015558 895.21442 1949.8068 3221527
13.563164 902.30865 1965.2581 6116410
25.716692 920.4549 2004.7812 4734760
38.227386 935.87683 2038.3707 4997932
50.259838 934.99561 2036.4514 5458739
62.88765 943.38678 2054.7275 4932141
74.317055 933.99426 2034.2704 7761747
87.382248 944.91235 2058.0505 8156505
99.095871 940.33087 2048.0718 6511682
111.1078 939.271 2045.7634 6709320
123.14777 938.6333 2044.3744 5854270
133.32906 925.21191 2015.1422 7762011
145.67906 927.80933 2020.7996 4801062
158.81197 934.61969 2035.6327 7695693
170.01422 929.90851 2025.3715 7498058
180.22983 920.77795 2005.4849 8485464
191.42067 917.45135 1998.2394 8025432
204.81653 924.4649 2013.5151 3090969
217.24672 926.58752 2018.1383 5854009
229.82172 929.07404 2023.554 328192
241.0365 926.08783 2017.05 6314821
251.9433 922.25647 2008.7051 2893847
263.99026 922.7561 2009.7935 4996645
275.43805 921.20862 2006.423 3351827
287.73438 922.5097 2009.2568 4207129
298.69604 919.59857 2002.9161 7497288
310.98624 920.84363 2005.6279 7300165
323.54492 922.76282 2009.8079 7103299
335.48325 922.83917 2009.9744 5063460
352.31659 935.9137 2038.4512 4142616
360.77435 926.60962 2018.1865 4734751
370.4429 920.91272 2005.7783 6643013
384.56097 926.28741 2017.4847 4274460
399.49963 933.25507 2032.6604 4668707
413.51761 937.72687 2042.4001 3222032
425.20297 936.80511 2040.3926 5656120
441.64212 946.11829 2060.677 5525044
456.18878 950.98517 2071.2773 4670249
467.15652 948.33191 2065.4983 6446919
476.55518 942.71008 2053.2537 5657403
488.82834 942.91272 2053.6953 8156771
500.05832 941.1424 2049.8394 7367252
511.52109 939.88379 2047.098 7696214
524.24518 940.94739 2049.4146 7103820
537.19 942.34985 2052.4692 6709059
548.61414 941.08185 2049.7075 5327150
554.72687 930.95502 2027.651 8353627
571.01208 937.96735 2042.9238 6577215
577.83215 929.46338 2024.4021 8287321
599.56781 944.80969 2057.8269 2695186
597.75909 923.18219 2010.7213 4866859
612.42273 927.34271 2019.7832 9604722
615.90369 914.73535 1992.3239 5524528
630.13452 918.26758 2000.0172 8484956
642.38928 918.8429 2001.2703 5721648
659.10944 925.6687 2016.1371 8155989
669.1026 922.97205 2010.2638 6247737
684.31195 927.43921 2019.9934 7431755
703.81268 937.46881 2041.8381 6643008
718.72443 941.15027 2049.8564 6116407
729.58942 939.49823 2046.2583 5786927
733.78015 929.44629 2024.3649 8024402
749.93945 934.63391 2035.6637 4997416
755.07172 926.13214 2017.1464 8222298
771.69678 931.77203 2029.4303 6709059
780.06348 927.42041 2019.9524 8156502
788.55426 923.34576 2011.0776 5919540
787.59589 908.49274 1978.7273 6708541
793.9386 902.37384 1965.4001 6642750
821.89502 920.64233 2005.1895 6642750
832.53723 919.27209 2002.205 6642750
842.97955 917.72272 1998.8306 6445370
847.17542 909.51019 1980.9434 7827023
874.16913 925.6629 2016.1246 6642240
893.83807 933.72852 2033.6917 6051131
893.45544 920.91168 2005.7762 8682854
909.08936 924.72345 2014.0782 4735788
923.09393 926.80042 2018.6019 8617323
942.50549 934.18353 2034.6827 3879463
961.2215 940.6994 2048.8745 5854021
974.16095 941.47009 2050.553 5722434
989.69592 944.69922 2057.5862 5261624
1021.17 962.87909 2097.1826 7103569
1027.4968 957.19501 2084.8025 7432273
1040.3708 957.67273 2085.843 7959130
1041.4106 947.37372 2063.4114 6972238
1076.0919 967.56219 2107.3826 7827291
1082.2356 961.92249 2095.0991 9077870
1088.6211 956.62323 2083.5571 8090459
1090.6002 947.61407 2063.9348 4932649
1105.4904 949.89874 2068.9109 7892824
1127.1356 957.87396 2086.2812 8551015
1133.709 953.00647 2075.6797 5261108
1135.4362 944.21344 2056.5283 7893597
1151.5328 947.42993 2063.5337 7038543
1164.6643 948.16467 2065.134 4538923
1172.5768 944.67932 2057.543 8419936
1176.422 938.02289 2043.0449 8354399
1205.4923 951.41046 2072.2036 7499090
1227.5587 959.05615 2088.856 8091231
1219.9608 943.60455 2055.2019 11183500
1233.4629 944.61737 2057.408 9341553
1244.0258 943.38147 2054.7161 9604724
1259.4133 945.79272 2059.9678 8354401
1274.079 947.62073 2063.9495 10657413
1295.8757 954.6676 2079.2976 9341555
1294.6815 944.80365 2057.8137 8485990
1309.9803 947.04767 2062.7012 8946284
1317.0365 943.34601 2054.6389 9406065
1345.1191 954.63483 2079.2263 9274734
1371.516 964.53326 2100.7854 10985609
1378.6858 960.85352 2092.7708 8090975
1398.6073 966.04718 2104.0828 6709322
1417.6238 970.52954 2113.8455 10852485
1412.3872 958.47479 2087.5898 4339748
1417.3369 953.48199 2076.7153 7430214
1419.1097 946.45624 2061.4131 4405284
1438.3397 951.09399 2071.5142 7301195
1476.4381 968.02423 2108.3889 5458225
1480.1105 962.28839 2095.896 5655089
1491.3228 961.50922 2094.199 5786423
1502.139 960.48969 2091.9785 5721144
1516.4536 961.70551 2094.6265 6313281
1522.7192 957.83856 2086.2041 7695448
1543.0258 962.7948 2096.999 8616803
1556.3143 963.32788 2098.1602 7037518
1557.892 956.66119 2083.6399 4472105
1573.6633 958.74683 2088.1824 8090721
1569.6642 948.84888 2066.6243 5590587
1592.595 955.25696 2080.5813 8485479
1585.5236 943.70911 2055.4297 8222307
1597.3588 943.505 2054.9851 7169619
1620.5514 949.96149 2069.0476 8024929
1636.4741 952.09155 2073.687 7301206
1645.8411 950.40411 2070.0117 7103826
1673.9834 959.50348 2089.8303 9011821
1690.1757 961.6698 2094.5486 7630170
1709.9747 965.8418 2103.6355 9340531
1725.0034 967.27844 2106.7646 6905679
1754.4683 976.73126 2127.353 6708813
1775.0446 981.13617 2136.947 7432795
1799.511 987.61353 2151.0549 6972243
1810.6196 986.72034 2149.1096 8946290
1805.5544 977.0871 2128.1282 6840913
1771.6268 952.07678 2073.6548 9275510
1809.9409 965.96637 2103.9067 9077875
1817.0571 963.12964 2097.7283 8288614
1819.1971 957.71155 2085.9275 9999234
1842.3413 963.34973 2098.2078 9078645
1841.8611 956.64203 2083.5981 9473148
1832.3405 945.35944 2059.0242 6972759
1888.9811 968.13483 2108.6296 6972500
1890.2487 962.41785 2096.178 9143925
1907.2445 964.7312 2101.2166 8815474
1891.3385 950.47986 2070.1768 7828579
1940.736 969.01862 2110.5547 8815475
1977.326 980.96619 2136.5769 8420973
1977.8887 975.00189 2123.5864 8420716
1977.6598 968.72528 2109.9158 9144439
1986.7367 967.05725 2106.2827 7038037
1982.9359 959.18085 2089.1277 5525053
1982.6709 953.10187 2075.8875 8683888
0 0 0 0
0 0 0 0
0 0 0 0
0 0 0 0
0 0 0 0
0 0 0 0
0 0 0 0
0 0 0 0
0 0 0 0
0 0 0 0
0 0 0 0
0 0 0 0
-1601.7917 861.9281 1853.3854 7896960
0 0 0 0
0 0 0 0
-1519.7721 834.96936 1795.4166 7173749
0 0 0 0
-1484.5375 827.19373 1778.6969 8752524
-1502.7625 843.33691 1813.4092 8357510
-1514.7428 856.18298 1841.0319 5593688
-1488.014 847.177 1821.6665 7699057
-1479.5963 848.54065 1824.5988 6448474
-1452.5294 839.15057 1804.4073 5460800
-1455.0322 846.83069 1820.9218 4670516
-1422.7916 834.25385 1793.8781 1972748
-1415.5552 836.25916 1798.1901 2696475
-1401.1069 834.00208 1793.3368 2631457
-1409.233 845.25049 1817.524 2763561
-1430.8439 864.82269 1859.6095 4803661
-1429.0497 870.44238 1871.6935 5987421
-1410.453 865.83551 1861.7875 3026735
-1419.5785 878.30804 1888.6068 1447446
-1407.1836 877.55798 1886.994 2565670
-1394.8995 876.86572 1885.5055 986383
-1429.7909 906.05719 1948.2753 1382171
-1427.2108 911.78503 1960.5918 5921633
-1388.0288 894.03168 1922.4171 4540239
-1363.3313 885.39105 1903.8373 6054246
-1345.4132 881.04578 1894.4937 5922402
-1327.8833 876.88361 1885.5439 7764860
-1305.0972 869.15045 1868.9155 6909547
-1293.3387 868.69183 1867.9293 7304301
-1273.7377 862.91223 1855.5015 4671810
-1265.0214 864.47003 1858.8513 3947306
-1254.2888 864.66553 1859.2716 3222043
-1248.1841 868.08282 1866.6199 5327410
-1245.4808 873.94812 1879.2318 4076833
-1225.2878 867.53601 1865.444 6510915
-1221.4071 872.66187 1876.4659 2365965
-1201.8967 866.6123 1863.4578 3221782
-1186.4275 863.39148 1856.5321 4998449
-1190.4819 874.45111 1880.3134 5919296
-1182.3175 876.65973 1885.0625 2959379
-1163.8643 871.20874 1873.3414 4012067
-1151.551 870.29321 1871.3728 3419931
-1140.6698 870.45264 1871.7156 5525821
-1143.1233 880.89105 1894.161 4735541
-1131.0714 880.24768 1892.7776 1249030
-1109.9585 872.46906 1876.0514 1906190
-1091.6643 866.77118 1863.7994 854792
-1080.6328 866.7821 1863.823 1906698
-1081.7961 876.67603 1885.0977 3552039
-1063.0618 870.48322 1871.7814 2564373
-1058.3387 875.75397 1883.1147 2827290
-1059.7444 886.26233 1905.7108 3156514
-1041.0662 880.02008 1892.2882 1841166
-1015.8538 868.05835 1866.5673 4604979
-1024.3989 884.99707 1902.9901 5196602
-1005.6935 878.50861 1889.0382 3355169
-990.88959 875.3205 1882.1827 197376
-991.48022 885.81348 1904.7457 3881768
-978.49408 884.27887 1901.4459 3817003
-953.6308 871.84979 1874.7198 3287833
-943.77277 873.00787 1877.2101 3287835
-943.43665 883.10669 1898.9253 3486237
-927.41321 878.58771 1889.2083 7499098
-912.7934 875.30444 1882.1483 1775367
-908.61273 882.07416 1896.705 5262394
-898.54938 883.23096 1899.1925 4209965
-890.13971 886.06323 1905.2827 2762776
-875.00513 882.18823 1896.9503 4209964
-866.96991 885.46313 1903.9923 2301965
-859.20703 889.10626 1911.8259 3880998
-849.57312 890.88477 1915.6503 2893335
-838.96509 891.67609 1917.3518 3814694
-827.11243 891.14801 1916.2163 1511946
-820.02441 895.81036 1926.2417 4077869
-804.41168 891.16034 1916.2428 6973018
-788.25562 885.76654 1904.6448 4275505
-772.80975 881.0257 1894.4506 5393727
-778.36169 900.43604 1936.1882 2236176
-761.76825 894.42542 1923.2637 3156760
-760.4649 906.45758 1949.1362 4603435
-738.45508 893.79871 1921.916 3682333
-717.74115 882.33612 1897.2683 3288093
-714.42096 892.23157 1918.5463 4472360
-710.22711 901.33844 1938.1285 6840395
-693.80493 894.9707 1924.4362 2760201
-676.98755 887.87183 1909.1716 7036991
-666.19385 888.56592 1910.6642 4142363
-664.578 901.73724 1938.9861 4800035
-653.85913 902.80304 1941.278 2498059
-640.72687 900.51526 1936.3585 393216
-632.35114 904.95093 1945.8965 393216
-622.50415 907.40686 1951.1775 393216
-612.11127 909.1449 1954.9147 393216
-600.82361 909.59546 1955.8835 327680
-588.70612 908.78259 1954.1356 919556
-576.19031 907.31 1950.9692 2827542
-567.17297 911.39893 1959.7614 2695695
-538.13489 882.81445 1898.297 4932395
-528.4043 885.3598 1903.77 4208412
-516.56238 884.40137 1901.7094 3878680
-505.13577 884.1272 1901.1198 3089933
-491.88629 880.57721 1893.4862 4867112
-478.72104 877.01569 1885.8279 6182980
-469.27136 880.2536 1892.7903 2235142
0 0 0 0
0 0 0 0
0 0 0 0
0 0 0 0
0 0 0 0
-408.44824 894.44232 1923.3002 1446152
-397.11606 894.59039 1923.6185 8290416
-387.27832 898.21326 1931.4087 6514010
-371.40631 887.63525 1908.663 5198674
-370.00226 912.05627 1961.1749 1383201
-355.90399 905.75519 1947.6259 5594446
-346.73175 911.9884 1961.0289 4670517
-337.78796 919.27557 1976.6985 7236442
-326.27655 919.84766 1977.9286 4998964
-310.35742 907.57288 1951.5344 8288359
-298.46487 906.57867 1949.3966 5262135
0 0 0 0
0 0 0 0
0 0 0 0
0 0 0 0
0 0 0 0
0 0 0 0
0 0 0 0
0 0 0 0
0 0 0 0
-179.6539 890.29657 1914.3856 3156244
-171.11264 905.12769 1946.2766 2893326
-160.24312 908.89691 1954.3815 2170119
-149.26843 912.61047 1962.3666 4275488
-137.91362 914.43109 1966.2815 5986364
-127.65504 924.52716 1987.9908 4669736
-115.05719 918.01172 1973.9808 2891277
-102.89329 913.87579 1965.0874 6375987
-90.914917 910.5423 1957.9194 6308654
-79.363449 911.13446 1959.1927 2953477
-67.191765 903.58893 1942.9678 3151366
-56.109238 910.59851 1958.0404 4863517
-44.197567 904.29858 1944.4938 6311990
-32.799267 907.76324 1951.9438 1313537
-21.256977 908.84692 1954.274 4734501
-9.6459513 906.0683 1948.2992 2102791
1.9113244 911.42761 1959.8232 8945252
13.500125 909.70734 1956.1241 6248251
25.285376 916.69861 1971.1572 7038024
37.611904 932.69403 2005.5518 3550737
49.57151 934.09369 2008.5615 7169095
61.513145 934.67828 2009.8185 4537900
74.29747 945.80048 2033.7345 4208930
86.542572 947.91187 2038.2744 6051391
98.441315 946.17688 2034.5437 6117185
110.41443 945.45734 2032.9965 6117185
122.25417 943.84973 2029.5398 6314306
132.62535 932.20776 2004.5063 7300944
144.19284 930.19733 2000.1832 5524785
158.13788 942.66498 2026.9922 5261353
167.79355 929.60834 1998.9167 7761230
178.81856 925.35974 1989.7811 8551517
191.12022 927.83472 1995.103 4998695
205.02403 937.34607 2015.5551 2959635
217.0134 937.53937 2015.9707 8420443
228.67891 936.38654 2013.4917 657411
240.52357 936.04517 2012.7578 7301715
250.77478 929.82776 1999.3885 7169358
262.93378 930.92596 2001.75 8484445
275.18683 932.24805 2004.593 4799783
286.92947 931.80316 2003.6362 4865836
297.8316 928.77252 1997.1195 6313527
309.88165 929.41638 1998.504 7234372
322.2467 930.92297 2001.7437 4207126
333.9075 930.36017 2000.5336 3878930
346.47046 932.26355 2004.6262 4405274
357.77289 930.76141 2001.3962 6576700
370.94626 934.06677 2008.5037 5984564
383.25299 935.05225 2010.6227 6576958
396.28055 937.68396 2016.2816 5721393
408.79358 938.97961 2019.0676 7301452
420.98392 939.48157 2020.147 6314301
430.46933 934.0863 2008.5457 6314557
442.94354 935.2923 2011.1388 4735782
460.69427 947.28461 2036.9258 5525813
471.34229 944.43292 2030.7937 5525816
487.04712 951.60327 2046.212 8289114
493.52695 940.83905 2023.0659 5656365
503.80374 937.6521 2016.2133 5722413
522.44165 949.81372 2042.364 4340508
534.18567 949.17499 2040.9905 7103304
546.41962 949.41595 2041.5085 7234377
557.21527 947.20129 2036.7466 7826770
558.8689 929.86969 1999.4789 4866599
571.47388 931.10089 2002.1262 7432529
595.41266 950.37256 2043.5657 6972745
596.90424 933.7608 2007.8457 4077608
604.61072 927.33051 1994.0188 6380090
613.97083 923.63452 1986.0714 6511423
616.27448 909.66168 1956.026 8616547
629.8623 912.55359 1962.2443 4274726
652.46533 928.16516 1995.8136 8551006
666.98572 931.92749 2003.9037 6708546
689.77875 946.91479 2036.1305 7695440
688.82849 929.35284 1998.3674 6182201
708.62836 939.90698 2021.0616 5919027
718.17133 936.73187 2014.2344 6181685
725.90955 931.34503 2002.6512 4603423
736.51117 929.74628 1999.2134 6445886
744.08667 924.43854 1987.8003 7169095
757.99963 927.047 1993.4092 6643009
777.49768 936.30133 2013.3086 6511679
784.09052 929.9696 1999.6936 4537890
793.08533 926.63287 1992.5187 6576701
802.93005 924.37262 1987.6584 7760977
819.87927 930.2384 2000.2716 7629392
826.64667 924.54926 1988.0385 6840134
837.34644 923.35645 1985.4735 6248511
844.12451 917.93207 1973.8096 8551267
868.16895 931.17542 2002.2864 2365970
883.05939 934.37555 2009.1677 6906700
889.72693 928.90558 1997.4058 8485732
907.59113 935.11554 2010.7588 5722429
924.84576 940.54468 2022.4329 7038295
936.03827 939.74872 2020.7213 1709583
954.43127 946.11047 2034.401 2959131
953.46875 933.36609 2006.9971 6249034
978.40344 945.97467 2034.109 7038295
999.14508 954.27161 2051.9497 6709330
1010.9113 953.89978 2051.1501 7366745
1030.9132 961.2157 2066.8813 6314056
1053.8063 971.02374 2087.9714 6445639
1072.6226 976.89136 2100.5884 7893080
1077.7476 970.29785 2086.4106 9406319
1074.7875 956.65765 2057.0803 6709063
1080.9595 951.36047 2045.6899 9143147
1093.5087 951.73132 2046.4873 2432525
1106.0504 952.08746 2047.2532 1512198
1118.7506 952.57092 2048.2927 10920591
1126.7046 949.0462 2040.7135 7432790
1144.7563 954.01135 2051.3901 4867378
1157.4396 954.44543 2052.3235 7762524
1158.6155 945.4798 2033.0449 5788477
1175.6226 949.4848 2041.6567 7301201
1189.2072 950.67212 2044.2098 10591108
1201.8373 951.08026 2045.0874 7367252
1203.9919 943.27325 2028.3 7169872
1222.6455 948.41876 2039.3645 7367764
1236.3438 949.65741 2042.0278 10327935
1252.2523 952.55341 2048.2551 6249282
1263.4695 951.85931 2046.7626 7828057
1285.5754 959.30383 2062.7703 10591620
1286.7053 951.10297 2045.1362 8289120
1303.4897 954.51868 2052.481 12894374
1305.5042 947.15546 2036.6479 8156768
1321.7893 950.18585 2043.1643 9932922
0 0 0 0
1312.8809 926.80206 1992.8824 7366738
1348.744 943.63031 2029.0679 11907225
1395.9547 968.03015 2081.5344 10524289
1398.4497 961.26593 2066.9895 4536869
1412.9083 962.7713 2070.2263 8420191
1410.6632 952.96655 2049.1436 6182464
1408.2675 943.22839 2028.2037 7168838
1457.7556 968.11163 2081.7097 4865831
1487.0443 979.27533 2105.7146 6971462
1475.9821 963.90155 2072.6567 7497298
1508.7224 977.15106 2101.147 6708809
1523.3802 978.56818 2104.1941 6445637
1524.2454 971.17419 2088.2949 5064498
1539.5374 973.01733 2092.2583 7959647
1541.4867 966.46558 2078.1702 9538677
1560.7925 970.81348 2087.5193 8682345
1555.0601 959.64154 2063.4966 7959135
1571.3859 962.15027 2068.8909 6643276
1574.7944 956.77209 2057.3264 7630171
1582.9982 954.36755 2052.156 6445896
1594.5321 953.99207 2051.3486 9011823
1613.5562 958.06958 2060.1165 8090721
1621.5288 955.57336 2054.7488 6972241
1629.6936 953.22656 2049.7026 7103827
1634.2931 948.84473 2040.2803 6050881
1659.9136 956.64185 2057.0464 7563864
1682.4067 962.53619 2069.7209 8090463
1707.058 969.57098 2084.8477 7037520
1718.1753 968.87299 2083.3467 6643019
1750.6089 980.11926 2107.5293 6445384
1745.6024 970.39307 2086.6152 6774092
1745.4169 963.46478 2071.7175 7366999
1783.8744 977.81519 2102.575 7169876
1773.741 965.51654 2076.1294 9209459
1785.1013 965.00659 2075.033 8420201
1803.1353 968.08655 2081.6558 9012082
1819.3667 970.1637 2086.1221 8551532
1817.5433 962.65002 2069.9656 9472635
1826.9995 961.17133 2066.7859 5591104
1837.4796 960.24731 2064.7991 7565665
1850.438 960.62213 2065.605 8552304
1852.1426 955.18805 2053.9204 8091753
1874.2703 960.28894 2064.8887 9407612
1867.0853 950.40265 2043.6304 10460299
1889.1958 955.45996 2054.5049 7828579
0 0 0 0
1916.9771 957.17273 2058.1877 8485996
1966.7393 975.81073 2098.2649 7104343
1972.178 972.36151 2090.8479 6775122
1967.5099 964.0033 2072.8755 7827552
1969.7802 959.12726 2062.3906 7959395
0 0 0 0
0 0 0 0
0 0 0 0
0 0 0 0
0 0 0 0
0 0 0 0
0 0 0 0
0 0 0 0
0 0 0 0
0 0 0 0
0 0 0 0
0 0 0 0
-1532.2637 835.02161 1772.9364 6118999
0 0 0 0
0 0 0 0
-1498.9011 833.99664 1770.7601 7040100
-1483.2998 831.13477 1764.6838 5921618
-1491.5712 841.70386 1787.1243 8619386
-1495.6218 850.02527 1804.7926 6053202
-1487.6752 851.59888 1808.1337 7697252
-1475.0862 850.51855 1805.8398 6183755
-1464.9159 850.82715 1806.4952 2038797
-1446.6757 846.41888 1797.1355 4670515
-1435.9194 846.35638 1797.0028 2696983
-1430.7053 849.58405 1803.8557 2368018
-1429.0275 854.97601 1815.3041 2763037
-1413.8348 852.30261 1809.6278 1250314
-1410.5453 856.81866 1819.2164 2434079
-1417.1313 867.44934 1841.7878 394755
-1415.5515 873.20782 1854.0143 1644822
-1412.2761 878.00226 1864.194 3355437
-1401.9392 878.44757 1865.1394 2762787
-1391.6664 878.94049 1866.1859 921101
-1380.8826 879.11597 1866.5585 1973017
-1378.7001 884.81439 1878.6575 920331
-1381.3931 893.76001 1897.651 3289137
-1385.0106 903.45544 1918.2368 4802888
-1350.0614 887.9458 1885.3064 5855318
-1334.1515 884.8042 1878.636 4079418
-1318.9528 882.08514 1872.8629 6777187
-1294.5841 873.1355 1853.8606 5855825
-1277.218 868.79584 1844.6466 5460548
-1271.646 872.47321 1852.4545 3289123
-1261.927 873.34448 1854.3044 5131064
-1245.1277 869.28809 1845.6917 4406316
-1227.6366 864.67236 1835.8916 4340522
-1229.6753 873.85284 1855.3837 2629905
-1221.7161 876.02997 1860.0062 3024661
-1210.6036 875.96509 1859.8684 1708808
-1190.6198 869.42084 1845.9736 3353626
-1175.2406 866.14893 1839.0266 3946019
-1180.4407 878.12451 1864.4535 3222553
-1166.8948 876.24969 1860.4728 5065013
-1159.3091 878.85742 1866.0095 3222811
-1150.0212 880.21259 1868.8868 4341809
-1139.9781 881.01031 1870.5807 3749672
-1133.1184 884.30823 1877.5829 4407345
-1115.9264 879.52802 1867.4333 2104080
-1103.4531 878.40833 1865.0562 394240
-1087.8383 874.73993 1857.2672 2630425
-1066.5627 866.39813 1839.5558 460290
-1045.8379 858.33606 1822.4381 4802619
-1054.554 874.52039 1856.8011 3092512
-1052.8231 882.2915 1873.3009 4869180
-1046.2035 886.0874 1881.3605 3684903
-1023.926 876.56073 1861.1333 4408624
-1002.1904 867.29584 1841.4618 986628
-1016.8706 889.68793 1889.0051 2301716
-997.20447 882.19342 1873.0927 4341294
-984.49182 880.75104 1870.0302 4210996
-981.07599 887.68756 1884.7581 5328449
-962.84064 881.22076 1871.0275 6250058
-952.25275 881.68396 1872.0109 2302481
-911.88507 854.26001 1813.7839 4605231
-924.45697 876.36768 1860.7234 3881251
-918.97223 881.68518 1872.0134 2499348
-906.07404 879.93292 1868.2931 3617829
-900.76117 885.59509 1880.3151 1841419
-889.32312 885.30145 1879.6917 657152
-875.50214 882.59827 1873.9521 3091227
-872.81854 891.19727 1892.21 3683619
-863.25574 892.90485 1895.8354 3420446
-855.41962 896.46698 1903.3987 2565399
-843.50452 895.79242 1901.9664 591872
-834.46326 898.19299 1907.0632 1774860
-828.02551 903.50031 1918.3318 1972241
-818.27393 905.289 1922.1298 3484959
-804.99835 903.17462 1917.6404 2102793
-791.56561 900.82068 1912.6426 5063729
-774.58209 894.29883 1898.7952 6841422
-770.36316 902.53943 1916.2917 3355161
-749.43256 891.15466 1892.1194 5327927
-741.02484 894.54126 1899.3098 1906436
-716.93042 878.80365 1865.8954 3551000
-718.98877 895.133 1900.5663 6445889
-704.28943 890.78687 1891.3385 2102789
-698.98187 898.37115 1907.4415 4931880
-688.70007 899.70642 1910.2766 5523502
-677.39008 899.72058 1910.3068 4536609
-666.34027 900.08679 1911.0842 3286540
-658.77594 905.25507 1922.0577 591104
-644.14838 900.72876 1912.4473 2037254
-638.18994 908.37958 1928.6917 393728
-628.11591 910.34448 1932.8638 262656
-618.35449 912.84399 1938.1707 131072
-608.65692 915.53412 1943.8824 196608
-596.82178 915.05072 1942.8561 1183240
-588.7063 920.36359 1954.1364 2169613
-568.90369 907.25165 1926.2969 4209447
-557.58209 907.40472 1926.6218 4011810
-540.11096 897.34723 1905.2676 6248509
-527.76074 895.54993 1901.4515 5262123
-516.61469 895.76202 1901.9019 10261880
-504.79123 894.78302 1899.8231 3222287
-492.24707 892.45245 1894.8749 3945500
-483.11176 896.33783 1903.1244 3221780
0 0 0 0
0 0 0 0
0 0 0 0
0 0 0 0
0 0 0 0
0 0 0 0
-406.93033 902.47394 1916.1527 3815208
-392.22229 894.82544 1899.9132 5855049
-383.89322 901.70807 1914.5266 4078896
-370.26111 896.17462 1902.7778 6842716
-356.62723 890.289 1890.2814 2302746
-348.93762 899.34229 1909.5035 4934201
-341.56921 909.85797 1931.8308 2368538
-332.04965 915.17426 1943.1184 9802108
-318.88657 910.46967 1933.1295 3485976
-306.72772 908.38855 1928.7108 5393202
-290.73798 894.36188 1898.9291 5788219
-280.99338 899.19037 1909.1809 5262902
0 0 0 0
0 0 0 0
0 0 0 0
0 0 0 0
0 0 0 0
0 0 0 0
0 0 0 0
0 0 0 0
-183.35651 920.22412 1953.8403 3287832
-171.61913 919.37506 1952.0375 327680
-160.12563 919.80414 1952.9486 4537899
-148.51779 919.59198 1952.4982 2759695
-137.20058 921.29565 1956.1155 6111280
-125.63531 921.49432 1956.5372 5058079
-114.57945 925.84979 1965.7848 984065
-102.37653 920.87305 1955.2181 7228989
-89.49099 907.70245 1927.254 4600604
-77.433342 900.30402 1911.5455 2759433
-66.865082 910.65424 1933.5212 4732446
-55.486031 911.95929 1936.2922 5259559
-43.499249 901.35223 1913.7711 3219980
-32.271381 904.53485 1920.5286 4997417
-21.006008 909.5614 1931.201 4142621
-9.6135635 914.53339 1941.7576 3353365
1.8964146 915.84155 1944.5352 6906181
13.428299 916.39795 1945.7166 3945500
24.694756 906.69489 1925.1147 4997416
36.994541 929.07495 1972.6326 3286798
48.923649 933.63342 1982.3113 2432782
60.587791 932.34918 1979.5845 5985088
73.301682 945.01495 2006.4768 3156506
85.640625 949.98608 2017.0315 4011298
97.060715 944.79517 2006.0101 4340261
108.92254 944.56781 2005.5273 6840908
121.95234 953.51727 2024.5289 1841167
132.78401 945.21631 2006.9042 4603168
143.11075 934.98126 1985.173 4011288
154.60727 933.3631 1981.7373 6642753
164.52585 923.11993 1959.9888 6445118
177.77081 931.66052 1978.1224 5063981
191.75012 942.75513 2001.6786 8288094
203.52737 942.3609 2000.8416 7301457
218.56618 956.28033 2030.3956 7433299
228.73729 948.5611 2014.0059 6512453
240.3522 947.29779 2011.3236 4867888
250.91388 942.19891 2000.4977 6841684
262.2283 940.25922 1996.3793 7564381
274.08945 940.36279 1996.5991 3484950
285.91278 940.33337 1996.5366 7629906
297.9476 940.97424 1997.8973 5984567
308.98471 938.53558 1992.7196 4141592
319.02646 933.36432 1981.7399 7300425
327.9718 925.46655 1964.9711 5195312
336.80511 917.80505 1948.7041 5984821
352.39749 928.45966 1971.326 4734241
366.73615 935.23322 1985.7079 4405281
377.99399 933.97333 1983.0328 4536606
392.20752 939.87244 1995.558 4602401
406.30341 945.1524 2006.7686 3944729
418.72308 946.34375 2009.2981 2300678
427.75073 940.01501 1995.8607 4538412
438.72491 938.18945 1991.9846 3748381
452.10626 941.47211 1998.9546 5590842
466.07657 945.78241 2008.1062 7828060
480.35422 950.48615 2018.0933 4999213
494.75223 955.19379 2028.0886 6643780
502.93787 947.96863 2012.748 5130541
519.36438 956.25134 2030.3342 7498833
530.59741 954.81323 2027.2806 6972231
542.24329 954.16522 2025.9049 7103816
547.06378 941.79529 1999.6406 7301196
558.33173 940.81396 1997.5571 7564111
565.95776 933.86407 1982.8009 7498576
582.763 942.03503 2000.1498 4274720
595.20221 942.9632 2002.1204 6314814
593.30884 921.59229 1956.7451 10591622
604.91528 921.60803 1956.7787 3880230
614.47351 918.5614 1950.3099 9472626
623.07635 914.2254 1941.1038 8354146
650.84833 937.66315 1990.8673 6774855
650.92859 921.08179 1955.6614 6511170
688.60577 957.35065 2032.6682 8090713
0 0 0 0
688.11926 924.33484 1962.5682 8354138
700.685 925.57007 1965.1909 5261613
722.9726 939.39709 1994.5488 6708798
732.51117 936.48022 1988.3556 4997924
739.51587 930.46771 1975.5896 7958609
751.25275 930.5036 1975.666 6511164
755.27051 921.12439 1955.7518 5524271
769.10858 923.8244 1961.4846 8156504
773.14606 914.84729 1942.4241 7038285
780.68811 910.2196 1932.5985 5459254
801.36255 920.81555 1955.0961 7761495
818.85822 927.50903 1969.3077 7168588
838.95587 936.92017 1989.2897 6708293
849.59937 935.65863 1986.6112 6774601
860.54895 934.76422 1984.712 5852470
877.67181 940.50903 1996.9097 7366735
889.73877 940.75525 1997.4324 5787193
910.90265 950.48718 2018.0956 5919292
916.12952 943.5528 2003.3723 1117449
930.73083 946.32751 2009.2637 1052166
950.07568 953.79413 2025.1168 6249294
949.28809 941.11536 1998.197 6512720
964.13757 944.06049 2004.4502 7564638
989.12445 956.73932 2031.3702 7169880
1007.769 963.05255 2044.7744 5985092
1029.1884 971.83582 2063.4233 6182979
1034.9871 965.83569 2050.6838 6643530
1052.0161 970.33331 2060.2334 7498836
1061.9681 968.27509 2055.8633 5854269
1063.519 958.69067 2035.5133 6972491
1065.1174 949.36322 2015.7092 7893856
1088.7887 959.69885 2037.6539 6775887
1089.5798 949.86139 2016.767 10789774
1088.4169 938.55243 1992.7555 6841167
1111.1907 947.90558 2012.6143 8090975
1136.5939 959.2793 2036.7632 9933180
1123.5531 938.30835 1992.2372 9538676
1136.6698 939.3913 1994.5365 9011818
1135.8357 929.04108 1972.5605 8090975
1166.5795 944.46716 2005.3136 7958876
1180.6344 946.20715 2009.0081 7498068
1185.9951 941.01398 1997.9817 7103566
1201.8176 944.14227 2004.6238 8814442
1222.5375 951.01898 2019.2246 7893341
1247.1251 960.74207 2039.8688 6446407
1249.6266 953.42712 2024.3378 9802102
1258.2189 950.85443 2018.8752 9867639
1282.1769 959.83282 2037.9385 10459519
1278.0823 947.83966 2012.4741 12564896
1286.3024 945.11646 2006.6923 9077614
1291.8502 940.49774 1996.8856 7366997
1286.629 928.19391 1970.7618 8682602
1298.8773 928.60077 1971.6257 8748393
1329.0902 941.72919 1999.5004 9801081
1351.7416 949.31531 2015.6073 8616806
1391.2991 968.53754 2056.4204 8682854
1402.5563 967.896 2055.0583 8814698
1414.6654 967.84839 2054.9573 8814698
1418.4932 962.18427 2042.9309 6379844
1440.399 968.77484 2056.9243 7037001
1471.7179 981.53259 2084.0117 2497808
1476.6393 976.6192 2073.5796 8484192
1484.2156 973.52838 2067.0171 7037773
1515.0466 985.61658 2092.6831 6906445
1524.9398 983.99799 2089.2463 6709322
1536.9296 983.74731 2088.7141 7762010
1531.3738 972.35999 2064.5364 8420197
1544.621 972.99774 2065.8904 9538422
1550.3674 968.9375 2057.2698 6314565
1554.8235 964.14075 2047.085 6643018
1575.4215 969.35016 2058.1458 6643276
1578.4326 963.74152 2046.2374 7301461
1588.3196 962.38452 2043.3562 8156771
1610.4238 968.39471 2056.1172 7498328
1619.9438 966.80438 2052.7405 7564377
1625.1129 962.66022 2043.9414 7301202
1625.7266 955.89886 2029.5857 3485212
1635.1218 954.3623 2026.3232 7301205
1701.7612 986.01593 2093.531 7433561
1682.8795 968.01849 2055.3184 6643276
1688.6121 964.33618 2047.5001 7564378
1700.1598 964.00397 2046.7946 6643276
1717.184 966.75934 2052.645 6840655
1711.6407 956.86029 2031.627 7235413
1711.2726 949.97223 2017.0022 6380103
1761.2872 970.95465 2061.5525 8946030
1791.8654 981.00684 2082.8955 8353894
1785.5693 970.87189 2061.3767 8682602
1799.1135 971.58905 2062.8994 8617068
1804.1658 967.74146 2054.7302 7169622
1822.0996 970.80884 2061.2429 5920583
1823.3521 965.00677 2048.9238 6841430
1825.7109 959.8631 2038.0027 10525837
1824.4846 952.91455 2023.2493 6183756
1835.9332 952.63361 2022.6527 8289131
1867.2192 962.5827 2043.7769 8486510
1837.6873 941.25293 1998.4891 8815476
1857.7162 945.41864 2007.3339 8223340
1899.8751 960.72186 2039.826 6512721
1921.5183 965.52295 2050.0198 9539199
1932.8434 965.11163 2049.1465 9275514
1935.1638 960.2373 2038.7972 8617326
1913.5806 943.63593 2003.5487 8947061
0 0 0 0
0 0 0 0
0 0 0 0
0 0 0 0
0 0 0 0
0 0 0 0
0 0 0 0
0 0 0 0
0 0 0 0
0 0 0 0
0 0 0 0
0 0 0 0
-1520.1345 838.83539 1758.9022 4998969
-1507.1465 837.41052 1755.9146 5920068
0 0 0 0
-1484.5924 836.42896 1753.8563 4340774
-1486.551 843.43738 1768.5519 4932656
-1485.4763 848.81219 1779.8219 3155988
-1471.0823 846.59845 1775.1802 4406057
-1463.6584 848.39325 1778.9435 3090972
-1450.1338 846.65204 1775.2925 788738
-1438.8132 846.18164 1774.3063 3025184
-1434.5758 849.90076 1782.1045 394498
-1431.626 854.44348 1791.6298 1578508
-1438.4827 864.95062 1813.6616 2104338
-1423.403 862.32642 1808.1592 1381386
-1414.0652 863.16742 1809.9225 1578254
-1413.6833 869.52991 1823.2637 3815214
-1403.4023 869.85474 1823.9448 2959904
-1395.0861 871.4118 1827.2097 788740
-1391.7939 876.15601 1837.1576 657153
-1383.9115 878.06256 1841.1553 2367772
-1376.3199 880.18555 1845.6068 4144185
-1363.7057 879.10455 1843.3402 4013371
-1353.8384 879.79126 1844.78 1644567
-1347.9591 883.10187 1851.7219 1907222
-1332.2953 880.00403 1845.2262 3157029
-1330.4939 886.08691 1857.9811 3092258
-1320.7036 886.90662 1859.6998 6119245
-1310.1792 887.24292 1860.405 3420704
-1289.3745 880.56396 1846.4004 4013093
-1267.8224 873.25604 1831.0768 3486757
-1255.2806 872.08173 1828.6144 5657156
-1263.6774 885.56018 1856.8765 4802615
-1247.5771 881.95758 1849.3225 4209448
-1221.8472 871.42328 1827.2338 4275241
-1212.0242 872.14691 1828.7511 6116931
-1199.4124 870.8587 1826.0499 3813919
-1193.0651 874.13684 1832.9237 3156503
-1183.7689 875.29486 1835.3519 3222300
-1180.943 881.30292 1847.9498 4274987
-1166.7767 878.88129 1842.8721 6774866
-1150.4556 874.77539 1834.2626 1249290
-1158.7618 889.49561 1865.1287 1380874
-1143.9902 886.61389 1859.0861 1117446
-1134.6555 887.93054 1861.8468 2893853
-1127.3446 890.87244 1868.0155 788996
-1109.7152 885.63776 1857.0393 1051909
-1095.6533 883.17383 1851.8728 1380872
-1083.605 882.29962 1850.0397 657668
-1063.5647 874.83368 1834.3849 4275762
-1043.2283 866.96741 1817.8906 4802613
-1038.3014 871.87683 1828.1847 5065785
-1044.7303 886.52576 1858.9012 6973530
-1033.8695 886.659 1859.1807 3486245
-1017.3815 881.91718 1849.2378 1775624
-1007.9432 883.24976 1852.0321 3420453
-995.74945 882.17053 1849.769 1644302
-983.94037 881.41193 1848.1782 3157275
-980.41736 888.14221 1862.2908 6447182
-986.64282 903.95746 1895.4526 1972744
-957.81219 887.6488 1861.256 5130292
-944.33246 885.35229 1856.4406 2367242
-929.6344 881.84589 1849.0883 4604205
-920.35852 883.46051 1852.474 2104592
-910.79352 884.83344 1855.3528 2236175
-906.46552 891.38989 1869.1005 2236177
-895.10352 891.10577 1868.5048 2236435
-884.73224 891.81335 1869.9884 2170642
-870.11053 888.19989 1862.4116 2828572
-862.24182 891.47565 1869.2804 1183751
-845.81073 885.86877 1857.5237 4670777
-837.76172 889.00885 1864.1079 1512713
-829.46301 891.96436 1870.3052 986884
-815.18713 888.48529 1863.01 262656
-820.04364 906.04968 1899.8397 2236181
-817.95013 916.31732 1921.3693 1446148
-807.01581 916.83093 1922.4463 2498831
-791.25061 911.79242 1911.8813 6117445
-775.58728 906.72662 1901.2593 6249031
-765.66504 908.32227 1904.6051 3157532
-748.48279 901.22406 1889.7213 3946791
-736.04559 899.71045 1886.5475 4735790
-720.78381 894.64429 1875.9244 3222293
-711.41168 896.84406 1880.537 3484953
-699.26428 895.55963 1877.8438 2695179
-683.86938 890.00714 1866.2012 2365446
-682.92181 903.38342 1894.2491 2036992
-675.36908 908.32336 1904.6074 2497539
-661.61078 904.9433 1897.5199 2431491
-646.92419 900.15472 1887.479 2629383
-641.2088 907.90015 1903.7198 1511424
-632.41412 911.48486 1911.2363 3090198
-623.20093 914.58612 1917.7393 5722689
-613.88672 917.65155 1924.1669 3025178
-602.53625 917.73151 1924.3347 3946279
-587.04431 911.38513 1911.0272 2630671
-577.36914 913.99707 1916.5042 3682840
-560.06299 904.39136 1896.3624 3419666
-548.34314 903.59772 1894.6984 5261612
-536.51819 902.59412 1892.594 3682580
-526.48969 904.63434 1896.8721 2564367
-519.04297 911.29651 1910.8416 3485206
-503.03671 902.89258 1893.2197 3090450
-490.88754 901.1861 1889.6416 3155989
-477.50342 897.0799 1881.0315 4537642
0 0 0 0
0 0 0 0
0 0 0 0
0 0 0 0
0 0 0 0
0 0 0 0
-401.53711 901.71808 1890.7571 7368282
-388.95288 898.53198 1884.0764 5722945
-375.97574 894.22296 1875.041 6644559
-364.47495 893.26978 1873.0425 7762786
-352.85175 891.94739 1870.2695 2433037
-347.06253 905.76477 1899.2423 5524795
-337.64819 910.73047 1909.6545 5722173
-326.34048 910.75647 1909.7091 4801324
-314.66379 909.71753 1907.5306 5130291
0 0 0 0
-290.91907 906.17938 1900.1118 3222291
-280.65152 909.39679 1906.8582 2565137
0 0 0 0
0 0 0 0
0 0 0 0
0 0 0 0
0 0 0 0
0 0 0 0
0 0 0 0
0 0 0 0
-179.22672 910.81573 1909.8334 3351057
-168.00462 911.33649 1910.9253 2164995
-157.5089 916.15735 1921.0339 4531994
-145.36021 911.36584 1910.9869 2558984
-132.98764 904.24237 1896.0502 2492928
-121.36528 901.37592 1890.0396 4993824
-110.55708 904.58795 1896.7748 7825749
-101.14417 921.2356 1931.6821 5919030
-88.98468 913.92377 1916.3503 4931108
-77.264015 909.63873 1907.3654 6708548
-65.576393 904.34088 1896.2566 4471325
-54.824104 912.41803 1913.1931 5195817
-43.365967 909.89709 1907.9071 4866345
-32.185612 913.48206 1915.4242 1840392
-20.944906 918.32721 1925.5837 3287316
-9.4769583 912.88196 1914.1659 3550743
1.8740143 916.41125 1921.5664 3945757
13.208249 912.72278 1913.8322 5788218
24.582098 913.91516 1916.3324 4077599
35.844543 911.52106 1911.3123 6643526
48.274555 932.8382 1956.0109 4011554
58.571045 912.65564 1913.6913 4274476
71.436996 932.56366 1955.4352 3814178
83.684456 939.96716 1970.9592 4537643
96.172768 947.93115 1987.6583 5459512
108.4599 952.39044 1997.0089 4143650
120.73232 955.8559 2004.2754 5262384
132.25906 953.32587 1998.9702 4604195
140.47923 929.3371 1948.6697 4999212
151.24863 924.57611 1938.6866 7894104
164.07202 932.15692 1954.5824 5590581
176.31339 935.64923 1961.9053 5985858
191.65819 954.15979 2000.7189 7301710
203.08325 952.13617 1996.4756 5920315
211.4231 936.66687 1964.0392 6775881
221.80371 931.38147 1952.9564 7499354
236.10112 942.25171 1975.7495 5394235
249.64859 949.24323 1990.4097 7762265
260.24863 944.9024 1981.3076 7169873
272.55966 946.88062 1985.4556 8420452
280.80075 935.14081 1960.8391 7828571
291.32483 931.63507 1953.4883 8814950
303.23853 932.67126 1955.6609 1970949
316.20517 936.75049 1964.2145 6905407
323.78241 925.14105 1939.8713 6313015
333.46664 920.14154 1929.3881 4471069
349.43835 932.2475 1954.7725 4207384
360.85397 931.81177 1953.8586 4076057
368.62592 922.28668 1933.886 4076314
378.54791 918.55322 1926.0576 3286801
395.09064 930.63324 1951.3876 4207648
406.75037 930.85162 1951.8455 2892306
417.89661 929.91516 1949.8818 328448
431.61102 934.59021 1959.6847 722176
444.83661 937.98944 1966.8124 2959124
455.45398 935.85583 1962.3384 2958872
453.85754 909.35669 1906.774 4274734
467.9082 914.73413 1918.0497 7301458
493.36511 941.62628 1974.4381 6709061
500.48761 933.09039 1956.5398 2958864
518.9375 945.58124 1982.7311 8222044
529.85223 944.09283 1979.6101 6379836
531.85858 927.13965 1944.062 8353627
544.94836 929.81653 1949.675 5130029
555.37897 927.93927 1945.7386 6511682
570.07886 933.12653 1956.6155 8090714
580.50879 931.2569 1952.6953 7893080
590.68677 929.06421 1948.0974 6971722
600.92322 927.04565 1943.865 7827289
606.57892 918.16931 1925.2527 8222304
613.63281 911.69806 1911.6836 5327669
637.39594 929.8371 1949.7181 5327409
645.49719 924.88916 1939.3433 5984827
668.63013 941.27551 1973.7028 7497804
673.24365 931.47571 1953.1541 5458225
679.7359 924.5625 1938.6582 5986374
696.50134 931.62024 1953.457 5458217
715.1286 940.89691 1972.9087 6971458
725.06207 938.62061 1968.1356 6707771
731.85773 932.41852 1955.131 6774336
744.15088 933.30481 1956.9894 3879443
759.92383 938.46124 1967.8015 6248507
766.99182 932.87408 1956.0862 7498832
771.93317 924.90521 1939.3768 7169869
774.03253 913.81506 1916.1224 6445891
786.30017 914.87646 1918.3481 8813928
0 0 0 0
824.36749 932.21222 1954.6985 6115898
834.83899 930.97168 1952.0973 5261875
848.30316 933.0567 1956.4692 6248767
865.25092 938.86554 1968.6493 8485474
881.00458 943.24127 1977.8245 3748635
902.42401 953.48846 1999.3113 6709322
915.84265 955.12604 2002.745 3222050
932.04907 959.59198 2012.1094 9538427
932.95013 948.38641 1988.6132 9407094
935.12939 938.74365 1968.3938 4407088
956.62305 948.48865 1988.8274 4999993
983.02972 962.80835 2018.8535 9210489
993.04712 960.92456 2014.9036 9407610
1006.4916 962.36237 2017.9183 8288871
1014.7202 958.83777 2010.5278 8946542
1026.7177 958.91492 2010.6897 6117442
1043.8098 963.69403 2020.7107 8222561
1054.2974 962.33612 2017.8633 7498838
1065.3372 961.50726 2016.1254 8617062
1072.3672 957.1178 2006.9213 9012077
1065.8854 940.89728 1972.9095 8419684
1085.7877 948.06635 1987.9419 9407092
1100.0156 950.17993 1992.3738 8880237
1114.3796 952.36505 1996.9556 9867387
1125.1947 951.50299 1995.1481 6182978
1128.7958 944.62207 1980.7198 11644052
1134.9581 940.00397 1971.0365 8090973
1143.9703 937.81628 1966.4492 7301199
