# .PCD v0.7 - Point Cloud Data file format
VERSION 0.7
FIELDS x y z rgb
SIZE 4 4 4 4
TYPE F F F U
COUNT 1 1 1 1
WIDTH 1422
HEIGHT 1
VIEWPOINT 0 0 0 1 0 0 0
POINTS 1422
DATA ascii
-519.7984 883.11377 2000.9321 2366479
-508.71628 884.46271 2003.9884 1841424
-497.57736 885.7749 2006.9617 262656
-486.39218 887.06708 2009.8893 3091484
-475.07104 888.16992 2012.3881 3353882
-463.20367 888.28198 2012.642 3353882
-448.16257 882.15295 1998.755 1643270
-425.05084 859.37378 1947.1428 4274730
-417.23389 867.10956 1964.6702 262912
-408.65463 873.65961 1979.5111 591616
-397.15417 874.16693 1980.6606 4406316
-388.37018 880.86658 1995.8405 985601
-384.9877 900.62311 2040.6042 1840387
-370.32458 894.41583 2026.54 6643020
-360.01321 898.65521 2036.1455 6314308
-344.54004 889.85706 2016.2108 5458738
0 0 0 0
0 0 0 0
0 0 0 0
0 0 0 0
0 0 0 0
-270.76764 883.06885 2000.8302 5128230
0 0 0 0
0 0 0 0
0 0 0 0
0 0 0 0
0 0 0 0
0 0 0 0
0 0 0 0
0 0 0 0
0 0 0 0
0 0 0 0
0 0 0 0
0 0 0 0
0 0 0 0
0 0 0 0
0 0 0 0
0 0 0 0
0 0 0 0
0 0 0 0
0 0 0 0
0 0 0 0
0 0 0 0
0 0 0 0
0.69063801 312.54843 708.1626 65543
4.8425941 309.68558 701.67609 8
8.9793463 308.94482 699.99774 6
13.141505 309.27011 700.73474 197124
0 0 0 0
0 0 0 0
0 0 0 0
0 0 0 0
0 0 0 0
0 0 0 0
0 0 0 0
0 0 0 0
0 0 0 0
0 0 0 0
0 0 0 0
0 0 0 0
0 0 0 0
0 0 0 0
0 0 0 0
0 0 0 0
0 0 0 0
0 0 0 0
0 0 0 0
0 0 0 0
292.91867 902.76581 2045.459 6708294
305.73083 904.80884 2050.0881 4010783
319.33926 908.96222 2059.4988 8287064
326.78983 895.92731 2029.9647 7234635
340.11444 899.35065 2037.7212 6445633
348.45779 889.81909 2016.1248 6314049
368.31543 909.34741 2060.3716 4932138
380.95529 910.37421 2062.698 6642505
392.08307 907.83612 2056.9473 7366230
405.47354 910.5321 2063.0557 3945503
422.45966 920.90826 2086.5657 3484952
433.88913 918.92603 2082.0745 3616284
445.97287 918.40076 2080.8843 2563857
455.98788 913.75818 2070.3652 7103568
474.43753 925.8183 2097.6907 7104078
486.02454 924.21265 2094.0527 5259814
494.50153 916.92029 2077.5298 6573360
502.57468 909.25165 2060.1545 7029547
511.07996 902.70996 2045.3326 3347979
525.71313 907.04425 2055.1531 2689536
535.12421 902.37616 2044.5763 6443061
550.09723 907.08636 2055.2485 2759437
560.27307 903.85352 2047.9236 6312244
571.62885 902.62073 2045.1304 5127462
585.38184 905.146 2050.8521 6839620
595.61267 902.23309 2044.2521 2498318
609.27789 904.53503 2049.4678 7036998
621.28168 904.32855 2049 7563858
629.88513 899.27551 2037.5509 4471076
647.12097 906.50507 2053.9314 4471077
661.05286 908.92468 2059.4138 4274470
671.91241 907.10907 2055.2998 2629648
681.23175 903.31555 2046.7047 920065
700.60089 912.74774 2068.0759 4077603
717.67407 918.91595 2082.0515 3419934
733.59808 923.42914 2092.2773 7300687
740.86133 917.07141 2077.8723 5129262
754.04266 918.12756 2080.2654 6577216
759.07617 909.38855 2060.4646 5195056
777.0376 916.16888 2075.8274 9340532
789.77484 916.67438 2076.9727 5129007
800.95227 915.38159 2074.0435 7037001
799.99969 900.47437 2040.2673 5655093
804.74524 892.32947 2021.8127 7497292
822.62274 898.77106 2036.4078 4536606
835.86877 900.03931 2039.2815 8944220
841.42572 893.11005 2023.5813 5521957
849.34509 888.84784 2013.9241 5390888
867.05786 894.81061 2027.4343 4338206
870.19489 885.77368 2006.9587 3812636
897.84399 901.59491 2042.8062 5392437
903.3949 895.09985 2028.0898 7169876
917.64465 897.28125 2033.0323 3483665
939.47852 906.72571 2054.4314 4535833
967.617 921.93561 2088.8936 4074771
972.48505 914.86945 2072.8831 4403988
982.1156 912.40405 2067.2971 5456679
1002.1552 919.55029 2083.489 6312502
1009.4748 914.99335 2073.1638 6247224
1027.0756 919.75275 2083.9475 4273691
1022.3004 904.59943 2049.6135 9076583
1032.7449 903.11108 2046.2413 3418902
1046.7479 904.73303 2049.9163 4800811
1057.7294 903.73602 2047.6575 7893339
1072.6794 906.11414 2053.0457 6314563
1108.1663 925.5921 2097.1782 7696214
1123.0935 927.65619 2101.855 8682854
1120.667 915.49835 2074.3081 6906440
1134.8945 917.06177 2077.8503 6248768
1149.5077 918.89972 2082.0149 9143916
1155.8329 914.14392 2071.2393 7630419
1160.9517 908.54388 2058.5508 7563855
1174.5181 909.60254 2060.9495 5787444
1193.1741 914.54047 2072.1377 7826771
1200.317 910.64313 2063.3074 5852470
0 0 0 0
1183.6155 880.0423 1993.9729 5063213
1224.2081 901.22638 2041.9711 8945000
1238.0292 902.48004 2044.8116 8287071
1244.4058 898.33539 2035.4208 9076587
1268.5593 906.98016 2055.0078 8879207
1276.8916 904.25653 2048.8367 6905418
1288.2278 903.69128 2047.5562 7826519
1292.0425 897.90955 2034.4559 7300174
1300.7726 895.61926 2029.2666 4536613
1332.0493 908.75256 2059.0237 5589300
1368.5979 925.21143 2096.3157 6049850
1382.4746 926.18518 2098.522 4732963
1400.906 930.16577 2107.541 5325611
1408.2538 926.7818 2099.8738 4207387
1417.6016 924.76178 2095.2969 5786676
1444.4517 934.09521 2116.4443 5852985
1449.5254 929.30701 2105.5952 5853244
1463.9735 930.5592 2108.4324 8024153
1465.7925 923.83032 2093.1865 7497811
1486.8081 929.21198 2105.3801 7365968
1503.2007 931.63879 2110.8787 6905416
1525.7827 937.8299 2124.9062 8681828
1524.6287 929.44958 2105.9185 7234383
1543.7606 933.4718 2115.0317 6905675
1578.9414 947.05524 2145.8088 7301203
1567.8838 932.90942 2113.7576 7761498
1571.1108 927.42004 2101.3198 8288101
1583.6918 927.495 2101.4897 7432792
1588.2428 922.90271 2091.0847 9406838
1600.9143 923.06384 2091.4497 8682090
1608.4215 920.26758 2085.114 7300695
1629.9381 925.46838 2096.8979 8879727
1639.5469 923.88062 2093.3003 9142384
1637.6975 915.90845 2075.2373 7300438
1641.6566 911.27936 2064.7488 9800571
1699.1565 936.2193 2121.2568 6049856
1713.5062 937.19208 2123.4612 6115903
1718.9276 933.30304 2114.6494 5654322
1723.1663 928.83289 2104.521 7035972
1744.566 933.61053 2115.3462 6838849
1776.6783 944.01215 2138.9138 7102281
1750.3893 923.45551 2092.3372 6575167
1766.5314 925.41608 2096.7793 6312511
1807.9441 940.49506 2130.9448 6378304
1801.3013 930.53955 2108.3879 6839371
1809.5981 928.38593 2103.5083 8024672
1834.3811 934.6618 2117.728 7958623
1833.3503 927.78906 2102.156 7564121
1812.6459 911.12012 2064.3879 5787709
1855.302 926.30914 2098.803 8353893
1842.5852 913.83374 2070.5364 9274996
1873.2045 922.87366 2091.0188 5392440
1886.2527 923.19482 2091.7466 7826781
1916.2086 931.73315 2111.0923 7432537
1935.5488 935.03229 2118.5674 7827036
1935.4937 928.97974 2104.8538 8353641
1933.8405 922.24255 2089.5889 7103576
1944.726 921.53284 2087.9807 3089693
1948.4778 917.47302 2078.7822 4076587
1976.2838 924.71936 2095.2007 6314062
1973.2336 917.52753 2078.9058 6775384
1961.2678 906.30493 2053.478 8091244
0 0 0 0
0 0 0 0
0 0 0 0
0 0 0 0
0 0 0 0
0 0 0 0
0 0 0 0
0 0 0 0
0 0 0 0
0 0 0 0
0 0 0 0
0 0 0 0
-1620.3552 838.58453 1874.8646 3747861
-1603.9861 835.84442 1868.7383 5524530
-1595.8174 837.3692 1872.1473 4735017
-1578.8549 834.2688 1865.2155 3090195
-1569.5122 835.1792 1867.251 2892814
-1562.6128 837.41187 1872.2428 4405797
-1552.8951 838.15546 1873.9053 4274467
-1545.484 840.1637 1878.395 4471846
-1559.6556 854.01898 1909.3721 4669225
-1539.9489 849.3905 1899.0239 4077345
-1533.6119 852.12262 1905.1323 2366475
-1517.3531 849.34143 1898.9143 1577734
-1510.1194 851.60822 1903.9823 5985340
-1508.4984 857.09821 1916.2565 4669990
-1470.3201 841.74286 1881.9257 6643267
-1465.0715 845.14874 1889.5404 5524785
-1446.1542 840.66132 1879.5076 4537889
-1434.1952 840.18054 1878.4327 4669476
-1413.4335 834.49518 1865.7217 5590066
-1415.8492 842.51202 1883.6454 5393198
-1409.6763 845.50494 1890.3368 5064234
-1405.3999 849.69238 1899.6989 5327150
-1395.0651 850.255 1900.9568 6775111
-1358.8179 834.9054 1866.6388 4471845
-1344.2327 832.72296 1861.7594 5130033
-1365.6099 852.96661 1907.0193 591104
-1351.421 851.14801 1902.9532 3155986
-1336.4196 848.78271 1897.6652 6116671
-1310.6514 839.48114 1876.8691 4932393
-1314.4631 849.12878 1898.4387 4472352
-1290.7426 841.00366 1880.2731 3682068
-1278.7336 840.43457 1879.0006 5392427
-1268.5785 841.08441 1880.4536 4996897
-1249.3292 835.66284 1868.3324 3549194
-1241.0825 837.56958 1872.5953 3549196
-1226.9792 835.52271 1868.0192 2365954
-1226.7262 842.95593 1884.6378 2563845
-1198.9474 831.43726 1858.885 5788470
-1176.7852 823.63611 1841.4436 3813142
-1186.5448 838.2403 1874.0947 2168320
-1188.6937 847.69293 1895.2286 2628353
-1175.2196 846.07843 1891.619 4010007
-1170.6532 850.90753 1902.4156 2694149
-1169.6106 858.41669 1919.2043 2036480
-1154.5883 855.71252 1913.1583 1773312
-1135.0316 849.56079 1899.4047 3484696
-1128.6687 853.26013 1907.6755 4471849
-1120.4709 855.63312 1912.981 2893587
-1107.8702 854.65802 1910.8008 2104591
-1105.77 861.84705 1926.8737 8881272
-1098.0558 864.76477 1933.397 657154
-1095.4559 871.81421 1949.1577 3223076
-1099.5084 884.36462 1977.2174 4407347
-1085.144 882.21277 1972.4062 2565404
-1077.6095 885.62689 1980.0394 2631195
-1073.8143 892.22345 1994.7876 2302487
-1061.1259 891.495 1993.1589 855048
-1048.7694 891.03235 1992.1246 4210488
-1030.0542 885.09521 1978.8508 854788
-1020.8523 887.29004 1983.7578 2170647
-1017.1691 894.38861 1999.6284 2960415
-1006.1478 895.12598 2001.277 5525571
-988.50116 889.9165 1989.6299 4933684
-971.22559 884.91931 1978.4574 6644300
-970.86853 895.40332 2001.8971 7170129
-951.89679 888.76672 1987.0593 3814688
-942.7135 891.21753 1992.5387 4012318
-928.51825 888.93225 1987.4294 4539181
-905.36798 877.90485 1962.7749 6841936
-913.01288 896.84015 2005.1095 5920836
-895.09747 890.83612 1991.686 6381386
-885.33551 892.89478 1996.2886 2169871
-869.77496 889.08179 1987.7638 4933682
-846.96088 877.64789 1962.2004 3682590
-831.70227 873.83374 1953.673 4077862
-826.90479 881.05829 1969.8252 3222556
-821.0639 887.36194 1983.9185 2104845
-818.41516 897.34875 2006.2467 2762521
-785.76019 874.245 1954.5923 5591365
-785.82996 887.4043 1984.0132 525827
-779.77606 893.94305 1998.6323 1644045
-785.07336 913.89752 2043.2455 4604472
0 0 0 0
-724.58325 870.32886 1945.8368 2433042
-720.1073 878.94049 1965.0903 3814693
-700.89752 869.55603 1944.109 6314572
-705.27655 889.61212 1988.9493 986113
-677.43213 869.01349 1942.896 4406571
-666.24438 869.43927 1943.8479 2498830
-661.43304 878.3476 1963.7646 1577988
-646.53442 873.93958 1953.9095 1709829
-626.90833 862.86414 1929.1477 1117700
-620.81049 870.3432 1945.8689 5788220
-600.08661 857.21222 1916.5112 3551258
-591.00574 860.52728 1923.923 2695436
-583.77899 866.72565 1937.7809 3353620
-584.12714 884.64465 1977.8433 3023887
-565.17224 873.46484 1952.8481 1578249
-556.89325 878.66211 1964.468 4603946
-537.23175 865.73865 1935.5742 1643009
-538.23639 886.28094 1981.5017 393472
-526.71356 886.65125 1982.3295 327936
-512.72131 882.78668 1973.6893 590848
-504.56088 889.01709 1987.619 3222560
-496.1041 895.01068 2001.0192 855048
-485.35132 897.0542 2005.5881 1578505
-472.51004 895.24347 2001.5397 6841425
-458.12988 890.34869 1990.5963 3946275
-442.42255 882.54779 1973.1553 3419928
-425.50516 871.84381 1949.224 5130288
-411.72391 867.14777 1938.7247 6249280
-399.52515 865.61066 1935.2882 5130539
-388.64032 866.91351 1938.201 4143644
-378.11856 869.13037 1943.1573 3353875
-368.89868 874.57288 1955.3254 4275488
-369.35147 904.04382 2021.215 7499346
-359.29434 908.90332 2032.0797 5196076
-341.328 893.39832 1997.4143 5458735
-329.02786 892.1427 1994.6072 3221775
-314.76447 885.27209 1979.2462 2695692
-301.66345 881.2652 1970.2878 2827022
-286.76434 871.47125 1948.391 2497545
-279.01294 883.48865 1975.2589 2628612
-269.41357 890.45074 1990.8243 2299137
-256.5177 886.65613 1982.3406 2825475
-241.97076 876.51636 1959.6705 4009491
0 0 0 0
0 0 0 0
0 0 0 0
0 0 0 0
0 0 0 0
0 0 0 0
0 0 0 0
0 0 0 0
0 0 0 0
0 0 0 0
0 0 0 0
0 0 0 0
0 0 0 0
0 0 0 0
0 0 0 0
0 0 0 0
0 0 0 0
0 0 0 0
0 0 0 0
0 0 0 0
0.68548495 314.38181 702.87878 65537
4.8443217 313.95584 701.92645 4
8.9891224 313.43405 700.75983 259
13.136703 313.30832 700.47876 258
0 0 0 0
0 0 0 0
0 0 0 0
0 0 0 0
0 0 0 0
0 0 0 0
0 0 0 0
0 0 0 0
0 0 0 0
0 0 0 0
0 0 0 0
0 0 0 0
0 0 0 0
0 0 0 0
0 0 0 0
0 0 0 0
0 0 0 0
0 0 0 0
0 0 0 0
277.9104 905.48309 2024.4327 6840399
291.10147 909.21185 2032.7694 7301205
300.48837 901.23468 2014.9346 7497814
315.25543 909.38696 2033.161 2234895
324.68515 902.10974 2016.8909 3681052
336.5723 901.93445 2016.499 4009763
347.13715 898.34937 2008.4836 2825486
360.8783 902.94934 2018.7681 3482644
371.50143 899.70288 2011.5098 7102280
385.53696 904.66541 2022.6049 4668198
399.9375 910.15948 2034.8881 6444355
415.25366 917.35455 2050.9746 3154707
427.58276 917.72937 2051.8125 2693905
442.84027 924.19482 2066.2676 852994
452.45383 918.85065 2054.3193 1314826
461.67355 913.00751 2041.2555 5194291
475.52515 916.38898 2048.8157 9268050
481.80249 905.36896 2024.1779 3872524
492.81543 903.56714 2020.1493 5125149
510.25464 913.35382 2042.0298 7826512
520.35974 909.86298 2034.2252 1839621
536.758 917.28485 2050.8186 2168329
545.60242 911.75494 2038.4552 7299401
550.79987 900.5022 2013.2968 5457195
571.68347 914.82806 2045.3259 5391402
585.58966 917.62543 2051.5801 7562314
595.90155 914.7912 2045.2434 4273691
607.73486 914.35913 2044.2775 6773055
615.93536 908.58496 2031.3679 5194282
623.17603 901.64337 2015.8483 5852471
633.38074 899.17102 2010.3206 2760205
654.08636 911.42206 2037.7108 3945505
667.1131 912.72284 2040.6193 3945506
676.13367 908.59393 2031.3879 1380355
693.30359 915.36902 2046.5354 460032
705.77191 915.81042 2047.5221 4669228
720.14984 918.67285 2053.9219 6116419
731.22668 917.29901 2050.8503 7300693
745.38141 919.76813 2056.3706 7037777
756.03894 917.9118 2052.2205 6906446
772.88647 923.51062 2064.7378 8485993
781.40082 919.13287 2054.9504 4339237
795.7442 921.64081 2060.5574 4472113
805.01068 918.28156 2053.0471 7761498
800.11407 899.10699 2010.1776 4864796
805.66461 892.0625 1994.4279 4667930
818.96423 893.67786 1998.0393 5785894
836.15668 899.43445 2010.9095 5917737
849.18829 900.61646 2013.5522 6312240
858.21539 897.57751 2006.7581 2956805
876.59082 904.2652 2021.71 7298631
881.0675 896.62817 2004.6356 4075544
889.54926 893.21606 1997.0068 6511685
897.38989 889.25818 1988.1582 4667428
919.99347 899.84259 2011.8221 4206878
944.17615 911.68079 2038.2893 5457200
961.77911 916.94696 2050.0632 3352849
969.78473 913.04584 2041.3413 5260070
985.20758 916.13812 2048.2549 5917996
1002.5458 920.91455 2058.9338 5261096
1012.6409 919.00269 2054.6594 7893074
1010.2656 905.95355 2025.4847 6577216
1028.8933 911.82422 2038.61 7432530
1033.5609 905.33026 2024.0913 8879976
1037.4474 898.30908 2008.3936 8748903
1036.7877 887.55542 1984.3511 6511683
1104.8232 935.19073 2090.8516 7565143
1103.9666 924.10156 2066.0591 7235660
1108.2488 917.51013 2051.3223 5656114
1127.2329 923.10132 2063.8228 6380097
1132.9456 917.82098 2052.0173 4800807
1142.5111 915.74097 2047.3668 8221530
1126.9233 893.75562 1998.2133 7365964
1146.161 899.56018 2011.1908 6708290
1171.6592 910.1084 2034.7738 7563854
1182.3623 909.06622 2032.4438 7433552
1193.5889 908.4436 2031.0518 8419161
1189.252 896.1062 2003.4685 7563341
1218.7374 909.24603 2032.8458 6708032
1219.4502 900.87274 2014.1252 5129000
1218.8716 891.71704 1993.6555 8879204
1244.5714 901.77771 2016.1486 9076838
1251.4779 898.15936 2008.059 7629391
1280.5518 910.36847 2035.3555 8353118
1281.7949 902.74902 2018.3202 5721143
1296.0798 904.37061 2021.9456 7827292
1325.5695 916.47473 2049.0073 5656124
1340.056 918.08044 2052.5974 5786680
1372.5151 931.85956 2083.4041 6707783
1370.2041 921.99652 2061.3528 4536869
1403.5919 936.11688 2092.9224 6247486
1400.0765 925.5932 2069.394 5063209
1411.703 925.17548 2068.4602 5326380
1431.5325 930.09479 2079.4585 4536610
1427.8145 919.76135 2056.3555 6313279
1433.1769 915.40283 2046.6108 8944998
1451.8177 919.52734 2055.8323 6445120
1470.3597 923.52118 2064.7615 6576451
1500.2368 934.50983 2089.3293 8287324
1492.7646 922.2439 2061.9058 7826773
1525.5062 934.81989 2090.0225 9142378
1504.0378 914.24115 2044.0138 7826261
1525.4684 919.8595 2056.575 7958105
1533.3402 917.27759 2050.8025 8155229
1552.708 921.55951 2060.3757 7432278
1556.8923 916.83307 2049.8086 7497815
1597.5115 933.46979 2087.0042 7432022
1590.9712 922.50604 2062.4919 8748396
1605.4054 923.77856 2065.3369 6906192
1616.3134 923.01807 2063.6367 8024159
1618.0256 917.05713 2050.3096 8484197
1595.699 897.66193 2006.9468 9011053
1665.6263 930.06738 2079.3972 6839628
1696.1464 940.15375 2101.9478 7234385
1693.441 931.81104 2083.2954 8287070
1708.9995 933.5658 2087.2188 7628366
1720.5905 933.14374 2086.2751 7759950
1723.6082 928.11121 2075.0237 6707262
1718.0637 918.57202 2053.6965 5522476
1735.9698 921.61707 2060.5044 6180918
1732.6029 913.40454 2042.1433 4733220
1756.6654 919.66614 2056.1426 6443579
1769.9738 920.25006 2057.4482 7826002
1798.303 928.5824 2076.0771 7037001
1812.4979 929.55255 2078.2461 7893080
1809.7466 921.87726 2061.0862 7695957
1811.0615 916.3623 2048.7561 9933174
1811.6469 910.55414 2035.7705 9208167
1837.0452 917.21161 2050.6548 6050882
1871.8453 928.44495 2075.7698 7827038
1905.1523 938.79578 2098.9116 5655867
1924.0317 941.94897 2105.9614 7367004
1943.7457 945.46741 2113.8279 6116680
1943.6244 939.35449 2100.1609 4669233
1940.5828 931.91705 2083.5325 7103575
1931.3994 921.64276 2060.5618 7037782
1896.8577 899.47278 2010.9954 7169879
1923.9579 906.62726 2026.9911 7959138
1937.0616 907.13843 2028.1338 7959135
0 0 0 0
0 0 0 0
0 0 0 0
0 0 0 0
0 0 0 0
0 0 0 0
0 0 0 0
0 0 0 0
0 0 0 0
0 0 0 0
0 0 0 0
0 0 0 0
-1604.6654 841.46783 1856.7103 3617046
-1594.4117 841.86371 1857.5837 6774857
-1564.8097 831.97772 1835.7704 1183495
-1568.2096 839.62274 1852.6392 2630422
-1558.2493 840.17212 1853.8513 5064501
-1555.1713 844.46643 1863.3268 3222298
-1537.047 840.59344 1854.781 3288088
-1529.8364 842.67621 1859.3767 4011298
-1529.4246 848.5614 1872.3623 3419672
-1517.7311 848.22754 1871.6256 6906955
-1517.4308 854.30298 1885.0312 4933164
-1504.0118 853.02814 1882.2181 4867624
-1501.5173 857.97632 1893.1366 8288603
-1494.7642 860.54749 1898.8098 6380863
-1472.2579 854.01965 1884.406 4735781
-1445.7479 845.05182 1864.6183 5853749
-1426.1079 839.99219 1853.4543 4143131
-1413.1598 838.82629 1850.8817 6248763
-1396.655 835.51447 1843.5742 4603170
-1396.9086 842.2547 1858.4467 3221004
-1392.4277 846.22491 1867.2069 4602659
-1388.104 850.35492 1876.3198 4077089
-1375.592 849.495 1874.4224 4669479
-1363.4695 848.86346 1873.0288 5129776
-1341.082 841.7785 1857.3958 3748635
-1336.1707 845.63647 1865.9084 3945499
-1327.3253 847.0484 1869.0238 3484691
-1321.0741 850.15344 1875.8751 5128998
-1302.2014 845.11993 1864.7688 4339481
-1309.9733 857.44037 1891.954 3089928
-1299.9218 858.2066 1893.6447 7629128
-1263.6826 841.54675 1856.8843 5851947
-1251.6781 840.87463 1855.4015 3812109
-1246.7385 844.979 1864.4579 4206095
-1248.9808 854.06799 1884.5127 4140815
-1225.5322 845.5946 1865.8162 3417352
-1202.7181 837.40875 1847.7538 3088131
-1194.2672 839.16492 1851.6289 4272661
-1180.1045 836.90295 1846.6378 4996643
-1185.2267 848.40308 1872.0129 3943697
-1172.7268 847.38721 1869.7714 3680781
-1165.5859 850.26111 1876.1128 3681553
-1165.8496 858.64386 1894.6095 4339229
-1151.0217 855.96667 1888.7021 3747352
-1134.1217 851.68085 1879.2454 3549716
-1139.2573 864.02191 1906.4761 3287575
-1119.9844 857.91327 1892.9973 4208678
-1107.1837 856.68884 1890.2957 3946275
-1104.3673 863.24377 1904.7593 5986883
-1098.7837 867.74884 1914.6996 2104076
-1088.0204 868.21448 1915.7272 3617055
-1087.3652 876.841 1934.7618 3353628
-1079.047 879.40625 1940.422 3552033
-1077.5767 887.66785 1958.6514 3683618
-1066.3682 888.00006 1959.3843 2894616
-1068.4476 899.52667 1984.818 6249802
-1061.5448 903.66351 1993.9459 6447699
-1036.2026 892.02002 1968.2543 7105633
-1022.5927 890.32593 1964.5165 8619128
-1015.8926 894.67828 1974.1199 7106395
-1002.6071 893.26489 1971.0012 5263934
-1002.0493 903.29138 1993.1248 7106137
-975.45398 889.80585 1963.3688 4539180
-966.19025 891.99536 1968.2001 5263157
-950.96436 888.66681 1960.8555 5526332
-930.67615 880.46655 1942.7616 4605227
-916.30042 877.72461 1936.7114 4275237
-910.20892 882.94922 1948.2395 2893071
-895.26953 879.61475 1940.8821 6380358
-886.09344 881.92987 1945.9905 6907220
-878.68225 886.08575 1955.1604 5920586
-865.63019 884.58832 1951.8563 8026218
-853.68732 884.19916 1950.9976 4999483
-842.52753 884.6214 1951.9293 2894359
-829.53241 883.10168 1948.576 6118214
-820.69495 886.02777 1955.0323 4341034
-818.78833 896.6272 1978.4202 3289118
-802.68787 891.76562 1967.6931 2894105
-771.88885 870.19031 1920.0869 2301973
-778.63629 890.93066 1965.8508 3288863
-767.4505 891.47009 1967.0409 4012585
-754.66229 890.13593 1964.097 2564370
0 0 0 0
-722.91595 879.83105 1941.3593 3222298
-712.64679 881.35938 1944.7316 2432781
-703.33618 884.14288 1950.8733 2235917
-679.54126 868.50726 1916.3732 5130806
-672.21606 873.74762 1927.9362 4276008
-662.6723 876.23572 1933.426 4473902
-650.90552 875.81995 1932.5088 4605231
0 0 0 0
-613.67755 855.84491 1888.4335 3683101
-606.97223 862.21729 1902.4943 2827280
-600.8045 869.60895 1918.8041 788224
-594.14575 876.5614 1934.1448 2103559
-589.24396 886.43054 1955.9211 590848
-569.16711 873.409 1927.189 1709838
-550.1333 861.48749 1900.8839 2300942
-542.60046 867.45416 1914.0496 2499350
-525.61426 858.23987 1893.718 1380612
-527.23865 879.6745 1941.0138 2630680
-516.54517 881.05505 1944.0601 920322
-508.17853 886.55786 1956.2021 3222814
-498.35846 889.72296 1963.1858 5525566
-489.34839 894.51984 1973.7703 3683362
-476.47342 892.31384 1968.9026 4274980
-463.88019 890.53778 1964.9838 5919289
-449.30804 884.77356 1952.2649 4734755
-438.28476 885.87769 1954.7012 6313783
-423.61401 879.46924 1940.5608 6905917
-404.95212 864.18579 1906.8378 5590055
-391.70065 859.9024 1897.3865 5194785
-388.77139 878.69604 1938.8547 4076566
-377.33447 878.81982 1939.1279 5129255
-368.61801 885.48633 1953.8378 3287564
-365.2832 905.93225 1998.952 5656371
-350.85089 899.30359 1984.3257 4340256
-334.21344 886.36676 1955.7805 3419415
-324.06442 890.32678 1964.5183 4406049
-310.68875 885.38672 1953.6179 3945754
-298.89368 884.74292 1952.1973 5196077
-283.54718 873.11151 1926.5325 2630411
-275.78546 884.83929 1952.41 1247744
-267.50461 895.85577 1976.718 524288
-254.54185 891.48389 1967.0713 1773312
-243.69168 894.44623 1973.6079 2101248
-232.4059 896.02789 1977.0978 1970432
0 0 0 0
0 0 0 0
0 0 0 0
0 0 0 0
0 0 0 0
0 0 0 0
0 0 0 0
0 0 0 0
-125.45206 885.41644 1953.6836 5851186
0 0 0 0
0 0 0 0
0 0 0 0
0 0 0 0
0 0 0 0
0 0 0 0
0 0 0 0
0 0 0 0
0 0 0 0
0 0 0 0
0.68687963 319.19531 704.30884 65538
4.8454514 318.18979 702.09009 2
8.9960966 317.83328 701.30347 1
13.137879 317.48792 700.54144 395531
0 0 0 0
0 0 0 0
0 0 0 0
0 0 0 0
0 0 0 0
0 0 0 0
0 0 0 0
0 0 0 0
0 0 0 0
152.99388 888.75818 1961.057 4669993
167.02348 901.75873 1989.743 4931887
179.11166 903.25415 1993.0426 2957331
189.96925 898.74261 1983.088 3287326
203.01964 904.52655 1995.8502 2366993
0 0 0 0
0 0 0 0
237.05531 899.03564 1983.7344 5392181
246.79736 891.75842 1967.6772 4603179
263.1915 908.08966 2003.7124 3090194
275.65341 910.02911 2007.9917 4800299
288.73669 913.7746 2016.2561 5785913
300.51282 913.24994 2015.0984 3614487
312.58859 913.64124 2015.9619 2693642
323.2619 910.05542 2008.0498 5325874
334.78305 909.02631 2005.7791 5654836
343.7814 901.45276 1989.0679 1970180
353.50186 896.21198 1977.5039 3943705
369.47537 906.65173 2000.5396 6180407
382.91769 910.42432 2008.8638 5786164
393.58157 907.5625 2002.5491 3944217
410.24673 918.30157 2026.245 2234122
426.26645 927.02612 2045.4958 1248003
438.35416 926.95361 2045.3358 5919293
444.99347 915.67358 2020.4463 9335645
461.5325 924.8219 2040.6321 7030839
465.25394 908.47467 2004.5619 2164480
479.3382 912.67267 2013.8247 4336403
498.2948 925.71838 2042.6104 5984570
511.46698 927.65405 2046.8813 7102267
521.97339 924.77722 2040.5336 9602672
536.09473 928.28998 2048.2847 2431755
543.54559 920.3526 2030.7706 7036487
545.4054 903.49713 1993.5787 8813152
565.75397 917.33484 2024.1118 5129002
577.76422 917.35846 2024.1641 7761231
590.22174 918.0769 2025.7493 5853234
597.86243 911.42371 2011.0688 8155731
608.72333 909.84363 2007.5825 7892561
616.80243 904.24585 1995.231 3615761
630.15594 906.44586 2000.0852 3550480
647.92517 914.79895 2018.5165 4669733
670.03259 928.86328 2049.5496 4538407
678.4303 923.75952 2038.288 2960404
687.33228 919.50885 2028.9088 3223830
701.98114 922.96039 2036.5248 5327667
714.40668 923.42133 2037.5419 3682069
716.77014 911.07733 2010.3046 7168328
733.2699 916.81146 2022.9572 3944223
751.12427 924.02765 2038.8796 3615253
761.87207 922.41132 2035.3132 7431760
778.67377 928.06067 2047.7786 5260080
784.4483 920.59564 2031.307 4668196
784.62811 906.88977 2001.0647 6707779
793.24158 903.1947 1992.9115 5851949
794.36444 891.2041 1966.4542 5260065
808.19702 893.61353 1971.7704 4009486
830.96637 905.69446 1998.4272 7496517
844.10638 907.08813 2001.5024 4338714
848.27185 898.93268 1983.5072 4799008
867.09229 906.31812 1999.8032 6839107
875.185 902.44244 1991.2517 3944988
882.26953 897.64429 1980.6643 7234888
890.65436 894.27759 1973.2357 3155481
914.81818 906.63599 2000.5046 3746840
926.81189 906.7713 2000.8033 5786680
939.50342 907.57733 2002.5818 6248258
952.56238 908.71368 2005.0892 4536856
989.15881 931.99945 2056.4695 5589547
989.93048 921.37469 2033.0258 5589805
996.75647 916.57257 2022.4299 7761232
1008.4598 916.31628 2021.8644 8484443
1016.9881 913.21503 2015.0214 7892049
1029.8458 914.02832 2016.8159 7694414
1035.4121 908.42554 2004.4534 6905667
1027.4836 891.24469 1966.5437 5918514
1053.0786 903.20135 1992.9263 7300688
1077.0499 913.51569 2015.6849 7038026
1106.4591 928.16547 2048.0098 8419165
1118.9813 928.48511 2048.7151 5787700
1137.993 934.12494 2061.1594 8879971
1124.1208 912.93872 2014.4117 7695184
1130.075 908.13013 2003.8015 7958099
1129.6184 898.32355 1982.1632 6247738
1128.7526 888.39667 1960.2595 6905411
1187.6853 925.25763 2041.5938 6446665
1187.554 915.82599 2020.7825 8156506
1194.1368 911.70862 2011.6976 8418909
1196.4587 904.45172 1995.6852 6905669
1213.848 908.61542 2004.8724 7892311
1220.6 904.81311 1996.4825 7826260
1230.8094 903.62213 1993.8547 7365452
1247.2062 906.95331 2001.205 6839365
1258.8151 906.77264 2000.8063 6444609
1275.1024 909.9342 2007.7822 6773574
1290.7764 912.60339 2013.672 5787191
1313.4125 920.10107 2030.2157 4800555
1335.6423 927.1806 2045.8368 6510398
1360.1736 935.716 2064.6702 5852987
1375.9209 938.11029 2069.9531 6707782
1396.837 943.9552 2082.8501 6051133
1394.6603 934.2287 2061.3884 7300690
1403.6239 932.06879 2056.6226 7629912
1411.6906 929.35559 2050.636 7037773
1415.266 923.75726 2038.2832 6774345
1432.6111 927.16522 2045.8029 7235411
1444.2948 926.88281 2045.1796 7498324
1466.9915 933.61389 2060.0317 6904903
1458.88 920.78882 2031.7332 8616291
1487.0088 930.86005 2053.9553 8287069
1492.5142 926.72046 2044.8215 8352861
1478.7715 910.7926 2009.6764 7892310
1491.1758 911.09473 2010.343 7563091
1529.0789 926.84814 2045.1031 8023898
1530.8074 920.59906 2031.3145 6313280
1557.5753 929.38831 2050.708 7760728
1571.1797 930.24762 2052.604 8418403
1577.9581 927.08337 2045.6222 8221278
1584.8126 924.01172 2038.8446 5392693
1596.274 923.65228 2038.0514 7366482
1610.6627 924.97931 2040.9795 7103311
1605.4755 915.12817 2019.2429 6050365
1608.244 909.92419 2007.7603 6510918
1647.1823 925.1106 2041.2693 7498069
1662.2295 926.75549 2044.8987 6115899
1667.8451 923.15613 2036.9567 7563599
1698.6675 933.46027 2059.6929 7431501
1701.146 928.15277 2047.9818 7233352
1713.8433 928.4563 2048.6516 7365451
1711.0151 920.40424 2030.8845 6576449
1713.4121 915.25555 2019.5239 6576191
1735.9084 920.84039 2031.8469 6772546
1750.9821 922.43805 2035.3722 4075805
1768.7046 925.3996 2041.9069 5786165
1761.2195 915.2218 2019.4493 2299917
1766.201 911.61584 2011.4928 3812122
1771.373 908.15594 2003.8586 8155742
1811.4773 922.5321 2035.5798 9998712
1816.363 918.901 2027.5677 7761239
1861.3282 935.46063 2064.1067 7629654
1889.8278 943.58276 2082.0283 7760472
1889.3699 937.23505 2068.022 9668468
1925.6184 949.06018 2094.1143 7497555
1919.974 940.21881 2074.6057 7958363
1894.3563 921.77118 2033.9008 8550757
1880.054 909.02789 2005.7825 7432788
1892.9521 909.51392 2006.8549 8156769
1904.5244 909.36066 2006.5168 4537642
1913.8158 908.1272 2003.795 7366741
0 0 0 0
0 0 0 0
0 0 0 0
0 0 0 0
0 0 0 0
0 0 0 0
0 0 0 0
0 0 0 0
0 0 0 0
0 0 0 0
0 0 0 0
0 0 0 0
-1578.1812 838.40149 1826.0663 5392949
-1568.7377 839.13867 1827.6719 1709318
-1561.575 841.11469 1831.9756 4603693
-1561.4167 846.91754 1844.6145 4669486
-1541.022 841.74847 1833.3561 4143142
-1525.0327 838.92957 1827.2163 3551260
-1514.9017 839.31598 1828.058 4669480
-1519.5793 847.97156 1846.9102 4143139
-1514.313 851.16357 1853.8624 7301716
-1502.7806 850.85437 1853.1891 7169871
-1475.2117 841.39423 1832.5845 6314815
-1467.5582 843.23682 1836.5978 6116924
-1476.323 854.61108 1861.3712 5525298
-1467.3573 855.81555 1863.9946 7367245
-1449.7877 851.98212 1855.6454 5919542
-1420.6981 841.26855 1832.3109 4735270
-1408.2729 840.33386 1830.275 4801064
-1406.4198 845.742 1842.0541 5787958
-1385.6353 839.76147 1829.0282 2695435
-1391.3929 849.89917 1851.1086 2761487
-1383.2467 851.63776 1854.8954 3419157
-1354.1525 840.40363 1830.427 1643011
-1357.5482 849.31458 1849.8353 7827288
-1358.3381 856.72711 1865.98 3221778
-1328.5338 844.80652 1840.0166 3024137
-1319.4253 845.95789 1842.5243 5129255
-1314.5781 849.88342 1851.0743 4668446
-1298.5638 846.59473 1843.9115 4602138
-1275.4637 838.59149 1826.4801 4141842
-1268.4318 841.10608 1831.9569 4338452
-1260.6947 843.19257 1836.5012 4206868
-1249.1997 842.77991 1835.6027 3877901
-1242.5148 845.63379 1841.8185 4338451
-1235.0326 847.99084 1846.9521 4535574
-1223.0164 847.24902 1845.3364 3220229
-1220.8059 853.34814 1858.6205 3351816
-1188.7216 838.48608 1826.2506 4931102
-1184.8102 843.40607 1836.9663 3286279
-1182.7216 849.72668 1850.7328 4141845
-1170.2249 848.6181 1848.3182 4602398
-1148.8578 840.99506 1831.715 2892041
-1157.4342 855.35516 1862.9919 3747091
-1144.8075 854.17151 1860.4139 1840389
-1140.4701 859.21008 1871.3881 4536868
-1123.9069 855.04626 1862.3191 3353621
-1116.1384 857.55731 1867.7882 4274983
-1108.6399 860.328 1873.8229 4274981
-1107.6405 868.24921 1891.0756 5657144
-1084.0688 858.4577 1869.7494 5394228
-1081.4202 865.2038 1884.4425 5525555
-1074.7644 868.8512 1892.3867 6183486
-1071.9797 875.73804 1907.3864 5328946
-1058.8781 874.2533 1904.1527 8025698
-1032.2595 861.45648 1876.2809 6249803
-1019.6995 860.24115 1873.6337 5986631
-1026.58 875.57983 1907.0419 3157533
-1044.9788 901.19342 1962.8291 1512973
-1029.4227 897.77148 1955.376 2827801
-1015.3339 895.56543 1950.5713 3025179
-1000.4553 892.60419 1944.1216 4407086
-981.6333 886.01471 1929.7694 3749668
-970.23981 886.05371 1929.8544 5262393
-959.44458 886.64648 1931.1455 6512458
-955.4278 893.59338 1946.2761 3354133
-927.86823 878.42194 1913.2321 4735787
-911.66217 873.75641 1903.0704 3813919
-902.09698 875.41864 1906.6908 1511172
-894.17798 878.74072 1913.9264 1708039
-883.64941 879.55072 1915.6906 1116933
-873.82208 881.08881 1919.0406 3550752
-857.64349 876.17914 1908.3472 5919550
-864.94293 895.44397 1950.3066 5590581
-840.07556 881.47845 1919.8894 4867370
-831.9729 884.96228 1927.4771 4341283
-822.96832 887.57007 1933.1571 3683616
-811.89929 887.99359 1934.0796 4407599
-798.11157 885.41321 1928.4594 2302229
-780.62921 878.59955 1913.619 3551783
-772.63623 882.42279 1921.946 4538933
-766.97858 889.06744 1936.4183 2696730
-765.70343 901.07117 1962.563 4078632
-745.84808 891.2431 1941.157 2696977
-736.91425 894.36206 1947.9503 4604202
-720.72498 888.63458 1935.4756 5130799
-710.15167 889.75806 1937.9225 3814939
-689.70935 878.35028 1913.076 5525810
-676.87982 876.41815 1908.8678 6118205
-661.77765 871.42773 1897.9984 4078112
-649.95483 870.65765 1896.3213 3682845
-639.10895 871.19214 1897.4854 788741
-625.78503 868.3075 1891.2025 2761742
-610.17664 862.08997 1877.6604 2630419
-604.0564 869.29559 1893.3546 2169606
-596.37866 874.49036 1904.6691 6841166
-586.44415 876.51257 1909.0735 2433817
-574.19049 875.07983 1905.9529 8946536
-559.54236 869.86719 1894.5996 2630934
-548.94354 870.86511 1896.7731 5788477
-537.17517 870.01044 1894.9115 1709580
-521.51544 862.68231 1878.9506 1249289
-507.76041 858.25372 1869.3052 1249544
-507.52121 876.98279 1910.0975 4735793
-501.04712 885.54681 1928.7502 4143398
-490.70947 887.52283 1933.0541 4143654
-482.8605 894.20203 1947.6017 3617309
-469.43631 890.63086 1939.8236 4736300
-459.27255 893.22156 1945.4661 6644292
-441.41458 880.59613 1917.9675 6248755
-429.34122 879.14819 1914.814 5194528
-416.28992 875.56488 1907.0093 4337688
-400.69836 866.28967 1886.8077 3943185
-393.86896 875.96906 1907.8896 2956807
-381.26697 873.00287 1901.4292 3417870
-369.59207 872.04346 1899.3396 3418132
-365.1825 888.70459 1935.6281 2036228
-356.95163 896.84534 1953.3589 5392176
-345.35641 896.79541 1953.2502 4931625
-332.18704 892.51282 1943.9225 3286802
-319.3143 888.74799 1935.7225 2826250
-307.5769 887.98029 1934.0505 3682072
-297.85336 893.19226 1945.4025 3156239
-283.67374 884.92328 1927.3922 4209444
-272.20074 884.758 1927.0322 2959379
-263.4715 893.88702 1946.9155 919296
-252.54669 896.06207 1951.6528 919552
-242.54523 901.87939 1964.3231 2366734
-230.70921 901.11768 1962.6641 2958609
0 0 0 0
0 0 0 0
0 0 0 0
0 0 0 0
0 0 0 0
0 0 0 0
0 0 0 0
-135.2151 885.11414 1927.8079 4141597
-123.39719 882.30194 1921.6829 6115642
-111.42114 877.67218 1911.5991 3944218
-102.77347 901.17963 1962.7991 2957072
-91.219215 901.948 1964.4727 4667944
0 0 0 0
0 0 0 0
0 0 0 0
0 0 0 0
0 0 0 0
0 0 0 0
0 0 0 0
0 0 0 0
4.8750687 324.32086 706.38159 2
9.0356531 323.40515 704.38715 256
13.178553 322.63525 702.71027 2171419
0 0 0 0
0 0 0 0
0 0 0 0
0 0 0 0
0 0 0 0
0 0 0 0
0 0 0 0
0 0 0 0
141.82152 903.24121 1967.2893 6380094
154.70193 910.43182 1982.9507 4208155
164.58562 900.21625 1960.7008 2892560
177.88182 908.78223 1979.3578 2892560
187.8745 900.45502 1961.2209 3418135
202.35226 913.34204 1989.2893 5720373
213.25616 909.56726 1981.0676 7101767
223.6945 904.3042 1969.6045 5259823
235.60178 905.20697 1971.5708 2102025
249.63979 913.82422 1990.3395 1313280
260.39334 910.18341 1982.4095 3023888
273.74875 915.55884 1994.1174 6576711
284.71683 912.83527 1988.1854 6576453
298.47098 918.90558 2001.4069 5063215
309.56998 916.65002 1996.4941 1312768
322.52188 919.84503 2003.453 5918261
332.72089 915.24048 1993.4242 7168328
338.59006 899.44971 1959.0314 3614484
349.89987 898.67969 1957.3541 7101762
363.54172 903.75641 1968.4115 2168329
376.84546 907.70319 1977.0076 4141596
390.75287 912.82202 1988.1567 1971207
402.73721 913.28027 1989.1547 6247228
412.23767 908.24005 1978.177 4071700
431.53119 924.45795 2013.5001 7558457
435.04382 906.90582 1975.2709 3941908
442.26828 897.80853 1955.4568 5915437
460.27469 910.50433 1983.1085 4600606
487.76535 940.86237 2049.2295 8088924
498.89313 938.94952 2045.0631 2761237
512.4953 941.67383 2050.9968 8090457
522.1778 937.23676 2041.3326 4602410
533.15887 935.27838 2037.0674 4076317
544.14148 933.40948 2032.9968 6115641
541.93829 909.49286 1980.9056 8221528
557.30524 915.4519 1993.8845 8484186
566.79767 911.71399 1985.7434 4865314
581.96808 917.07568 1997.4213 6312759
592.40283 914.90991 1992.7041 8089171
595.23669 901.31927 1963.1031 7234117
608.8692 904.28772 1969.5686 4339481
628.1474 915.37189 1993.7102 3812627
647.5766 926.26257 2017.4305 4076312
655.54803 920.66693 2005.2432 4537635
651.33014 898.45642 1956.8678 3945754
675.39337 915.35199 1993.6669 5327407
689.02106 917.76654 1998.926 8155482
701.8833 919.09723 2001.8242 4734246
711.78113 916.56641 1996.3119 7234124
724.23206 917.35217 1998.0234 4733987
728.38513 907.77124 1977.1558 4076057
718.60376 881.40234 1919.7236 8089688
739.57245 892.98413 1944.949 4536871
764.22955 908.59546 1978.951 7826257
765.81409 896.71844 1953.0825 4997158
766.26184 883.88397 1925.1285 5852976
792.77563 901.052 1962.5211 6313269
806.49744 903.39471 1967.6237 5786925
821.28149 906.84357 1975.1355 6115897
835.91467 910.03143 1982.0786 5523757
841.24567 903.14417 1967.0779 2234114
861.75983 912.52277 1987.5048 7103046
865.79901 904.43811 1969.8962 3483926
875.8385 902.7533 1966.2267 8681569
894.36725 909.74811 1981.4614 4668200
910.802 914.45917 1991.7223 5128493
928.82483 920.62372 2005.1489 6773832
936.15771 916.17078 1995.4503 4734768
944.55292 912.85553 1988.2297 8089435
966.39331 922.45612 2009.1399 6643016
975.93896 920.22992 2004.2913 8221785
974.2486 907.59003 1976.7612 7958869
984.23022 905.99469 1973.2864 7366221
1009.5346 918.37598 2000.2533 6641985
1012.4049 910.2984 1982.6602 7299915
1030.7168 916.1311 1995.3639 9471853
1030.6847 905.71167 1972.6702 4668450
1043.1074 906.34802 1974.056 6379583
1046.2755 899.01813 1958.0912 8353373
1070.1333 909.43158 1980.7721 6116154
1107.0027 930.55688 2026.7837 7761234
1115.1929 927.37939 2019.8632 9076837
1113.0098 915.73474 1994.5007 8484700
1108.7511 902.64508 1965.9908 7432012
1122.7622 904.54651 1970.1324 6576703
1128.5295 899.83575 1959.8721 7892820
1149.8276 907.47827 1976.5178 9668974
1193.2113 932.22137 2030.4092 8550493
1174.9569 908.79535 1979.3864 7694930
1191.5811 912.54303 1987.5491 7628882
1197.6615 908.22198 1978.1377 7760211
1210.2384 908.8634 1979.5345 7892310
1228.6338 913.82007 1990.3304 9602929
1234.579 909.5105 1980.944 3615766
1255.5156 916.22217 1995.5623 7169098
1265.0831 914.58923 1992.0056 5852472
1291.4075 924.98889 2014.6565 1840136
1311.1544 930.53003 2026.7252 4339751
1322.7661 930.24933 2026.1139 3550233
1341.0112 934.5968 2035.5828 3551522
1378.7927 952.3609 2074.2737 6248260
1379.6621 944.54034 2057.2402 5064759
1394.4399 946.29541 2061.0627 5591098
1395.0779 938.50769 2044.1008 8551013
1393.7799 929.56287 2024.6187 7630165
1401.2451 926.56537 2018.0902 7366991
1420.7593 931.51837 2028.8781 5129516
1426.5996 927.49847 2020.1224 6313277
1451.1907 935.63464 2037.8433 8418654
1464.1626 936.20703 2039.09 9273706
1455.1155 922.80603 2009.9022 7234381
1465.6416 921.93488 2008.0048 7497037
1477.3539 921.81781 2007.7498 6838593
1488.2864 921.21991 2006.4476 6443837
1483.6857 911.09314 1984.391 5326125
1491.7529 908.84332 1979.4908 5589812
1535.9999 928.49902 2022.3016 8813928
1556.3912 933.54144 2033.2843 6774602
1556.3645 926.35364 2017.6289 6379330
1565.3191 924.5802 2013.7664 7760728
1582.3632 927.57568 2020.2906 7892314
1605.2957 933.95203 2034.1786 7169360
1601.5461 924.82568 2014.3009 6971981
1604.01 919.39569 2002.4742 6906187
1615.0011 918.89722 2001.3887 7564118
1631.1174 921.30103 2006.6241 8287580
1644.9662 922.39844 2009.0143 7630162
1630.3805 907.65027 1976.8925 8353115
1664.4886 920.02759 2003.8505 7365706
1685.1425 924.8454 2014.344 10129011
1694.87 923.64105 2011.7209 8287067
1704.8524 922.59155 2009.4351 7300172
1713.8242 921.01343 2005.9978 7168583
1717.7347 916.75592 1996.7247 9603179
1728.056 915.95459 1994.9795 6116151
1731.7435 911.67188 1985.6516 1643015
1719.1372 898.92712 1957.8929 5194791
1727.4631 897.2251 1954.1859 7563600
1780.2682 918.49371 2000.5098 7694932
1789.0221 916.90417 1997.0476 7037002
1815.7534 924.48859 2013.5669 6905418
1857.2828 939.45935 2046.1736 7958105
1869.2087 939.35876 2045.9545 7300176
1868.5939 932.9978 2032.1001 8287071
1864.24 924.86334 2014.3831 7497555
1866.1803 919.93518 2003.6493 8747622
1869.3931 915.69257 1994.4087 6313279
1887.4612 918.73419 2001.0336 7694931
1896.0725 917.16345 1997.6123 6510399
1903.1926 914.89539 1992.6725 6444608
0 0 0 0
0 0 0 0
0 0 0 0
0 0 0 0
0 0 0 0
0 0 0 0
0 0 0 0
0 0 0 0
0 0 0 0
0 0 0 0
0 0 0 0
0 0 0 0
-1557.9645 838.34442 1802.674 3353107
-1554.9474 842.49805 1811.6055 4998191
-1543.7036 842.22101 1811.0096 4472359
-1515.5479 832.6485 1790.4261 3485207
-1505.0826 832.72882 1790.5989 3879707
-1512.0438 842.52045 1811.6536 6445635
-1499.5732 841.54718 1809.5608 4011293
-1501.4021 848.64246 1824.8175 4603431
-1512.1904 860.94147 1851.2639 4998189
-1481.4612 849.61029 1826.8986 4997676
-1474.3165 851.7373 1831.4724 4669736
-1461.8389 850.79224 1829.4402 4142879
-1456.6921 854.13141 1836.6204 4537635
-1451.0811 857.24658 1843.3188 4932137
-1429.9454 851.16809 1830.2484 4932650
-1415.625 849.08441 1825.7679 6248255
-1405.0127 849.2099 1826.0376 2695179
-1386.592 844.58124 1816.0847 2629641
-1378.7874 846.39697 1819.9891 3353366
-1371.6771 848.67096 1824.8788 2695952
-1383.6394 862.87524 1855.422 1774594
-1358.0352 853.69183 1835.6752 4208675
-1342.8306 850.9505 1829.7805 6643266
-1344.1067 858.69336 1846.4299 6116925
-1314.7917 846.85956 1820.9839 5656371
-1297.2092 842.44916 1811.5004 4866080
-1272.6311 833.38422 1792.0082 4208150
-1268.1099 837.4115 1800.668 4799516
-1268.2977 844.64337 1816.2184 3549195
-1278.4663 858.70258 1846.4496 3877903
-1256.6475 851.33417 1830.6055 2957068
-1221.9562 835.04083 1795.5704 4141075
-1220.2535 841.20264 1808.8199 3812626
-1218.1838 847.21838 1821.7554 3286022
-1207.8147 847.51794 1822.3995 2232832
-1194.9436 846.05145 1819.2463 2167040
-1177.9242 841.59448 1809.6626 3417099
-1174.2034 846.64435 1820.5212 3417610
-1166.043 848.55707 1824.634 4075285
-1144.0255 840.32721 1806.9375 2694407
-1140.7266 845.82098 1818.7506 2760199
-1137.8298 851.72083 1831.4369 2299651
-1132.1014 855.59418 1839.7656 1971202
-1126.3735 859.54315 1848.2572 3418391
-1114.8866 859.13171 1847.3726 1510404
-1102.7369 858.19653 1845.3616 3353628
-1097.2911 862.51208 1854.6412 7828576
-1090.7626 866.05524 1862.2599 4275232
-1082.0127 867.88904 1866.203 5262381
-1073.6854 870.10321 1870.9641 6840898
-1048.9907 858.96118 1847.0057 5656625
-1042.1715 862.37579 1854.3481 7498574
-1027.0135 858.88959 1846.8518 3945503
-996.91052 842.69513 1812.0291 5196086
-1005.8276 859.49091 1848.1449 1117955
-1002.6677 866.22302 1862.6207 9078386
-997.47815 871.33215 1873.6068 6447695
-992.5896 876.8222 1885.4119 4473393
-990.90387 885.29865 1903.6387 5854532
-980.92114 886.47223 1906.1622 4998964
-973.99194 890.46484 1914.7474 5525559
-956.58496 884.8595 1902.6942 4603945
-955.00946 893.93933 1922.2186 1840645
-930.9306 881.91986 1896.3734 2761489
-919.11566 881.36707 1895.1846 5525048
-898.87476 872.62054 1876.3772 7367510
-876.36047 861.42035 1852.2936 1051652
-860.8006 856.85858 1842.4845 853504
-851.69507 858.68689 1846.4159 590080
-836.6922 854.53967 1837.4982 1380097
-858.23224 888.09747 1909.657 3946017
-849.63177 890.94617 1915.7823 4143650
-833.26355 885.61627 1904.3215 5920315
-818.7309 882.11768 1896.7986 2630929
-809.13043 883.90961 1900.6517 5788739
-799.09235 885.26727 1903.5712 3223329
-787.3454 884.74371 1902.4453 4275755
-759.73889 866.12451 1862.4088 5459770
-755.56244 874.0611 1879.4746 5196855
-755.54327 887.11633 1907.5471 4670254
-741.8396 884.25665 1901.3981 6841162
-729.32941 882.75323 1898.1654 5525041
-720.43445 885.64709 1904.3878 5261868
-711.97211 889.17328 1911.9701 5920055
-700.41718 888.88873 1911.3583 5591089
-683.49896 881.67651 1895.85 2564619
-662.54761 868.93372 1868.4495 3353360
-661.34131 882.09369 1896.7471 3813657
-652.04321 884.72919 1902.4142 1575938
-636.62366 879.00555 1890.1067 1182976
-627.14825 881.43109 1895.3221 3814429
-607.64154 869.58929 1869.8591 2696731
-593.87891 865.68066 1861.4545 2696209
-584.8905 868.7149 1867.979 7564893
-575.43799 871.16382 1873.2448 8420199
-563.65747 870.11523 1870.99 3288339
-555.75989 875.13892 1881.7924 4604200
-538.07532 864.64148 1859.22 7171152
-534.64764 877.09363 1885.9955 2763282
-518.15131 868.18054 1866.8298 5328694
-507.53802 868.95093 1868.4865 5328954
-502.00497 878.64752 1889.3368 6578509
-487.43909 872.61584 1876.3669 3223320
-482.56653 884.06061 1900.9766 3684132
-468.87241 879.50513 1891.181 5854270
-456.71481 877.6795 1887.2554 5590319
-448.53113 883.59052 1899.9657 6050098
-439.50696 888.1076 1909.6787 5062686
-426.48224 884.56604 1902.0632 1838592
-404.85291 862.50079 1854.6168 3680782
-394.56131 864.03198 1857.9094 3154184
-386.22751 870.06152 1870.8746 1838849
-372.57361 864.10864 1858.0742 1773318
-361.84015 864.77277 1859.5022 327936
-354.26294 873.25879 1877.7496 984321
-346.77078 882.51166 1897.6458 3352861
-340.70715 896.14221 1926.9553 196864
-330.10196 898.35834 1931.7207 1313280
-320.96286 904.86719 1945.7164 1774600
-305.31717 892.83386 1919.8413 2695437
-293.01205 890.01593 1913.782 4208674
-282.30884 892.03271 1918.1187 2958609
-271.89667 895.17682 1924.8794 2103305
-259.09012 890.36816 1914.5394 721408
-246.56772 886.14008 1905.448 919296
-240.14287 904.47211 1944.8668 393984
0 0 0 0
0 0 0 0
0 0 0 0
0 0 0 0
0 0 0 0
0 0 0 0
0 0 0 0
0 0 0 0
-133.85429 887.51587 1908.4062 7301204
-122.59231 887.8609 1909.1482 3551777
-112.13774 894.7182 1923.8933 5722423
-101.88586 904.92804 1945.8473 5261619
-90.663109 908.02032 1952.4966 5524789
-79.049622 907.53149 1951.4454 7366481
-67.079079 902.07355 1939.7094 393472
0 0 0 0
0 0 0 0
0 0 0 0
0 0 0 0
0 0 0 0
0 0 0 0
4.8507733 326.86984 702.86121 2
8.994195 326.07648 701.15521 65536
13.152756 326.15994 701.33466 2368025
0 0 0 0
0 0 0 0
0 0 0 0
0 0 0 0
0 0 0 0
104.30633 893.15485 1920.5317 5787447
117.84689 909.82385 1956.3746 6510910
131.16257 921.92596 1982.3976 6576697
142.75931 920.94958 1980.298 4931366
152.82686 911.00586 1958.9163 5655092
163.64168 906.6062 1949.4557 1051138
176.85277 915.18707 1967.9071 4141857
188.96104 917.35254 1972.5634 1838849
198.54604 907.72937 1951.871 1248257
210.23758 908.26654 1953.026 6313022
222.86024 912.56042 1962.259 3155476
234.79094 913.73547 1964.7858 2234378
248.25162 920.47229 1979.2719 2300680
258.32886 914.62213 1966.6921 4735274
270.3999 916.03137 1969.7225 6577217
283.97034 922.19342 1982.9725 5919802
296.19104 923.65643 1986.1185 3879453
307.47507 922.19849 1982.9835 4998188
320.33771 925.40808 1989.8851 6379328
328.16507 914.36017 1966.129 5259818
338.6058 911.10187 1959.1227 2891016
349.23328 908.54523 1953.6252 6048562
363.0509 914.18579 1965.754 5324326
375.44321 915.99811 1969.651 3941904
387.99084 918.06879 1974.1034 4861463
394.87332 907.00543 1950.3143 5913380
401.50464 896.01093 1926.6731 6374189
417.23355 905.36554 1946.7881 3282953
428.70728 905.23175 1946.5004 8746333
442.05389 908.95612 1954.5087 7759953
447.79828 897.25757 1929.3536 5523508
474.51379 927.1153 1993.5562 4733736
489.76193 933.66168 2007.6324 6773320
507.52164 944.57172 2031.0923 5655353
512.88538 932.44012 2005.006 4668457
522.10327 927.7063 1994.8268 9800306
534.75427 929.14697 1997.9248 7168584
538.07202 914.65991 1966.7736 8089684
548.50623 912.62787 1962.4041 5721139
564.63641 919.96063 1978.1715 3878423
575.77118 919.02167 1976.1525 4799008
591.56946 925.41541 1989.9008 7364930
592.87738 909.33435 1955.322 6641205
606.83453 912.89899 1962.9871 5522728
613.61945 905.74274 1947.599 3877649
622.44464 901.80676 1939.1357 4799266
646.03259 919.01428 1976.1366 4075543
642.86078 898.21967 1931.4224 3155216
672.27618 922.88763 1984.4653 6379583
686.13379 925.71716 1990.5497 6905671
691.3653 917.00964 1971.826 7695443
697.24115 909.43207 1955.5321 3286805
706.87665 906.92572 1950.1429 10392443
721.44958 910.73303 1958.3297 7892054
728.72388 905.35205 1946.759 5787197
729.13989 891.75104 1917.5131 7760726
749.62866 902.74005 1941.1425 7563600
756.30402 897.01349 1928.8287 5523500
774.70905 905.16223 1946.3508 5721132
799.17041 920.04431 1978.3516 4866079
804.08698 912.32031 1961.7428 6708024
816.05524 912.70349 1962.5667 5984045
822.64496 907.1449 1950.6141 4536345
831.91772 904.65796 1945.2665 4470556
848.65955 910.25006 1957.2911 3352337
867.84973 918.28204 1974.5621 5326126
876.3324 914.9212 1967.3354 3878940
889.37744 916.34961 1970.4067 4208673
910.89294 926.35498 1991.9213 6774083
917.41235 921.04889 1980.5116 4733997
918.40619 910.39954 1957.6124 4142623
926.25787 906.72894 1949.7197 6511429
947.1673 915.77386 1969.1688 7301198
956.75769 913.7879 1964.8984 9142631
970.4317 915.703 1969.0165 9800562
980.01379 913.75745 1964.833 7892566
1001.9892 923.27716 1985.3031 8878688
1017.8588 927.01514 1993.3407 6444857
1021.991 920.10028 1978.4717 5919541
1028.8414 915.76154 1969.1423 7104074
1038.1934 913.7218 1964.7563 8221530
1048.0526 912.16876 1961.4167 7827028
1059.8329 912.30347 1961.7065 6905154
1077.7009 917.61884 1973.136 8814691
1075.2095 905.67078 1947.4443 9077607
1094.8511 912.42163 1961.9607 8550747
1101.41 908.24243 1952.9741 8155734
1114.6531 909.60468 1955.9033 8944739
1121.0037 905.37225 1946.8024 8615772
