# .PCD v0.7 - Point Cloud Data file format
VERSION 0.7
FIELDS x y z rgb
SIZE 4 4 4 4
TYPE F F F U
COUNT 1 1 1 1
WIDTH 1349
HEIGHT 1
VIEWPOINT 0 0 0 1 0 0 0
POINTS 1349
DATA ascii
-1064.7946 842.72937 1935.4181 6115115
-1054.2153 843.44183 1937.0542 3483397
-1050.3171 849.57404 1951.1376 2693893
-1038.9408 849.72656 1951.4879 2759428
-1024.2415 847.13422 1945.5342 2956295
-1012.3023 846.79163 1944.7474 6114606
-999.47095 845.68628 1942.2089 5522726
-984.76257 842.94836 1935.921 4799005
-977.65656 846.73029 1944.6066 4799007
-972.23419 852.078 1956.8882 4799521
-955.33484 847.37476 1946.0867 3813142
-947.83881 850.99933 1954.4108 2365960
-932.8252 847.88037 1947.2478 3550226
-933.51221 859.13293 1973.0906 4537635
-918.13342 855.69775 1965.2013 4537892
-908.65991 857.74872 1969.9116 5590582
-893.92017 854.8172 1963.1791 2959375
-886.38397 858.78766 1972.2976 3880995
-868.57404 852.77728 1958.4941 7301706
-849.62738 845.47296 1941.719 4867110
-834.8847 842.20898 1934.223 7564358
-831.52478 850.49652 1953.2561 4799256
-815.69751 846.08618 1943.1274 4930840
-804.97766 846.92328 1945.0498 4996379
-795.51227 849.1236 1950.103 3812112
-783.40356 848.5257 1948.7299 5655092
-773.42206 850.24854 1952.6865 656896
-776.96552 867.11786 1991.4288 2300165
-766.73309 868.89612 1995.5128 3023375
-734.95685 845.93323 1942.7761 2300685
-727.86816 851.10699 1954.6582 7432272
-715.44904 850.11438 1952.3785 3615766
-696.36035 841.03394 1931.5243 5260846
-696.06506 854.72711 1962.9722 5063212
-692.71112 865.0661 1986.7167 4273440
-676.84076 859.86169 1974.7642 6970952
-667.58411 863.02399 1982.0269 3418387
-654.28961 860.98621 1977.3468 2892045
-644.51978 863.5968 1983.3423 918528
-629.80981 859.56226 1974.0764 590592
-622.95184 866.29382 1989.5365 1050880
-610.32605 865.1098 1986.8171 591360
-601.01172 868.66528 1994.9827 1315080
-589.50464 869.13068 1996.0514 2564630
-573.48651 862.82794 1981.5767 1446151
-566.74615 870.51227 1999.2245 327680
-559.862 878.29926 2017.1082 656384
-544.4718 872.79071 2004.4572 4536868
-532.87054 873.24567 2005.502 4602397
-519.50183 870.75867 1999.7904 5260067
-505.48044 867.03619 1991.2413 5654565
-492.28867 864.59283 1985.6299 6312496
-478.63409 861.19702 1977.8309 3746570
-463.30109 854.53497 1962.5309 3680787
-449.55789 850.53772 1953.3507 4141855
-436.46121 847.58453 1946.5684 2234633
-426.33093 850.388 1953.007 327936
-423.72012 868.76538 1995.2124 2103047
-414.64081 874.55444 2008.5078 2497807
-405.9119 881.44678 2024.3368 3747101
-394.06689 881.78619 2025.1161 3089170
-382.2485 882.20825 2026.0854 4997421
-365.42059 870.72089 1999.7037 2300687
-353.83594 871.37616 2001.2084 4537376
-347.58401 885.66479 2034.0238 5853232
-331.84576 875.93994 2011.6898 6511160
-319.23819 874.06207 2007.377 5524262
-306.28238 871.04846 2000.4558 4274457
-295.08456 872.99304 2004.9219 4865822
-283.09839 872.67072 2004.1815 2957826
-269.76016 867.96979 1993.3854 3680781
-256.6553 863.62354 1983.4038 3812624
-244.92097 863.69318 1983.5636 3351815
-235.114 870.90918 2000.1359 2168581
-222.83372 869.24335 1996.3102 5458479
-211.86911 872.81067 2004.5029 8879977
-199.50844 870.70905 1999.6764 8616552
-184.65759 856.78772 1967.7046 7893088
-175.05055 866.96057 1991.0675 3221785
-161.22507 856.20123 1966.3575 7762269
-149.29332 854.60596 1962.6938 6841935
-137.75891 855.20764 1964.0758 4999471
-125.39501 850.29578 1952.7952 8419941
-114.01463 851.73224 1956.0941 5327927
-103.34692 859.42053 1973.7511 5788476
0 0 0 0
-78.966904 848.81891 1949.4034 5130288
0 0 0 0
0 0 0 0
0 0 0 0
0 0 0 0
0 0 0 0
0 0 0 0
0 0 0 0
0 0 0 0
0 0 0 0
0 0 0 0
0 0 0 0
0 0 0 0
0 0 0 0
0 0 0 0
0 0 0 0
0 0 0 0
0 0 0 0
0 0 0 0
0 0 0 0
0 0 0 0
0 0 0 0
0 0 0 0
0 0 0 0
0 0 0 0
0 0 0 0
0 0 0 0
0 0 0 0
0 0 0 0
0 0 0 0
0 0 0 0
0 0 0 0
0 0 0 0
313.81937 881.25635 2023.8994 5525308
325.8418 881.33307 2024.0757 5327673
335.33231 874.79926 2009.0699 4801072
347.56497 875.62183 2010.959 6445382
359.96341 876.79364 2013.6501 4865577
375.99457 886.45471 2035.838 3878428
389.00076 888.6051 2040.7766 5325873
397.65308 880.9801 2023.265 3680795
408.9245 879.43402 2019.7142 9076334
426.81769 891.81183 2048.1411 2825742
438.13647 890.14807 2044.3201 2037260
448.76343 887.20599 2037.5632 5127980
463.1192 891.59692 2047.6476 5588788
474.63394 890.43365 2044.976 8088925
486.66293 890.2691 2044.598 8286820
494.42688 882.49976 2026.755 7629405
504.40204 878.95227 2018.6077 7366492
523.56842 891.21423 2046.7687 4997944
527.90686 878.25256 2017.0009 3814438
540.15839 878.73785 2018.1154 4669744
555.66351 884.38055 2031.0745 9012337
571.97101 891.03394 2046.3547 3551785
582.83069 889.1004 2041.9142 7104084
590.96729 883.17609 2028.3082 7168849
597.95361 875.80322 2011.3756 6905158
619.2973 889.33618 2042.4556 1774599
629.88043 887.19391 2037.5358 5129263
644.04626 890.08368 2044.1724 6446170
660.48975 895.95642 2057.6597 5327681
681.47809 907.66956 2084.5601 4801596
695.22028 909.48615 2088.7322 11644584
707.9491 909.93671 2089.7668 5920338
715.62592 903.99005 2076.1096 7630185
723.06799 897.95282 2062.2446 8945787
735.33057 898.00323 2062.3604 10196109
734.52576 882.35474 2026.4219 7630693
742.95038 878.11823 2016.6923 9275518
760.45667 884.57971 2031.532 8946806
778.90619 891.9201 2048.3899 7630435
793.71484 894.93005 2055.3025 8091759
808.44531 897.76202 2061.8064 9605515
814.45081 890.96515 2046.1967 10856355
820.58838 884.51001 2031.3718 10593958
827.29047 878.84125 2018.3528 10791340
834.27551 873.63043 2006.3856 10265767
832.92566 859.96051 1974.9912 11449272
867.49329 883.23883 2028.4524 11909309
872.00378 875.69653 2011.1307 11646907
886.84534 878.59253 2017.7816 10199456
899.60779 879.37903 2019.5879 8817291
929.67639 896.83978 2059.6885 11120563
993.86005 946.33173 2173.3518 11647422
993.81799 934.1853 2145.4563 11713474
1000.9608 929.01404 2133.5801 11055545
1014.2997 929.65088 2135.0427 11779268
1029.5973 932.0451 2140.5413 11779524
1035.5758 926.04785 2126.7678 11845063
1052.0618 929.47766 2134.6448 11779269
1057.0542 922.79242 2119.2915 11647939
1074.7842 927.25336 2129.5364 11713476
1087.8566 927.63904 2130.4221 11910599
1098.1747 925.69415 2125.9556 11713733
1127.6643 939.77057 2158.2834 11779012
1139.3999 938.90137 2156.2874 11779269
1161.8151 946.75403 2174.3218 11450561
1174.9938 946.99036 2174.8645 11779268
1187.9139 947.01544 2174.9221 12239819
1207.8646 952.58459 2187.7124 12174025
1223.6058 954.75104 2192.6877 11845060
1227.3679 947.62299 2176.3174 11581889
1243.7246 950.26599 2182.3875 11647423
1258.2916 951.50153 2185.2249 11712959
1272.9114 952.75116 2188.095 11515580
1280.1045 948.4729 2178.2695 11186355
1297.656 951.87854 2186.0908 12172994
1316.9244 956.46368 2196.6211 12830923
1322.0695 950.80194 2183.6182 4275518
1331.4905 948.29523 2177.8613 8353137
1359.8774 959.21466 2202.939 3221020
1370.7109 957.66266 2199.3745 6971216
1401.8446 970.18909 2228.1428 4537896
1412.1705 968.21545 2223.6104 4011310
1432.1625 972.8443 2234.241 1447186
1446.4696 973.56219 2235.8896 6707532
1459.829 973.63477 2236.0564 5130305
1469.0865 970.99512 2229.9941 6775375
1482.4727 971.10699 2230.251 8947577
1496.4337 971.59015 2231.3606 2499355
1508.4587 970.81885 2229.5891 10658459
1524.5885 972.67963 2233.8628 460036
1532.6716 969.41895 2226.3743 9604997
1553.765 974.37268 2237.751 2104602
1561.9778 971.23346 2230.5415 8419440
1578.7911 973.44995 2235.6318 3879215
1581.9082 967.25488 2221.4041 6572867
1565.3522 949.2323 2180.0134 6703939
1568.2512 943.20581 2166.1729 7628120
1592.4374 949.97607 2181.7214 6640967
1618.5157 957.7569 2199.5911 5982010
1620.4977 951.26831 2184.6895 6375743
1637.2949 953.51074 2189.8394 8874595
1631.8949 942.8924 2165.4531 5586494
1641.4554 941.01648 2161.1448 3876654
1650.7664 939.02747 2156.5769 7828855
1649.7985 931.26703 2138.7542 8619659
1636.9238 916.9549 2105.885 9738654
1655.7882 920.50433 2114.0366 12569033
1658.2219 914.93457 2101.2449 11911104
1678.951 919.46729 2111.6548 10134951
1733.7593 942.45801 2164.4556 9739683
1770.4132 955.31512 2193.9832 11647936
1775.2963 950.96594 2183.9949 11976644
1785.3953 949.45361 2180.5217 11910594
1795.2966 947.8587 2176.8589 11713726
1816.5253 952.22443 2186.885 11713726
1828.8229 951.87958 2186.0933 11779518
1834.3262 948.0282 2177.248 11713985
1844.7278 946.74463 2174.3 11648193
1856.4036 946.12811 2172.8843 11845573
1873.7731 948.40198 2178.1064 11845573
1881.8159 945.9563 2172.4897 11911112
1895.8616 946.54095 2173.8325 12042698
1906.5548 945.45526 2171.3391 12108491
1924.1727 947.79504 2176.7126 12042699
1928.7142 943.70544 2167.3206 12042699
1947.2505 946.47229 2173.6748 12108491
1953.9634 943.49359 2166.834 11976649
1960.4927 940.46576 2159.8801 11713476
1939.0944 924.16705 2122.4482 11252667
1931.975 914.83972 2101.0271 11647424
1939.8593 912.69098 2096.0925 11582144
1930.0851 902.31439 2072.2615 11450300
1931.0063 897.03748 2060.1423 11713472
1931.8464 891.78937 2048.0896 11976644
1939.2151 889.60175 2043.0654 12042950
1953.951 890.79993 2045.8173 11977156
0 0 0 0
0 0 0 0
0 0 0 0
0 0 0 0
0 0 0 0
0 0 0 0
0 0 0 0
0 0 0 0
0 0 0 0
0 0 0 0
0 0 0 0
0 0 0 0
-1623.1926 828.92267 1878.1476 5720374
-1617.665 831.80365 1884.6753 3680790
-1583.2656 819.77551 1857.4221 1641728
-1575.994 821.72333 1861.8356 2825479
-1561.9287 820.13153 1858.2288 5588778
-1552.3425 820.88562 1859.9375 4799001
-1537.5653 818.8858 1855.4064 4404238
-1531.5055 821.53345 1861.4053 5061913
-1529.7433 826.54156 1872.7526 5719842
-1518.8859 826.67267 1873.0497 4667154
-1507.3254 826.42035 1872.4779 3811846
-1483.2719 819.26379 1856.2627 4732434
-1456.2051 810.32355 1836.0062 5061399
-1446.1436 810.78271 1837.0466 4271881
-1433.0015 809.50867 1834.1599 4139782
-1436.1378 817.4812 1852.2239 4403467
-1415.4146 811.89044 1839.5565 5192726
-1418.1622 819.78058 1857.4336 3876868
-1413.7091 823.599 1866.0854 4337161
-1410.0745 827.95837 1875.9626 3942147
-1406.1113 832.19244 1885.5562 5126676
-1403.4556 837.27441 1897.0707 4863505
-1382.0554 831.16559 1883.2295 4205831
-1363.3762 826.60699 1872.9008 3811078
-1358.1791 830.21478 1881.0752 2627584
-1348.3042 830.99915 1882.8525 3483139
-1345.3995 836.12848 1894.4744 4799001
-1334.9503 836.61603 1895.5789 3219970
-1325.97 838.0401 1898.8055 4075279
-1318.3964 840.38538 1904.1194 4009487
-1311.5637 843.24738 1910.604 4075792
-1310.343 849.79877 1925.4481 3746574
-1290.6315 844.36804 1913.1433 3878163
-1275.2006 841.66644 1907.022 3351824
-1273.203 847.86224 1921.0602 3220746
-1258.0754 845.34717 1915.3617 2957575
-1242.0056 842.1474 1908.1117 3088906
-1231.2081 842.4967 1908.9031 4339229
-1228.0601 848.13525 1921.6788 2234115
-1216.9502 848.32947 1922.1188 4866340
-1200.4164 844.71039 1913.9189 3155210
-1198.641 851.50665 1929.3177 4931620
-1208.1914 866.55713 1963.4186 3089160
-1196.4258 866.46295 1963.2052 4076312
-1176.1456 860.14014 1948.8792 7168586
-1164.515 860.0802 1948.7433 4800034
-1151.9106 859.29279 1946.9591 5720363
-1129.6907 851.24365 1928.7218 3681033
-1110.3344 845.21002 1915.051 3812107
-1093.1659 840.73425 1904.91 4930843
-1096.4366 852.04883 1930.546 5654823
-1091.2612 856.96906 1941.6941 5127967
-1070.4032 849.5473 1924.8782 2431749
-1057.6857 848.49615 1922.4966 4667678
-1053.7787 854.56708 1936.2518 2430467
-1049.2939 860.29797 1949.2368 3220233
-1037.2517 859.89124 1948.3152 2693895
-1017.4576 852.97662 1932.6483 4864798
-994.61792 843.32227 1910.7737 4141331
-981.08496 841.42743 1906.4806 5720874
-968.10858 839.97144 1903.1815 5720878
-962.39221 844.85437 1914.2451 3747097
-947.83087 841.9964 1907.7697 4076572
-942.45996 847.3324 1919.8596 5327405
-929.86176 846.22137 1917.3425 7104329
-919.67096 847.30109 1919.7887 4077857
-918.49432 856.81647 1941.3485 5459254
-907.62982 857.42145 1942.7192 6841166
-901.34552 862.42438 1954.0547 8814955
-884.25641 857.08459 1941.9559 4932912
-865.18085 849.65332 1925.1184 7170130
-857.47247 853.33582 1933.462 10459518
-844.96558 852.27789 1931.0652 8748894
-835.23096 854.02557 1935.025 5918765
-821.20715 851.37524 1929.0199 4207377
-811.211 852.88458 1932.4398 3877653
-794.6698 847.45746 1920.1432 4734239
-787.11334 851.59332 1929.514 1575936
-772.75665 848.38538 1922.2456 2563079
-762.85992 850.05121 1926.0199 5261106
-764.38159 864.6842 1959.175 3023633
-751.36664 863.07098 1955.5198 3287058
-736.96716 859.79187 1948.0901 6116154
-720.83533 854.35522 1935.7719 5128999
-701.7359 845.16846 1914.9568 4471070
-689.92358 844.60065 1913.6703 6181946
-686.09814 853.95471 1934.8644 3023884
-674.28076 853.51044 1933.8578 2430983
-656.47278 845.33673 1915.338 2694673
-656.9845 860.88062 1950.557 1642250
-647.90027 864.18207 1958.0374 3353121
-635.11414 862.57623 1954.3989 262144
-621.51184 859.7818 1948.0671 262144
-617.2442 870.03912 1971.3079 262144
-601.50677 864.21301 1958.1073 1249031
-594.5072 870.9588 1973.3917 1644045
-583.69995 872.2851 1976.3969 262913
-572.18982 872.59381 1977.0962 656897
-564.76245 879.27173 1992.2269 1116672
-552.85583 879.11237 1991.8658 2168585
-541.73187 880.21765 1994.3701 4536864
-523.86389 870.16998 1971.6045 4996384
-507.37103 862.00024 1953.0938 4338454
-495.09003 860.77185 1950.3103 3746828
-476.00327 847.3692 1919.9432 5522978
-469.92737 857.03894 1941.8527 5917994
-458.67816 857.52252 1942.9482 4734497
-444.89728 853.17596 1933.1 2563333
-434.78363 855.81805 1939.0864 2234886
-426.13132 861.55835 1952.0924 3353888
-414.99048 862.4472 1954.1064 3090457
-407.01407 870.15228 1971.5643 525570
-401.81433 884.42438 2003.9016 3155735
-389.31372 883.00671 2000.6895 2958098
-371.60764 869.32245 1969.6841 5392183
-358.93262 866.90186 1964.1996 657413
-347.1944 866.65729 1963.6455 722945
-340.44348 879.27667 1992.2383 7432786
-328.0571 877.72504 1988.7224 7893586
-313.56754 870.22089 1971.7198 6511422
-305.40829 880.38397 1994.7469 7103041
-293.28864 879.4892 1992.7197 5326885
-280.22552 875.57159 1983.8433 3879438
-269.21353 878.00024 1989.3461 5392167
-257.17255 877.14185 1987.4011 4076565
-242.81041 867.90424 1966.4707 4602911
-231.6908 869.90961 1971.0144 6181943
-220.81876 873.10687 1978.2587 5195557
-209.97139 876.76544 1986.5483 5590579
-198.05948 876.14978 1985.1533 6708550
-185.17015 870.85938 1973.1665 3615767
-173.11357 869.03619 1969.0356 5589815
-160.75211 865.30835 1960.5891 7038030
-147.13159 853.69434 1934.2744 7037517
-133.77267 841.76385 1907.2427 2893598
-124.57585 856.23828 1940.0383 3485730
-113.34035 858.21881 1944.5259 6446667
-101.27536 853.65613 1934.1877 3551774
-89.160339 847.45312 1920.1333 5919555
-79.749786 868.90131 1968.73 7432534
-67.81601 865.49805 1961.0189 6314039
0 0 0 0
0 0 0 0
0 0 0 0
0 0 0 0
-9.6751614 862.48822 1954.1992 3022088
1.8920618 856.25311 1940.072 2891016
13.258589 847.8913 1921.1261 3747098
0 0 0 0
0 0 0 0
0 0 0 0
0 0 0 0
0 0 0 0
0 0 0 0
0 0 0 0
0 0 0 0
0 0 0 0
0 0 0 0
0 0 0 0
0 0 0 0
0 0 0 0
0 0 0 0
0 0 0 0
205.19682 890.31732 2017.2537 4208685
217.89226 893.35443 2024.1351 2236443
229.85487 893.22681 2023.8459 1315336
241.42358 891.65704 2020.2891 1644301
250.55727 881.66718 1997.6544 3683360
263.12442 884.11548 2003.2017 3946269
273.61197 879.66632 1993.121 5721649
282.40652 870.36768 1972.0524 5326123
296.1037 876.31738 1985.5331 5194283
307.86179 876.29297 1985.4777 4273188
315.97046 866.26495 1962.7566 2432017
332.13095 878.24023 1989.8898 7299667
343.59012 877.38892 1987.9609 4865582
0 0 0 0
366.92911 876.85565 1986.7527 6839368
380.78354 881.67291 1997.6675 3418131
390.26398 876.37738 1985.6691 4207904
408.10312 889.61285 2015.6575 7168592
421.4191 892.51593 2022.2352 4076069
431.26794 888.11859 2012.2719 5260344
443.52054 888.77466 2013.7584 1970956
457.38281 892.53772 2022.2845 4799535
469.55972 892.90356 2023.1135 4207138
479.7041 889.48248 2015.3621 7102286
489.24826 885.1416 2005.5267 2628626
503.48083 889.28784 2014.9211 4930865
515.47357 889.37738 2015.124 6380366
525.2207 885.67596 2006.7375 2366994
534.92767 882.07239 1998.5726 6051392
546.34033 881.37671 1996.9962 6446406
558.84869 882.44055 1999.4067 7959140
567.65424 877.73468 1988.7443 7367510
584.11908 884.82269 2004.8041 7103824
594.92078 883.22052 2001.1738 7564119
606.75879 883.18927 2001.1033 4142882
613.112 875.3288 1983.2932 4471850
628.11438 879.88007 1993.6053 7564125
655.90839 901.85132 2043.3871 3945766
666.57703 899.90601 2038.9795 4208426
679.16565 900.57587 2040.4973 4800818
695.052 905.51874 2051.6965 6839630
708.01709 906.55109 2054.0356 7037006
716.88892 902.39618 2044.6215 7102284
722.27386 894.06305 2025.7406 7628627
722.48761 879.70599 1993.2108 4865837
738.90643 885.22479 2005.7152 8682086
753.57355 888.50354 2013.1442 6445380
767.34253 890.63763 2017.9794 5852724
775.57434 886.37799 2008.3281 7299917
784.13348 882.61554 1999.8032 7168593
808.24457 896.20966 2030.6044 8945011
804.87122 879.37634 1992.464 6906456
805.73431 867.59143 1965.7621 9209984
818.33942 868.60565 1968.0599 7960433
830.33514 868.95367 1968.8486 9211273
850.44672 877.66772 1988.5927 11185322
859.49017 874.87732 1982.2701 10329755
879.04407 882.71643 2000.0319 10460825
878.20349 870.13977 1971.536 6577493
883.70953 864.09912 1957.8494 7433834
936.43079 903.7843 2047.7667 10921895
921.03455 877.55237 1988.3312 11778492
924.30389 869.54279 1970.1835 11318715
962.45752 894.14124 2025.9178 11450302
981.24731 900.36597 2040.0215 11252924
1002.9488 909.07812 2059.7615 11713733
1047.438 937.98743 2125.2632 11318718
1037.3563 917.92181 2079.7991 11450305
1043.6453 912.64313 2067.8389 11845062
1042.2677 900.8606 2041.1423 11318975
1040.2322 888.78625 2013.7847 11055802
1076.0393 908.95233 2059.4763 11450560
1088.2242 908.93567 2059.4385 11582145
1068.7131 882.73889 2000.0828 10989753
1035.593 845.99945 1916.8396 10463664
1043.3713 843.10559 1910.2827 12042439
1183.9597 946.44025 2144.4153 11647681
1208.109 955.48889 2164.9175 11845060
1216.7767 952.23181 2157.5376 12042439
1231.4646 953.70465 2160.8748 11910852
1244.1348 953.60065 2160.6392 11120822
1258.0768 954.46375 2162.5947 11910338
1270.9246 954.48755 2162.6487 12107203
1287.7529 957.47058 2169.4075 12304579
1300.8376 957.63873 2169.7886 11974844
1308.8951 954.13885 2161.8586 12632258
1329.677 959.89264 2174.8953 5721933
1341.8326 959.36829 2173.7073 8550254
1369.9501 970.15765 2198.1536 3482389
1385.6046 972.0011 2202.3303 5259058
1398.9244 972.18762 2202.7529 4405552
1417.4976 975.98767 2211.363 9078645
1423.4412 971.10205 2200.2932 4736058
1438.6504 972.56879 2203.6167 5788746
1446.416 969.02252 2195.5815 5196356
1467.2021 974.18475 2207.2778 3222305
1488.1534 979.36432 2219.0137 8288879
1496.5819 976.284 2212.0344 1249805
1498.397 968.98047 2195.4863 7500389
1520.7958 974.99921 2209.1233 4144178
1539.597 978.62836 2217.3462 6904659
1555.0927 980.11279 2220.7095 8023648
1558.1544 973.80145 2206.4094 6241849
1569.443 972.69373 2203.8997 5914432
1586.9054 975.39935 2210.0298 2496537
1593.9097 971.685 2201.614 10064783
1590.955 962.00897 2179.6904 11973293
1605.4045 962.92798 2181.7727 12628141
1595.0079 949.04858 2150.3252 6573384
1617.902 955.04059 2163.9016 8478806
1629.8185 954.50922 2162.6978 985095
1645.3422 956.08228 2166.262 10921107
1656.5421 955.13806 2164.1226 7301722
1666.5547 953.52881 2160.4763 12041141
1655.9557 940.24103 2130.3694 11712436
1680.5383 946.97913 2145.6362 11778493
1694.0786 947.44037 2146.6814 12041922
1717.6902 953.48541 2160.3779 11976130
1736.6749 956.89148 2168.0955 11779006
1741.8257 952.68121 2158.5559 11779265
1753.0566 951.83362 2156.6355 11779265
1766.6764 952.28589 2157.6602 11845059
1778.0295 951.51874 2155.9219 11844803
1792.7627 952.55841 2158.2776 11844802
1805.696 952.63379 2158.4485 11779267
1817.0566 951.88422 2156.75 11780035
1830.9512 952.46338 2158.0623 11779778
1840.2347 950.6524 2153.959 11845574
1852.7513 950.52496 2153.6704 11911366
1864.6041 950.06116 2152.6194 11911113
1877.7216 950.24365 2153.033 11976905
1884.2692 947.1214 2145.9585 12108491
1899.4993 948.37585 2148.801 12174284
1908.3755 946.46246 2144.4656 12042699
1920.8461 946.34521 2144.2 11845321
1927.7114 943.48608 2137.7219 11976906
1940.7983 943.68958 2138.1829 12042699
1943.0427 938.65247 2126.77 11976906
1927.6562 925.21802 2096.3306 11911112
1929.0895 919.97681 2084.4553 11911112
1927.8868 913.55334 2069.9011 12042698
1924.6895 906.27191 2053.4031 11911113
1933.0635 904.49628 2049.3799 12042954
2003.7559 931.71997 2111.0625 11977417
2015.0171 931.14264 2109.7544 11976905
0 0 0 0
0 0 0 0
0 0 0 0
0 0 0 0
0 0 0 0
0 0 0 0
0 0 0 0
0 0 0 0
0 0 0 0
0 0 0 0
0 0 0 0
0 0 0 0
-1606.2521 831.28583 1858.5464 3484180
-1583.9238 825.38989 1845.3646 4207643
-1566.8112 822.14886 1838.1184 2759685
-1567.7406 828.39587 1852.0852 3154441
-1542.1943 820.64258 1834.7509 6641205
-1530.7882 820.35687 1834.1122 4667670
-1537.8351 830.02698 1855.7321 5062425
-1515.408 823.81354 1841.8402 5983016
-1507.4387 825.4267 1845.4468 5588514
-1506.9546 831.19189 1858.3364 5390879
-1492.9011 829.50232 1854.5591 4403983
-1467.4913 821.43121 1836.5139 5719329
-1451.0555 818.30011 1829.5137 2561281
-1429.3639 812.13556 1815.7313 3943174
-1419.4923 812.64447 1816.869 3877125
-1408.7328 812.64886 1816.8788 4403212
-1396.2878 811.67352 1814.6982 4600591
-1392.2421 815.60352 1823.4847 4469261
-1377.917 813.52612 1818.8401 4929813
-1391.7057 828.14526 1851.5248 4732434
-1384.6772 830.5108 1856.8137 3811333
-1382.9791 836.1369 1869.3923 4074251
-1367.0647 833.18958 1862.8027 3416321
-1350.6558 829.89032 1855.4264 3613447
-1346.7717 834.29572 1865.2759 2758912
-1333.9407 833.18585 1862.7944 2166784
-1315.0587 828.24646 1851.7511 3482630
-1319.8279 838.24506 1874.1056 3285249
-1308.3833 838.0285 1873.6213 3811849
-1304.7076 842.82672 1884.349 3943692
-1289.0138 839.87732 1877.7548 3943694
-1280.6927 841.72211 1881.8793 3483143
-1276.2559 846.17456 1891.8339 3285766
-1258.2274 841.61469 1881.6392 3812110
-1241.7467 838.01782 1873.5975 4206610
-1238.8846 843.62976 1886.1444 4009486
-1217.6483 836.71796 1870.6913 4602136
-1210.3007 839.31049 1876.4875 5194274
-1207.5972 845.20154 1889.6584 4733719
-1176.6582 831.25574 1858.4792 6115627
-1168.0909 833.00049 1862.3799 5721126
-1158.4211 833.98468 1864.5804 4931868
-1157.2329 841.15271 1880.6063 6510651
-1145.189 840.49286 1879.1311 5589295
-1154.3204 855.51404 1912.7146 6575161
-1144.7994 856.87201 1915.7506 5127457
-1133.1356 856.63696 1915.2253 5193762
-1112.5391 849.57611 1899.439 3483145
-1099.4919 848.19464 1896.3503 5062434
-1093.2126 852.05975 1904.9916 4272920
-1080.9301 851.27759 1903.2429 3812629
-1069.3301 851.02209 1902.6718 1313536
-1061.9474 854.15326 1909.6724 3154960
-1052.4276 855.61456 1912.9393 5194801
-1043.6753 857.73834 1917.6876 4075541
-1030.9952 856.64545 1915.244 2168067
-1013.7746 851.71326 1904.217 5851691
-1017.0395 864.07465 1931.854 4732440
-970.54657 833.96222 1864.53 3351047
-966.90845 840.40387 1878.9321 5983277
-956.42181 840.97394 1880.2067 3417355
-952.60162 847.4884 1894.7712 6840387
-935.43268 842.14056 1882.8149 4865830
-922.80157 840.79834 1879.8141 6314302
0 0 0 0
-911.44232 850.99524 1902.6117 6840387
-903.81116 854.44025 1910.3138 4470815
-891.04968 853.0611 1907.2305 3944984
-893.42285 866.32208 1936.8787 4799777
-866.81714 851.46265 1903.6567 9207661
-855.77594 851.70178 1904.1914 6313540
-842.46075 849.65399 1899.613 6181686
-835.95148 854.50763 1910.4645 6773046
-822.93823 852.75488 1906.5458 3023108
-813.13312 854.32404 1910.0541 5851693
-801.27679 853.75195 1908.775 2892042
-789.6897 853.45435 1908.1097 6313025
-786.24359 862.0744 1927.382 3089421
-769.25793 855.88434 1913.5425 3748119
-752.20563 849.43378 1899.1206 4143141
-749.6665 859.42517 1921.459 3878936
-746.2807 868.73932 1942.2831 4339741
-733.74799 867.53058 1939.5806 5326890
-711.61426 854.75128 1911.0092 6313527
-699.72717 854.06519 1909.4753 3549967
-685.89941 850.94891 1902.5082 5654833
-679.03333 856.50977 1914.9409 2957577
-664.67993 852.65497 1906.3224 3944994
-650.23749 848.55048 1897.1459 2958355
-640.49738 850.54614 1901.6077 1972233
-629.547 850.97729 1902.5715 7631459
-612.5387 843.08612 1884.929 2369052
-613.90515 860.66217 1924.2246 1382151
-605.55151 865.01868 1933.9647 1052684
-599.41754 872.77521 1951.3063 5591877
-588.15289 873.21948 1952.2996 1381642
-576.73627 873.45123 1952.8177 1052939
-570.0271 880.96796 1969.6233 3091489
-565.95166 892.95447 1996.422 1709837
-554.09686 892.91644 1996.337 3353872
-529.6123 872.08014 1949.7523 3221770
-515.44159 867.67633 1939.9064 9537131
-495.45813 853.06348 1907.2358 7036996
-490.50552 864.25208 1932.2506 4142094
-481.2525 868.21716 1941.1157 6312239
-465.68091 860.6983 1924.3054 3548939
-451.58301 855.59399 1912.8933 2759945
-441.1405 857.33093 1916.7766 1641728
-428.98279 855.73798 1913.2153 2234634
-424.22968 869.23047 1943.3812 2498322
-412.05118 867.8371 1940.2659 2761491
-403.17664 873.52191 1952.9757 3880224
-398.47974 888.86163 1987.2715 3223068
-384.87408 884.65833 1977.874 4407076
-368.78296 874.29852 1954.712 5854268
-355.86615 871.0365 1947.4188 2893846
-345.62454 874.32306 1954.7668 4472356
-336.30756 880.25769 1968.0352 4537894
-324.74966 880.54266 1968.6725 8354144
-311.0325 874.776 1955.7795 7695954
-299.83725 875.93024 1958.3601 7828052
-287.79068 874.59027 1955.3643 3024137
-278.06641 880.49146 1968.5579 4997669
-264.50003 874.21082 1954.5159 5260842
-254.50174 879.68793 1966.7614 7497803
-241.59074 875.13977 1956.5928 3549968
-228.52406 869.54065 1944.0747 3944725
-217.45476 871.35065 1948.1213 5063464
-205.78049 870.80353 1946.8981 5984823
-195.911 878.28247 1963.6191 5326638
-182.83704 871.4328 1948.3049 5195307
-172.14165 875.7605 1957.9807 6379323
-159.54175 870.32458 1945.8273 5918256
-147.0696 864.79279 1933.4595 4734246
-136.50284 870.47675 1946.1675 3484693
-124.68707 868.50995 1941.7703 4471849
-113.28679 869.33148 1943.6071 2827538
-101.97491 871.09424 1947.5481 3814691
-89.912285 866.07532 1936.327 3616277
-79.245842 875.00409 1956.2896 5261612
-67.374756 871.41241 1948.2594 6906951
0 0 0 0
0 0 0 0
0 0 0 0
0 0 0 0
-9.5261831 860.61023 1924.1084 3680783
1.8651084 855.38879 1912.4346 2957069
13.22963 857.39954 1916.9302 458752
24.79221 864.45831 1932.7118 1511427
36.348412 866.90387 1938.1794 1051652
0 0 0 0
58.753056 858.61072 1919.6381 1642754
71.636978 877.07037 1960.9092 3418904
84.231178 887.32495 1983.8358 2892561
95.949989 886.97522 1983.054 3748639
107.07628 881.8222 1971.5331 3551783
0 0 0 0
0 0 0 0
0 0 0 0
0 0 0 0
0 0 0 0
0 0 0 0
192.70174 899.74878 2011.6124 2695440
205.55603 903.8515 2020.785 1839624
218.04425 905.98145 2025.5471 3747870
231.64804 912.28247 2039.6346 1774080
241.33218 903.2876 2019.5243 4668450
251.58211 897.16034 2005.8253 5523754
261.41364 890.16119 1990.177 6445366
271.82385 885.65192 1980.0955 6840637
284.09201 887.31885 1983.8221 7169348
292.18536 876.33209 1959.2585 2959384
305.48529 881.20404 1970.1509 5720630
317.68204 882.65216 1973.3887 4273189
330.21399 884.89569 1978.4047 5720885
0 0 0 0
0 0 0 0
366.99213 888.78217 1987.0939 6049338
378.44998 888.03577 1985.425 1839620
391.2623 890.41687 1990.7485 3616027
399.93744 883.51886 1975.3264 7498328
412.23331 884.78455 1978.1561 7498331
421.4892 879.6358 1966.6448 7235160
439.91388 893.38422 1997.3829 2760724
453.18277 896.21606 2003.7141 1707781
465.14789 896.39087 2004.1049 2628628
477.50876 897.30054 2006.1388 4931635
490.77203 899.82068 2011.7731 4536360
500.67331 896.20325 2003.6854 5128754
510.87698 893.28217 1997.1547 4998197
522.42859 892.79681 1996.0696 2761757
529.89105 885.49976 1979.7551 7037517
539.55817 882.12305 1972.2057 5063471
549.48462 879.30469 1965.9045 7102543
560.24292 877.9068 1962.7793 6708553
568.07935 872.08026 1949.7526 6577224
594.10919 893.85883 1998.4438 5919295
600.89001 886.39111 1981.7479 5721914
612.76697 886.58307 1982.1772 6182976
627.46155 890.76788 1991.5334 4275494
638.41241 889.58148 1988.8809 8552041
652.10486 892.18909 1994.7108 5063475
666.18927 895.23053 2001.5107 6643019
683.17212 901.99255 2016.6288 7432535
701.75818 910.60217 2035.8779 4076319
704.65479 898.90625 2009.7288 5720885
709.07288 889.50775 1988.7161 4799786
722.99469 892.14392 1994.6097 8089695
733.15839 890.13232 1990.1124 5062955
746.18231 891.60211 1993.3986 6903868
747.05969 878.73865 1964.639 4799265
765.29028 886.36859 1981.6978 5325868
779.64429 889.34589 1988.3542 5589042
789.8717 887.59747 1984.4451 4800044
795.65106 880.97522 1969.6394 6576458
808.36633 882.11304 1972.1833 8024422
810.60632 871.9505 1949.4625 6050887
823.66003 873.54218 1953.021 6773840
838.38702 876.83972 1960.3936 8023908
850.13971 876.979 1960.7048 8616301
865.91718 881.21039 1970.1652 7037270
870.38513 873.9729 1953.9841 7366748
872.23291 864.32922 1932.4231 8749424
897.06207 877.41345 1961.6763 9014403
916.75488 885.20331 1979.0923 10396059
918.14832 875.34991 1957.0627 10462113
930.79578 876.33801 1959.2719 10791082
936.62677 870.96313 1947.255 10791082
949.74921 872.41681 1950.5051 9080721
957.77679 869.21185 1943.3396 10593705
945.08191 847.50037 1894.798 11185587
977.10846 865.93152 1936.0055 11120307
998.6413 874.74304 1955.7059 10264740
1007.8077 872.64453 1951.0142 10593706
1011.8294 866.18951 1936.5823 9409431
1025.6351 868.16095 1940.99 9803933
1040.8201 871.24335 1947.8813 11712188
1030.5679 853.19879 1907.5382 8357259
1037.7181 849.79675 1899.9323 11647166
1033.2422 837.04926 1871.4321 10528686
1113.5914 892.56134 1995.543 10923443
1142.549 906.14819 2025.9199 11383994
1082.9811 849.97363 1900.3276 11514808
1105.5846 858.78369 1920.0247 10528169
1130.6389 869.29834 1943.533 10922927
1149.207 874.66437 1955.5299 11844028
1224.0276 922.30969 2062.053 11515063
1303.9575 972.82495 2174.9924 11317169
1292.6833 954.974 2135.082 11777205
1318.5303 964.62659 2156.6628 12434617
1335.0222 967.31561 2162.6748 11512486
1349.0916 968.21472 2164.6851 4799537
1366.8367 971.71014 2172.5 5456696
1391.3378 979.89844 2190.8069 2167308
1394.208 972.84186 2175.0303 1905163
1412.0548 976.2691 2182.6926 1379845
1425.6434 976.7168 2183.6936 8090471
1423.1923 966.26636 2160.3291 1512717
1447.6835 974.13159 2177.9136 9538165
1460.7133 974.21362 2178.0972 3878949
0 0 0 0
0 0 0 0
1497.1036 972.69763 2174.7078 7819848
1508.0702 971.46008 2171.9409 5649195
1541.1624 984.37561 2200.8167 3414036
1528.7013 968.2226 2164.7026 3152145
1573.0255 988.00476 2208.9307 2036495
1577.7245 982.77753 2197.2439 8549227
1574.2629 972.5943 2174.4766 2301981
1590.1266 974.41864 2178.5554 9800317
1594.9325 969.49225 2167.5413 3286818
1586.8142 956.85114 2139.2788 7364180
1601.2856 957.92401 2141.6777 6706249
1626.1068 965.12299 2157.7727 4204835
1636.267 963.57581 2154.3135 3548701
1652.9775 965.88019 2159.4656 7364689
1653.5018 958.76373 2143.5549 6839125
1668.7704 960.23987 2146.8552 10988200
1672.5215 955.11652 2135.4006 11581111
1683.7819 954.32617 2133.6338 11712957
1698.5531 955.52271 2136.3088 11713470
1713.8994 957.02252 2139.6621 11778752
1726.4337 956.94165 2139.4814 11778752
1740.4003 957.65021 2141.0654 11779266
1753.0803 957.64557 2141.0552 11779265
1765.7463 957.63348 2141.0281 11779265
1775.91 956.27405 2137.9888 11845058
1792.4791 958.3587 2142.6494 12042439
1800.8251 956.0484 2137.4841 11911112
1813.4497 956.026 2137.4341 11976905
1824.9668 955.42401 2136.0881 12108491
1838.1116 955.67651 2136.6528 12042955
1843.6559 952.00116 2128.4355 11976905
1856.5902 952.16559 2128.8032 12042699
1866.1451 950.60645 2125.3174 12108492
1876.4858 949.46576 2122.7671 11976906
1888.5811 949.22211 2122.2224 11911113
1899.4384 948.36365 2120.303 11911113
1909.4248 947.08441 2117.4431 11845320
1920.5609 946.38855 2115.8872 11976906
1934.3026 946.97723 2117.2034 11911114
1948.5378 947.79846 2119.0393 11911113
1955.3746 945.03339 2112.8574 11845320
1969.3676 945.74011 2114.4375 11911112
1974.5017 942.21057 2106.5464 11845319
1980.5375 939.15302 2099.7104 11779526
1991.0725 938.25385 2097.7 11845319
2004.1794 938.57013 2098.4072 11976905
0 0 0 0
0 0 0 0
0 0 0 0
0 0 0 0
0 0 0 0
0 0 0 0
0 0 0 0
0 0 0 0
0 0 0 0
0 0 0 0
0 0 0 0
0 0 0 0
-1604.981 841.6333 1857.0754 4339228
-1594.7834 842.05988 1858.0167 3352854
-1582.1515 841.19812 1856.1151 5456936
-1565.955 838.41565 1849.9757 5061918
-1536.9619 828.69452 1828.5258 4469778
-1525.741 828.48566 1828.0649 5851429
-1523.6895 833.28833 1838.6622 5719843
-1519.2867 836.8653 1846.5547 4271883
-1496.4187 830.24896 1831.9557 4008711
-1491.4275 833.52698 1839.1887 5455644
-1489.0375 838.31769 1849.7595 4535571
-1455.1503 825.31531 1821.0696 3746057
-1442.2638 824.11859 1818.4288 3613957
-1422.8027 819.11871 1807.3966 3153153
-1403.3633 814.0556 1796.2249 4271629
-1402.559 819.80743 1808.9164 5060889
-1385.0507 815.80908 1800.0939 3876871
-1368.2023 812.14032 1791.9988 4402958
-1366.7596 817.63031 1804.1124 3613445
-1367.8164 824.71387 1819.7424 3087360
-1371.9946 833.80701 1839.8065 3087360
-1361.4039 833.99841 1840.2289 3284736
-1361.3793 840.7179 1855.0555 3811849
-1351.9999 841.72284 1857.2729 3350788
-1328.2089 833.69818 1839.5664 4140557
-1323.5913 837.67523 1848.3419 2956544
-1304.097 832.22498 1836.3158 4601108
-1306.2476 840.61212 1854.8221 3219713
-1303.4648 845.93988 1866.578 4798744
-1290.7491 844.85724 1864.1892 3877899
-1265.3687 835.39478 1843.3099 3417348
-1270.8151 846.29651 1867.3647 4338194
-1235.2521 829.83978 1831.0527 4667157
-1235.7395 837.52441 1848.0092 4535570
-1223.4221 836.59058 1845.9486 4404241
-1213.4427 837.25311 1847.4104 5062426
-1201.5182 836.57324 1845.9104 4996633
-1201.8533 844.4953 1863.3904 5193755
-1192.7429 845.86584 1866.4144 4010251
-1172.1766 839.06158 1851.4009 6905655
-1154.35 834.1084 1840.4716 4668182
-1151.177 839.75018 1852.9203 5523493
-1147.079 844.8194 1864.1055 6049072
-1138.2493 846.46826 1867.7439 3549198
-1126.321 845.82275 1866.3196 4733472
-1130.2898 857.22089 1891.4696 3022598
-1116.2488 855.05182 1886.6835 3351818
-1099.0975 850.43213 1876.4901 4141077
-1086.5582 849.323 1874.043 4141334
-1074.212 848.34375 1871.882 3023370
-1064.1327 849.15265 1873.667 4536610
-1060.1217 854.87219 1886.2872 2563333
-1052.5315 857.79657 1892.74 4864800
-1043.7936 859.83856 1897.2456 4404507
-1035.7131 862.47253 1903.0575 4667417
-1022.6432 860.96387 1899.7286 6641459
-1009.8349 859.64429 1896.8169 4601878
-999.94281 860.80554 1899.3792 5456931
-972.83606 847.00507 1868.9282 4799515
-962.9812 848.0802 1871.3007 8812376
-951.55585 847.78119 1870.6409 4272918
-942.93091 849.99945 1875.5355 4799264
-927.04938 845.65137 1865.9413 5326123
-929.16467 857.81305 1892.7762 3681042
-894.01093 835.4444 1843.4194 5918518
-905.80713 856.93933 1890.8484 5852725
-896.53339 858.78979 1894.9314 5523765
-887.74487 861.15796 1900.1569 4405280
-874.62567 859.33191 1896.1277 5326126
-859.27155 855.23407 1887.0857 4536611
-850.24512 857.40906 1891.8849 6576452
-841.91644 860.35535 1898.3857 4010265
-827.9079 857.49835 1892.0818 4206870
-814.95795 855.67444 1888.0574 2627840
-809.10577 861.35602 1900.5939 2101760
-795.2345 858.54041 1894.3812 2431491
-780.93872 855.17932 1886.965 2431495
-774.41211 860.35199 1898.3784 3484695
-764.19879 861.52094 1900.9578 1576960
-752.98364 861.57855 1901.0848 3418902
-745.42975 865.89075 1910.5999 2826504
-729.95947 860.99847 1899.8051 4273435
-722.81671 865.92938 1910.6851 4865057
-707.35938 860.89777 1899.5828 4076308
-693.39764 857.55316 1892.2028 6246967
-682.77277 858.29327 1893.8358 2170130
-675.37335 863.18036 1904.6194 525312
-653.07343 848.86609 1873.0345 4800553
-644.60846 852.35028 1880.7225 3287577
-637.91718 858.34363 1893.947 3880226
-624.14471 854.85309 1886.2451 6446923
-616.19299 859.35303 1896.1742 4671540
-616.50885 875.7641 1932.3856 3356203
-604.31305 874.68719 1930.0094 3685419
-595.04071 877.88184 1937.0582 2698269
-585.78638 881.229 1944.444 5527364
-575.56903 883.23303 1948.8657 6710609
-562.83673 881.38062 1944.7783 4210218
-554.39679 886.31299 1955.6616 6709835
-520.28015 849.53015 1874.4999 6248768
-518.39154 864.91339 1908.4434 4011291
-508.77072 867.79437 1914.8003 6444851
-494.34268 862.42017 1902.9419 6049840
-481.34982 859.3573 1896.1836 3220490
-478.3494 874.41388 1929.4062 2035712
-464.08411 869.11176 1917.707 2233088
-452.59018 868.86377 1917.1598 589824
-439.01276 864.50012 1907.5314 590592
-432.81921 874.83044 1930.3254 459520
-418.77106 869.41467 1918.3754 393728
-409.07382 872.98169 1926.246 3024668
-402.85999 884.40057 1951.4419 2893076
-390.39688 882.37 1946.9614 4274729
-376.77402 877.51447 1936.2478 7103819
-362.59564 871.01953 1921.9166 5590835
-353.4628 876.61664 1934.2667 6775114
-343.90637 881.50336 1945.0492 4406565
-336.10245 891.37671 1966.835 6314046
-322.78217 886.80389 1956.745 4208156
-310.54178 884.9679 1952.6937 3287059
-299.67542 887.05688 1957.3031 5326379
-287.60257 885.59894 1954.0863 2891785
-275.98865 885.49115 1953.8484 1905155
-263.40775 882.13562 1946.4443 4339231
-253.0549 886.27612 1955.5803 2826510
-240.39001 882.32776 1946.8684 2628616
-227.9088 878.68951 1938.8406 7563084
-216.43492 878.75494 1938.9849 7366219
-203.25131 871.4967 1922.9695 6576703
-191.09521 868.04376 1915.3503 6313531
-179.22887 865.55383 1909.8563 6509880
-170.90897 881.00964 1943.96 4996381
-157.74953 871.94958 1923.9686 5127455
-147.41986 878.33777 1938.0643 5786929
-134.72189 870.50256 1920.7759 4010524
-124.21492 876.685 1934.4175 5523506
-113.17487 879.97949 1941.6869 2497290
-102.10209 883.73663 1949.9769 2695438
-89.402161 872.57153 1925.3412 5458999
-77.76136 869.9892 1919.6431 7234122
-66.377464 869.88849 1919.4209 6444348
0 0 0 0
0 0 0 0
0 0 0 0
0 0 0 0
-9.5358324 872.89612 1926.0573 3812372
1.877749 872.59637 1925.3959 3154956
13.263677 870.99548 1921.8634 918529
24.570917 868.09375 1915.4607 1313794
36.216759 875.20856 1931.1595 2958103
47.713863 876.17517 1933.2925 393216
59.660294 883.4209 1949.2803 590592
71.557076 887.69989 1958.7219 1840647
83.720062 893.62592 1971.7979 1576965
95.164154 891.36664 1966.8126 5064503
107.49612 897.00934 1979.2633 2959645
118.28447 889.92822 1963.6388 788742
130.03008 890.67255 1965.2811 65536
0 0 0 0
55.092747 320.03979 706.17218 262144
0 0 0 0
0 0 0 0
189.85721 898.21265 1981.9185 2629389
203.51808 906.74731 2000.7504 2827281
216.40132 911.06842 2010.2849 3419160
228.87691 913.31177 2015.235 4602404
240.58131 912.40802 2013.2408 3681298
249.96158 903.19183 1992.9052 4997157
260.80219 899.84576 1985.522 5325864
271.45648 896.17365 1977.4194 3680790
280.95157 889.13678 1961.8926 5062696
292.18887 887.95367 1959.282 4470052
304.81543 890.92163 1965.8308 3154451
312.28281 879.14679 1939.8494 3417877
325.98526 885.138 1953.0691 4996910
339.02475 888.97992 1961.5465 6379074
354.42889 898.56219 1982.6898 5655094
362.40765 889.30841 1962.2711 4208679
376.39072 894.90576 1974.6218 3353624
386.49524 891.22198 1966.4937 5919296
397.41589 889.58081 1962.8723 3352082
407.76291 886.7854 1956.7042 9011568
422.83185 894.12976 1972.9095 7827552
434.599 894.28455 1973.2512 2762018
453.38272 908.49127 2004.5984 131072
464.22403 906.46368 2000.1245 2566176
473.66876 901.87787 1990.006 4078897
486.6098 904.01038 1994.7113 3944743
496.96719 901.35565 1988.8536 7169109
511.84512 906.83301 2000.9395 4865838
514.73859 891.31018 1966.688 5063218
526.89984 892.1673 1968.5795 5457975
533.57031 883.89166 1950.319 7827040
538.71826 873.49799 1927.3854 7234124
554.86853 881.00531 1943.9503 5786932
570.1568 886.86639 1956.8829 4405281
578.06915 881.24939 1944.4889 6642246
597.73279 893.41626 1971.3353 5655351
609.28424 893.22412 1970.9114 6116929
620.72046 892.87347 1970.1375 5722427
631.31244 891.34369 1966.7621 8682856
644.78033 893.8562 1972.306 6117442
660.54883 899.41187 1984.5646 7235411
677.87628 906.8587 2000.9962 7958879
691.39929 909.04742 2005.8256 8221795
697.7843 901.93579 1990.1335 8353122
695.61609 884.1886 1950.9744 5918009
713.79224 892.45856 1969.2219 5391920
733.10132 901.85602 1989.9576 7760468
744.09021 900.88257 1987.8098 3483923
742.92987 885.45941 1953.7783 5194281
766.53479 899.57312 1984.9204 5457970
767.38904 886.96448 1957.0992 7497811
781.81134 890.17999 1964.1945 6116674
788.5708 884.70428 1952.1122 5919036
803.27386 888.16992 1959.7592 6247234
810.10944 882.96185 1948.2676 5194546
818.93665 880.04034 1941.821 5589050
832.92371 882.66779 1947.6187 6838598
840.95264 878.99585 1939.5164 5983800
856.54022 883.21698 1948.8303 8155226
857.40869 872.35016 1924.8525 6640956
866.27893 869.80298 1919.2322 9207143
884.27924 876.37024 1933.723 5456432
909.46466 889.79913 1963.354 9209209
917.47223 886.2948 1955.6217 6314063
927.54218 884.84528 1952.4232 7958378
936.68512 882.55798 1947.3762 10590866
944.53821 879.12585 1939.8032 7300703
956.84961 879.87598 1941.4584 10261648
963.74432 875.68652 1932.2142 9077631
964.75934 866.31561 1911.5374 8945788
986.93896 875.94666 1932.7883 9735304
1001.2941 878.49194 1938.4044 8748407
1002.0986 869.22546 1917.958 9011833
1010.9314 867.05267 1913.1636 8353900
1019.3655 864.5899 1907.7294 9341316
1016.0571 852.33075 1880.6794 8814973
1037.6387 860.99036 1899.7871 9538956
1047.1111 859.52417 1896.5518 9539214
1050.8051 853.3963 1883.0305 10065817
1054.495 847.39398 1869.7864 8815749
1075.9215 855.6214 1887.9403 12302518
1100.8928 866.46942 1911.8766 6512992
1107.5061 862.79468 1903.7683 10197401
1120.2069 863.88873 1906.1824 12762559
1141.6658 871.64771 1923.3026 10524830
1226.2463 926.96936 2045.3707 9998225
1176.1332 880.38428 1942.58 9931661
1273.2493 943.84125 2082.5986 5653829
1324.5566 972.44855 2145.7209 4797493
1248.3972 907.8194 2003.1158 3548705
1363.7584 982.36743 2167.6072 4004630
1377.5677 983.05505 2169.1245 2559501
1378.7443 974.79834 2150.906 4726804
1403.796 983.41852 2169.9265 5448985
1411.0193 979.50598 2161.2935 4135702
1416.8004 974.67181 2150.6267 7030586
0 0 0 0
0 0 0 0
0 0 0 0
1397.5277 928.02063 2047.6903 4858647
1487.3691 979.177 2160.5674 8611425
1491.486 973.50684 2148.0562 1116681
1497.5789 969.21143 2138.5784 9212040
1519.1499 974.92145 2151.1775 2104345
1531.9651 974.96393 2151.2712 10724762
1556.0106 982.09393 2167.0037 4540736
1570.7081 983.25543 2169.5667 8947574
1574.9595 977.91187 2157.7759 4277053
1584.2086 975.7326 2152.9673 6775893
1592.1641 972.79773 2146.4915 4076328
1585.5715 961.09106 2120.6606 8813931
1604.1287 964.69318 2128.6086 1313287
1604.983 957.67584 2113.125 1773068
1616.0229 956.79797 2111.1877 5455407
1620.9888 952.36481 2101.406 7696232
1634.2673 952.84589 2102.4675 6575178
1659.3082 960.12579 2118.5308 11382698
1674.0493 961.38135 2121.301 11777973
1686.4532 961.28595 2121.0906 11844025
1700.4548 962.09583 2122.8777 11581627
1716.0458 963.78656 2126.6082 11647166
1726.4163 962.54193 2123.8621 11713472
1741.5623 963.95868 2126.988 11713472
1752.9442 963.28662 2125.5051 11450300
1762.9082 961.8504 2122.3362 11910851
1772.7352 960.36047 2119.0486 11976645
1786.4893 961.00391 2120.4683 12174795
1798.1123 960.5 2119.3564 11977160
1808.9923 959.60901 2117.3904 12108491
1820.2906 958.95056 2115.9375 12108491
1827.8998 956.37097 2110.2456 12042698
1840.464 956.40137 2110.3127 11976906
1849.4406 954.57959 2106.293 11976906
1862.1792 954.71094 2106.5828 11911114
1871.9882 953.34851 2103.5767 11911113
1886.7496 954.50977 2106.1389 11911113
1893.614 951.68677 2099.9099 11911113
1906.3656 951.84003 2100.248 12042699
1916.0625 950.47607 2097.2385 11779528
1932.7859 952.59283 2101.9092 11845320
1942.2086 951.10724 2098.6311 11911113
1950.7871 949.2298 2094.4885 11845320
1957.4888 946.46851 2088.3958 11911112
1967.0155 945.09943 2085.3748 11845319
1978.8824 944.86469 2084.8569 11845319
1994.8752 946.59082 2088.6655 11845319
0 0 0 0
0 0 0 0
0 0 0 0
0 0 0 0
0 0 0 0
0 0 0 0
0 0 0 0
0 0 0 0
0 0 0 0
0 0 0 0
0 0 0 0
0 0 0 0
-1572.7577 835.52032 1819.791 4273173
-1571.127 840.41675 1830.4556 5391393
-1559.6005 840.05109 1829.6592 6114857
-1554.4453 843.13617 1836.3785 6706994
-1530.5494 836.02802 1820.8969 7298876
-1514.4163 833.08936 1814.4962 5259290
-1514.5255 839.10754 1827.604 4008967
-1490.136 831.54132 1811.1245 4074504
-1460.5925 820.96832 1788.0963 4798226
-1451.8579 822.02264 1790.3926 3942663
-1445.0447 824.18829 1795.1094 3679748
-1444.3396 829.89569 1807.5404 3811078
-1424.9884 824.89459 1796.6478 2560768
-1409.7377 822.20978 1790.8 3811078
-1394.5514 819.52197 1784.946 4797717
-1390.3433 823.29388 1793.1614 3218947
-1370.4983 817.79327 1781.1808 3152640
-1363.1309 819.71039 1785.3564 3284995
-1354.2166 820.72015 1787.5558 2693123
-1358.3234 829.69946 1807.1129 2890496
-1359.0802 836.75891 1822.4886 3877388
-1346.6041 835.71912 1820.2239 3811595
-1339.8256 838.22687 1825.6859 3482629
-1325.8013 836.20557 1821.2833 3087874
-1319.6024 839.12708 1827.6465 3745800
-1303.6466 835.84125 1820.49 3811849
-1292.7803 835.79095 1820.3805 5061915
-1272.1097 829.34808 1806.3477 3482883
-1273.6414 837.39331 1823.8704 4206093
-1266.2296 839.64587 1828.7765 4469778
-1253.8239 838.59705 1826.4922 3811848
-1244.9756 839.93005 1829.3956 5325087
-1227.3132 835.2879 1819.2847 4799000
-1214.9536 834.20435 1816.9247 4930584
-1208.1699 836.96411 1822.9355 4996634
-1200.553 839.19122 1827.7863 3351813
-1189.2792 838.87958 1827.1074 3878153
-1177.8809 838.47333 1826.2228 4338192
-1164.1411 836.37756 1821.6582 4535573
-1161.8506 842.54523 1835.0913 3614472
-1153.2557 844.21442 1838.7271 3154442
-1141.7181 843.74078 1837.6954 6180659
-1130.2457 843.30664 1836.7499 4997415
-1127.0139 849.07239 1849.3079 4602400
-1107.0039 842.18695 1834.311 3418127
-1113.3119 855.38562 1863.0582 3089161
-1098.6965 852.61169 1857.0165 4339228
-1087.5898 852.53204 1856.8431 2102531
-1077.019 852.87512 1857.5903 4273179
-1068.5442 854.90216 1862.0052 1378560
-1055.3175 853.13013 1858.1458 3089421
-1053.7678 860.86005 1874.9817 6313022
-1044.0433 862.00513 1877.4758 5458218
-1032.4283 861.59753 1876.5879 4010772
-1026.5518 866.02173 1886.224 5194278
-1017.8589 868.14154 1890.8409 6707771
-994.36969 857.54803 1867.7681 6313267
-986.17163 860.05157 1873.2208 3220236
-972.58032 857.85522 1868.437 5917996
-954.79053 851.86224 1855.3842 5194275
-945.93274 853.79156 1859.5864 5522729
-936.71808 855.44061 1863.1781 3812370
-925.47003 855.24982 1862.7625 2760199
-916.79425 857.46021 1867.5768 2234371
-904.03491 855.8587 1864.0886 5589552
-900.23718 862.80646 1879.2211 5589812
-888.97504 862.68481 1878.9561 3944985
-879.65271 864.46619 1882.8361 3813142
-870.11249 866.07654 1886.3434 3549714
-853.84259 860.94324 1875.163 3418128
-841.38867 859.573 1872.1783 6839621
-827.48743 856.66766 1865.8506 3352852
-821.0575 861.52313 1876.426 2695178
-809.2561 860.79858 1874.8478 2365701
-807.22064 870.58618 1896.1656 1641984
-791.11725 865.26379 1884.5732 1576192
-770.19739 854.44568 1861.011 1970694
-761.35461 856.90601 1866.3696 2299911
-748.78162 855.17859 1862.6073 2891788
-747.24646 866.19434 1886.6 2826249
-736.07727 866.20752 1886.6287 3154699
-716.7251 856.44293 1865.3611 3944470
-714.51678 867.1792 1888.745 3813140
-703.13507 866.94666 1888.2385 3549969
-688.70734 862.89014 1879.4034 8353884
-674.38446 858.83392 1870.5687 5063723
-659.88776 854.41687 1860.9484 3287061
-646.69031 851.56073 1854.7275 2300426
-637.12543 853.47186 1858.8899 5918522
-628.62573 856.9021 1866.3611 4866350
-618.37616 858.02734 1868.8119 5261367
-612.12207 864.8385 1883.6469 3551008
-609.63501 877.32385 1910.8403 8289132
-598.66083 877.83679 1911.9578 3683366
-584.6864 873.88544 1903.3514 7959907
-574.1474 875.01428 1905.8101 7104340
-563.62616 876.21588 1908.4274 4933171
-556.93188 883.53809 1924.3754 7959129
0 0 0 0
-516.35431 854.14484 1860.3558 5262382
-518.89014 877.0661 1910.2791 7103814
-508.03699 877.87402 1912.0387 7432526
-495.40851 875.58118 1907.0448 7169093
-482.41214 872.51581 1900.3684 3154955
-469.64017 869.71948 1894.278 3220747
-461.43942 875.4588 1906.7784 852992
-451.31049 877.73645 1911.739 524288
-439.89551 877.56561 1911.3671 458752
-428.05753 876.51965 1909.0887 458752
-415.69086 874.30487 1904.265 393216
-402.84146 870.92297 1896.8992 1051141
-396.62094 882.08942 1921.2201 1643016
-383.34509 877.76123 1911.7931 4538158
-371.23898 875.92932 1907.8031 8025437
-360.37723 877.01056 1910.1581 4801839
-348.93039 876.69183 1909.4639 4406056
-340.39816 883.92029 1925.2076 4339495
-329.81006 886.1264 1930.0126 4537125
-317.70901 884.28003 1925.9911 2037002
-305.55573 882.14508 1921.3413 1575937
-297.01443 890.67664 1939.9231 5326130
-285.80762 891.57996 1941.8907 3879453
