# .PCD v0.7 - Point Cloud Data file format
VERSION 0.7
FIELDS x y z rgb
SIZE 4 4 4 4
TYPE F F F U
COUNT 1 1 1 1
WIDTH 1377
HEIGHT 1
VIEWPOINT 0 0 0 1 0 0 0
POINTS 1377
DATA ascii
-1540.6046 843.22144 2433.3164 3943181
-1536.7317 849.04895 2450.1331 3811599
-1534.7255 856.02881 2470.2751 2693123
-1517.7512 854.71393 2466.4807 4140565
-1489.0975 846.73236 2443.448 5127202
-1495.0331 858.4552 2477.2771 1969664
-1490.1042 864.11047 2493.5967 5258783
-1459.6143 854.90765 2467.0396 5850404
-1446.1898 855.61511 2469.0811 4732434
-1432.7522 856.3291 2471.1416 5521950
-1401.7078 846.42596 2442.5637 5456158
-1393.5657 850.2901 2453.7146 5324569
-1367.3138 843.06946 2432.8777 5061140
-1389.8624 866.10541 2499.3535 3678978
-1373.989 865.43671 2497.4236 4139269
-1360.4301 866.22699 2499.7043 4139785
-1353.8446 871.52399 2514.99 5257746
-1342.9659 874.14423 2522.5515 5849625
-1327.1803 873.59363 2520.9626 5454867
-1320.5215 879.10651 2536.8713 5323539
-1319.7286 888.69653 2564.5454 4797197
-1306.1877 889.82544 2567.8032 5324566
-1282.2944 883.84528 2550.5461 5192980
-1272.0438 887.23822 2560.3372 5259284
-1255.306 886.13373 2557.1499 5785628
-1236.281 883.36792 2549.1685 5522198
-1218.0082 881.07782 2542.5598 5258772
-1211.4847 887.33588 2560.6191 4403469
-1189.4219 882.22687 2545.8757 3942409
-1162.0177 872.97382 2519.1738 3285254
-1146.46 872.49536 2517.7932 3548685
-1146.0619 883.69348 2550.1082 3746580
-1138.394 889.51056 2566.8945 5457709
-1109.3448 878.55206 2535.2712 6247484
-1094.1176 878.38934 2534.8018 4800033
-1092.6471 889.42017 2566.6338 2759686
-1081.343 892.64484 2575.9395 5128480
-1065.7258 892.35046 2575.0898 6049579
-1050.5748 892.44354 2575.3584 8221261
-1040.2877 896.73199 2587.7339 6774073
-1025.9551 897.60938 2590.2656 7695432
-1005.2958 892.89423 2576.6589 8024141
-985.66528 888.96136 2565.3096 5195041
-974.92133 893.04553 2577.0955 5720875
-961.70032 894.95447 2582.6042 5392426
-949.62585 898.00946 2591.4202 7103301
-947.11389 910.35626 2627.0498 6379834
-911.38361 890.65308 2570.1917 5919284
-899.95453 894.43213 2581.0972 5984822
-886.41724 896.21039 2586.2285 5326636
-878.29071 903.61804 2607.6052 4076825
-866.08655 907.02075 2617.4243 6247737
-856.44312 913.27808 2635.4814 7892306
-841.48004 913.98993 2637.5356 5457708
-812.10101 898.77411 2593.627 3418126
-795.53522 897.42566 2589.7354 4075800
-777.0813 893.85211 2579.4233 5194280
-765.57349 898.28558 2592.217 4866084
-762.29248 912.7511 2633.9607 4866082
-747.90698 914.24719 2638.2781 5589291
-715.96411 893.88678 2579.5232 5457446
-701.46393 894.89026 2582.4189 5851946
-676.90479 882.81964 2547.5864 5259295
0 0 0 0
-639.3941 872.83313 2518.7681 5653027
-615.64111 860.49652 2483.1677 4797976
0 0 0 0
0 0 0 0
0 0 0 0
0 0 0 0
0 0 0 0
0 0 0 0
-539.62152 905.80316 2613.9109 5522473
0 0 0 0
0 0 0 0
0 0 0 0
0 0 0 0
0 0 0 0
0 0 0 0
0 0 0 0
0 0 0 0
0 0 0 0
-140.44034 330.66324 954.20752 65536
-132.26724 324.48532 936.37964 1
-127.02088 325.26071 938.61731 394757
0 0 0 0
0 0 0 0
-313.39569 923.8833 2666.0854 3553074
-302.09021 937.83594 2706.3489 4868936
-287.70789 943.26538 2722.0168 7106413
-272.58514 946.76813 2732.125 5724509
-257.07471 949.28186 2739.3789 2500908
-246.26039 970.64429 2801.0254 9015189
-226.55035 957.4978 2763.0879 9344923
-209.37323 953.84192 2752.5381 10200487
-193.44353 955.73126 2757.9902 9937059
-177.67998 958.86609 2767.0366 10199717
-162.41194 965.58441 2786.4238 9541530
-147.29454 974.82031 2813.0762 9607066
-128.00581 955.28381 2756.699 9607836
-107.65655 920.95874 2657.6458 10463659
-97.055382 972.55078 2806.5269 10397611
-80.229576 970.20807 2799.7664 9937318
-63.375504 966.21259 2788.2366 10002855
-47.537685 980.35706 2829.054 10397869
-30.833294 982.30634 2834.679 10726577
-14.017195 981.10339 2831.2075 10463660
2.7674317 983.33722 2837.6538 10463659
19.629349 985.61554 2844.2285 10595245
36.603912 988.83191 2853.51 10266280
52.835381 976.28467 2817.302 9740193
69.990723 982.73535 2835.9167 10661038
86.840561 983.22876 2837.3408 10463659
105.40819 999.85632 2885.3237 10594732
121.55825 992.11127 2862.9734 10068901
139.06834 996.00372 2874.2061 10595245
156.4861 998.45764 2881.2874 10397352
173.48669 998.02893 2880.0503 10265767
188.13754 985.37018 2843.5203 9410457
206.51508 992.70673 2864.6917 9936802
225.728 1002.6392 2893.3542 9607323
241.6884 997.74225 2879.2229 7700098
258.6319 997.2818 2877.894 9870755
276.33969 999.64319 2884.7085 9607840
296.50784 1010.1111 2914.9163 9477023
313.0574 1007.7778 2908.1826 10068903
326.46503 996.10126 2874.4873 7305597
348.52267 1010.6666 2916.5193 4673362
366.52103 1012.6406 2922.2156 7239804
381.49738 1006.4637 2904.3906 9871521
401.13684 1012.5913 2922.0735 9936798
418.18954 1011.9521 2920.2288 2764074
429.44995 997.9043 2879.6907 2039836
447.31924 999.70032 2884.8733 1512724
460.17563 990.57336 2858.5354 1249808
480.45685 997.50964 2878.5518 788742
495.13266 992.73163 2864.7637 591364
507.8786 984.5293 2841.0938 1052171
526.61578 988.09467 2851.3826 11381928
543.27808 987.66632 2850.1465 4868421
562.64117 992.02576 2862.7268 2170908
571.4137 978.00378 2822.2629 2236700
581.64874 967.21124 2791.1184 7828845
588.15515 950.98663 2744.2986 526086
610.1803 960.05237 2770.4597 1315081
625.23596 957.96448 2764.4348 4933436
632.63477 944.55133 2725.7278 5986120
651.84497 949.00183 2738.5708 2958876
674.00885 957.43176 2762.8975 2958875
693.28571 961.45819 2774.5166 3550760
697.02448 944.24884 2724.855 131328
697.23364 923.14551 2663.9563 5064510
716.39508 927.51416 2676.563 2235925
733.24908 928.77087 2680.1895 131328
751.83679 932.12372 2689.865 2762267
764.44128 928.0733 2678.1765 4144433
781.76764 929.80377 2683.1702 2629654
796.91412 928.92413 2680.6318 591362
809.14282 924.74438 2668.5701 1840142
824.09308 923.77551 2665.7744 656642
845.07153 929.47351 2682.217 3748138
866.27173 935.20032 2698.7434 591104
876.60071 929.19623 2681.417 1379586
883.76477 920.11072 2655.1987 3353376
898.2088 918.78979 2651.387 2300431
904.84656 909.66663 2625.0596 1643273
922.51294 911.75171 2631.0767 2301454
935.19202 908.92029 2622.906 6249803
937.99176 896.73669 2587.7473 6445128
947.22998 891.00134 2571.1965 4932403
963.41449 891.87799 2573.7263 4208937
954.87592 870.19684 2511.1602 8024670
971.62415 871.8717 2515.9934 1511428
998.97473 882.86615 2547.7205 4998184
1032.4579 898.87219 2593.9099 5129769
1040.2603 892.37854 2575.1709 11905950
1049.6526 887.41699 2560.853 6972489
1070.3484 892.01697 2574.1274 4668194
1068.0195 877.56885 2532.4338 5260848
1075.2817 871.29272 2514.3225 2694671
1089.6382 870.85797 2513.0681 1510400
1099.8788 867.18982 2502.4827 5129010
1115.0132 867.42639 2503.1655 7498067
1130.7137 868.09143 2505.0847 8024150
1138.877 863.02759 2490.4717 8946022
1146.4219 857.63074 2474.8977 7893080
1155.5387 853.53131 2463.0679 9670007
1163.0452 848.35956 2448.1436 3090203
1175.4103 846.81549 2443.6877 2103308
1185.6475 843.79468 2434.9707 525058
1201.1464 844.5462 2437.1392 919554
1218.3683 846.47687 2442.7107 1709072
1231.817 845.77155 2440.6753 196608
1243.0649 843.58893 2434.377 1971467
1259.0322 844.62262 2437.3596 393984
1275.558 846.00317 2441.3435 2038796
1293.8301 848.4978 2448.5425 10328196
1297.6338 841.55414 2428.5049 4142358
1305.7085 837.5022 2416.812 1973012
1349.0763 855.93011 2469.9902 2169352
1370.0743 859.92218 2481.5103 7168581
1350.3424 838.53693 2419.7981 3749157
1327.6887 815.80573 2354.2019 8682071
1370.3147 833.24176 2404.5176 6182455
1375.5969 827.84503 2388.9441 12630430
1390.6779 828.39526 2390.5317 8550484
1396.0564 823.21307 2375.5774 8287313
1404.4615 819.90125 2366.0203 6445113
1417.0182 819.0545 2363.5769 10327669
1432.8544 820.10144 2366.5979 5260330
1470.5588 833.52319 2405.3296 7168583
1483.7617 832.9328 2403.626 4800802
1478.5889 822.13623 2372.47 9471850
1511.4218 832.47626 2402.3086 9340521
1523.7804 831.4516 2399.3516 10065015
1513.9449 818.44757 2361.8254 10723204
1499.9304 803.44324 2318.5269 9670003
1532.2303 813.29468 2346.9556 11249296
1534.243 807.03729 2328.8982 7828063
1526.5792 795.8468 2296.6055 8881523
1559.3269 805.73553 2325.1418 7960168
1578.4484 808.4718 2333.0378 8617841
0 0 0 0
0 0 0 0
0 0 0 0
1623.0959 803.19812 2317.8196 8749951
0 0 0 0
0 0 0 0
1931.4994 932.14777 2689.9343 5920853
1955.5344 936.02197 2701.1143 4078135
1928.653 915.65979 2642.3542 5591889
0 0 0 0
0 0 0 0
0 0 0 0
0 0 0 0
1728.486 788.61261 2275.7295 6447702
1726.0496 781.40411 2254.9277 8618354
1721.1287 773.19025 2231.2246 5722690
1751.1055 780.6593 2252.7786 7762009
1764.5061 780.68158 2252.8425 7300942
1799.5931 790.2262 2280.386 6905920
1795.8402 782.70056 2258.6689 7036992
1805.1606 780.94202 2253.5942 8352596
1782.9659 765.67542 2209.5388 8616538
1818.9204 775.42102 2237.6621 6182713
1822.75 771.4295 2226.1436 6840902
1874.7312 787.72772 2273.176 10854534
1776.2231 741.01178 2138.366 8552037
1851.4177 766.91022 2213.1021 8946798
1822.6726 749.69238 2163.416 9143922
1876.3202 766.36774 2211.5366 8683630
1923.7192 780.27716 2251.6758 7565406
1952.4552 786.47742 2269.5679 6118218
1931.9731 772.90259 2230.3945 6775895
1964.0806 780.40833 2252.054 6841945
1948.8202 769.11841 2219.4744 6841946
1940.9635 760.88232 2195.7073 5131583
2177.4805 847.91553 2446.8623 4868934
0 0 0 0
2617.7688 1005.9666 2902.9561 5790035
2687.873 1026.1628 2961.2371 6250589
2695.6499 1022.4562 2950.541 2894890
2747.3379 1035.3455 2987.7361 3881789
2802.6086 1049.4114 3028.3264 5197651
2812.6982 1046.488 3019.8906 9868955
2816.3442 1041.2196 3004.6873 12040638
2746.293 1008.9421 2911.543 9671831
2755.49 1006.0005 2903.0542 6381922
2717.5613 985.99695 2845.3291 6645094
0 0 0 0
0 0 0 0
0 0 0 0
0 0 0 0
0 0 0 0
0 0 0 0
0 0 0 0
0 0 0 0
0 0 0 0
-2072.0859 828.0022 2349.2224 4271630
-2053.7861 826.24109 2344.2256 4074253
-2048.9231 829.89832 2354.6021 4403475
-2042.5042 832.97119 2363.3206 4797976
-1987.2029 816.01373 2315.2085 4864283
-1996.9094 825.70056 2342.6921 4864284
-1952.823 813.12451 2307.011 4074510
-1924.6407 807.03998 2289.7478 4271632
-1933.9445 816.69934 2317.1536 4205839
-1936.3479 823.56189 2336.6243 4271628
-1940.9158 831.45068 2359.0063 4469009
-1911.0956 824.61572 2339.6143 4534802
-1896.4625 824.28198 2338.6672 3941895
-1872.3871 819.8089 2325.9763 4863767
-1848.7863 815.479 2313.6912 5061145
-1854.3384 824.03937 2337.979 5061146
-1843.2322 825.27026 2341.4712 4337935
-1828.4607 824.86627 2340.3252 5193246
-1818.9508 826.84796 2345.9475 3877641
-1814.0377 830.96582 2357.6309 3746056
-1790.8184 826.69684 2345.5188 4075021
-1801.9764 838.35498 2378.5955 4666645
-1771.6327 830.73627 2356.9795 4863510
-1769.6267 836.39001 2373.0203 4140042
-1742.2898 830.0661 2355.0779 5718817
-1739.0127 835.19501 2369.6299 5126678
-1722.5906 834.04303 2366.3616 4666128
-1706.2111 832.89294 2363.0986 4336136
-1699.4783 836.47192 2373.2529 4533772
-1686.3563 836.93976 2374.5801 4533772
-1667.8964 834.74377 2368.3499 5257494
-1670.9045 843.34601 2392.7561 5191702
-1646.7847 838.28619 2378.4004 5060629
-1638.3628 841.19904 2386.6646 6047269
-1634.0863 846.30939 2401.1638 4402701
-1603.8256 837.93384 2377.4006 4337167
-1585.4932 835.6972 2371.0547 3416065
-1567.6027 833.65558 2365.2622 3547652
-1560.5182 837.37567 2375.8169 3152642
-1557.3892 843.30524 2392.6404 4008718
-1551.1003 847.617 2404.8738 3614216
-1537.1112 847.76196 2405.2849 3680011
-1521.6945 847.11469 2403.4487 4601111
-1515.5425 851.66168 2416.3494 4995612
-1503.4301 852.91406 2419.9026 3614216
-1490.9618 853.98651 2422.9456 3811595
-1478.3943 855.02258 2425.885 4140043
-1465.6044 855.9491 2428.5137 4337423
-1453.5829 857.34723 2432.4805 5587229
-1437.8848 856.58301 2430.3123 5455642
-1408.824 847.76239 2405.2864 6311208
-1402.9777 852.8736 2419.7878 5719072
-1390.7561 854.17487 2423.4797 4534286
-1381.8856 857.58276 2433.1489 5126420
-1361.5768 853.88934 2422.6699 4402439
-1357.3414 860.30475 2440.8718 4796940
-1341.0546 859.1377 2437.5605 5125906
-1329.5833 861.0639 2443.0254 4007682
-1322.6035 865.97321 2456.9543 4731402
-1321.5604 874.92224 2482.3447 5060111
-1281.6755 858.06854 2434.5271 5060368
-1291.7112 874.63275 2481.5234 4533511
-1285.8381 880.68262 2498.6882 5389333
-1274.8912 883.35773 2506.2781 4863759
-1266.9114 888.17603 2519.9485 4469002
-1240.9783 880.37286 2497.8093 5916706
-1237.3633 888.40527 2520.5991 4469003
-1215.8931 883.65784 2507.1294 4074505
-1194.9667 879.19281 2494.4612 3745287
-1186.4609 883.8689 2507.7283 3087361
-1164.2949 878.35822 2492.0933 3744778
-1154.4408 882.1134 2502.7476 1903616
-1136.9255 880.03625 2496.8542 3351306
-1126.4591 883.43243 2506.49 5457195
-1114.7666 885.94501 2513.6187 3220494
-1103.2308 888.65198 2521.2988 4207128
-1106.5894 903.59521 2563.696 4272921
-1090.6014 902.93701 2561.8286 4272920
-1056.4692 887.02606 2516.6858 5522982
-1035.9645 882.2652 2503.1782 5457187
-1048.8365 906.20374 2571.0972 4601621
-1024.3392 898.08466 2548.0615 5522723
-1010.5934 899.2901 2551.4814 6180910
-995.96838 899.73779 2552.7517 5457186
-965.21191 885.40173 2512.0771 5391393
-960.3363 894.72919 2538.5413 5852200
-939.34906 889.10382 2522.5811 5786151
-931.45508 895.88983 2541.8342 5720360
-916.76703 896.25677 2542.8755 5984047
-896.59357 891.18378 2528.4822 5786413
-890.85034 900.52521 2554.9858 4996127
-877.07532 901.9303 2558.9724 5259555
-872.63202 913.14984 2590.8047 5259557
-859.03497 915.02094 2596.1135 5851694
-840.6543 911.77197 2586.8955 5851693
-827.01465 913.63983 2592.1951 5654315
-808.20361 909.75745 2581.1797 5917999
-792.86017 909.70374 2581.0273 7365190
-772.78522 904.11224 2565.1631 6773562
-756.04919 902.28125 2559.968 5917738
-745.59448 908.02484 2576.2639 5193501
-725.80115 902.39783 2560.2988 4469521
-712.98889 905.39539 2568.8037 5324060
-694.44385 901.08527 2556.575 5258524
0 0 0 0
-650.31317 882.32239 2503.3406 4600594
0 0 0 0
-621.69427 883.81769 2507.583 4600594
-605.61261 882.03906 2502.5366 3481859
0 0 0 0
0 0 0 0
0 0 0 0
0 0 0 0
0 0 0 0
-531.84979 908.02515 2576.2649 4799786
0 0 0 0
-500.14301 905.90271 2570.2429 3878418
0 0 0 0
0 0 0 0
0 0 0 0
0 0 0 0
0 0 0 0
0 0 0 0
-141.82594 326.49008 926.32336 65536
-137.39336 329.02133 933.50513 2
-132.13681 329.70905 935.45624 0
0 0 0 0
0 0 0 0
0 0 0 0
-307.44308 921.8349 2615.446 1380872
-296.71552 936.9032 2658.1982 2170390
-286.33408 954.81555 2709.0193 1578764
-269.12805 950.74646 2697.4746 3553067
-258.60632 971.26837 2755.6997 2566691
-241.79282 969.3335 2750.21 6646633
-222.26874 955.46698 2710.8677 8751755
-205.30127 951.28619 2699.0059 7172467
-188.14415 945.44574 2682.4353 9540757
-174.26096 956.49756 2713.7917 9014412
-156.71764 947.66406 2688.7292 7961721
-139.04117 935.93494 2655.4509 10001046
-125.62858 953.57642 2705.5037 8356735
-108.57359 944.68744 2680.2839 10199199
-92.166664 939.3573 2665.1609 9278356
-76.076698 935.72083 2654.8435 9672859
-60.08794 931.75757 2643.5989 9805216
-44.740211 938.44458 2662.5713 10529195
-29.735847 963.54431 2733.7847 10266281
-13.623944 969.88635 2751.7786 10397867
2.7175181 982.11493 2786.4736 10397866
19.096498 975.25836 2767.0203 10397866
35.286434 969.54291 2750.8042 10529452
51.469299 967.3067 2744.4595 10529452
68.043884 971.73859 2757.0337 10661038
86.567764 996.90192 2828.4277 11055796
103.44466 998.01178 2831.5767 11056052
120.1061 997.02325 2828.7717 10858416
137.37686 1000.7155 2839.2473 10266279
152.64426 990.60083 2810.55 10792624
171.52509 1003.619 2847.4856 10792624
184.7166 983.99786 2791.8162 10661038
203.96835 997.23212 2829.3645 10792624
219.91277 993.51392 2818.8152 10792367
237.0686 995.40741 2824.1873 10200231
253.70419 995.01074 2823.0618 10661295
270.99847 997.08661 2828.9514 10661038
287.92749 997.65503 2830.5642 10529452
305.54846 1000.4264 2838.4272 10463916
325.76031 1010.9491 2868.2825 9674143
340.63889 1004.6978 2850.5461 10332073
367.29636 1032.137 2928.3972 10595245
375.15665 1006.6616 2856.1179 10858417
392.65033 1008.1193 2860.2537 10528681
408.25961 1004.8182 2850.8879 10725800
430.50018 1017.4521 2886.7329 9870488
441.00125 1002.4354 2844.1272 11383726
456.60052 999.68622 2836.3274 8160128
474.61865 1002.2402 2843.5735 8488580
493.22437 1005.8173 2853.7224 1777438
509.44052 1004.4458 2849.8313 2368801
533.0014 1017.1788 2885.9578 5789524
544.87878 1007.5167 2858.5442 2630690
560.67731 1005.4692 2852.7349 2565666
571.21991 994.39172 2821.3057 5460295
581.30096 983.16376 2789.4495 7960430
601.4201 989.06488 2806.1921 2367771
608.9234 974.45929 2764.7529 2301722
619.48962 965.39227 2739.0278 1117444
638.93811 970.27655 2752.8857 5328197
656.15979 971.62042 2756.6985 3288872
673.85297 973.58008 2762.2585 4735801
684.43793 965.42059 2739.1082 2630944
695.7757 958.67621 2719.9729 1775629
699.14594 941.50787 2671.2627 5064766
718.33313 945.92816 2683.804 3419940
727.54602 937.30695 2659.3435 1183754
748.60693 943.99152 2678.3093 3155999
761.91754 940.82837 2669.3347 3419171
775.59058 938.23236 2661.9692 788485
789.4931 936.01184 2655.6692 5656646
791.10834 919.59534 2609.092 854273
816.03412 930.38531 2639.7053 1709838
844.6864 944.93805 2680.9946 3025441
864.2179 948.9386 2692.3452 131072
870.03986 938.01337 2661.3479 2564122
893.93011 946.61035 2685.7395 2235409
899.09961 935.42932 2654.0166 1051651
910.3493 930.84991 2641.0237 2564374
909.95654 914.72186 2595.2649 65792
920.74908 910.18701 2582.3984 4670511
935.46246 909.61292 2580.7695 6709324
944.51263 903.63898 2563.8203 5590847
956.95044 901.04407 2556.458 2432270
965.23608 894.68134 2538.4055 5524285
971.96649 887.09442 2516.8799 4076584
991.27454 891.04285 2528.0823 4274733
1015.1793 898.94403 2550.4998 2301971
1028.0341 896.97198 2544.9048 11314836
1057.9214 909.70343 2581.0266 6249792
1033.1427 875.73474 2484.6499 5131309
1048.6135 876.3584 2486.4194 4669992
1072.498 883.89899 2507.8137 6840905
1094.349 889.58026 2523.9326 4142110
1091.1479 875.01855 2482.6179 4865574
1109.6068 877.98285 2491.0283 6379584
1122.9479 876.87305 2487.8796 5392691
1135.7655 875.38855 2483.6677 6445634
1141.8763 868.83887 2465.085 9077612
1149.2655 863.4151 2449.6965 7301461
1150.4249 853.5047 2421.5786 9143413
1177.3649 862.72961 2447.7515 460289
1209.5874 875.55365 2484.1362 394241
0 0 0 0
1199.9819 847.96027 2405.8477 1906708
1220.8756 852.5946 2418.9963 65536
1223.5703 844.55963 2396.1995 1249029
1260.1663 859.84064 2439.5549 4275759
1276.6461 861.20502 2443.4258 592132
1281.1329 854.53918 2424.5137 5855809
1312.5551 865.78827 2456.4297 6250319
1308.0398 853.34564 2421.1272 5195315
1353.7485 873.58289 2478.5447 1313792
1381.4199 881.87097 2502.0598 4340261
1364.1732 861.61267 2444.5828 1644559
1348.9119 843.02106 2391.834 10854272
1353.8947 837.33624 2375.7051 6906178
1363.6689 834.70142 2368.2295 12236694
1380.8489 836.60693 2373.636 6314300
1385.1521 830.75128 2357.0222 7761487
1412.1942 838.51416 2379.0471 9208419
1437.1539 844.89929 2397.1631 6380092
1433.2733 834.37018 2367.2898 6840129
1451.1276 836.57544 2373.5466 8748126
1466.9266 837.56488 2376.3538 3680011
1482.1139 838.18951 2378.126 7235661
1481.4948 829.94757 2354.7417 8420188
1484.5826 823.91663 2337.6306 9472105
1490.3002 819.44318 2324.9385 10657151
1511.6097 823.54639 2336.5803 10393469
1524.3186 822.93195 2334.8369 9735800
1535.4534 821.48633 2330.7354 9011566
1553.7063 823.84088 2337.4158 7959648
1584.0031 832.48358 2361.937 6182988
1573.5531 819.74762 2325.8022 6709848
1559.3445 805.29181 2284.7881 7038813
0 0 0 0
1586.8158 805.49036 2285.3513 5459784
1618.9022 814.8233 2311.8308 6644317
0 0 0 0
1913.9254 947.28064 2687.6414 6842210
1952.2001 958.24988 2718.7634 9605258
1954.7816 951.66272 2700.0742 5526091
0 0 0 0
0 0 0 0
0 0 0 0
0 0 0 0
1698.0535 794.1734 2253.2427 5854793
1736.9766 806.03906 2286.9082 4670007
1737.7947 800.17535 2270.2715 7105113
1754.0183 801.4408 2273.8618 8486759
1727.7673 783.42749 2222.7542 7761228
1769.5906 796.32043 2259.3342 6379317
0 0 0 0
1813.6459 803.97906 2281.0635 6707251
1815.6853 798.92828 2266.7334 7760714
1796.073 784.49469 2225.782 6247736
1771.2164 767.99744 2178.9758 6840903
1796.7815 773.44373 2194.428 4209442
0 0 0 0
1745.7861 740.7691 2101.7231 9209707
1800.1005 758.40491 2151.7598 9275247
1784.7939 746.66675 2118.4561 8814697
1807.9541 751.07263 2130.9565 8814698
1854.1531 764.92194 2170.25 7630426
1904.7534 780.38385 2214.1187 7235669
1952.5632 794.49854 2254.165 6116933
1951.9922 788.86908 2238.1931 6248266
1932.0642 775.54553 2200.3914 5459777
1951.7111 778.17987 2207.8655 2235926
0 0 0 0
0 0 0 0
0 0 0 0
2737.5046 1062.9839 3015.9165 5460816
2772.3755 1069.5414 3034.5215 7105642
2735.9761 1048.6965 2975.3804 8355198
2794.981 1064.4528 3020.0842 4933707
2757.8838 1043.6416 2961.0383 5065551
2733.8445 1028.0038 2916.6702 2170914
2759.0779 1030.9739 2925.0972 5065549
2683.9424 996.63654 2827.6748 7368821
2697.0935 995.30585 2823.8992 8026748
0 0 0 0
0 0 0 0
0 0 0 0
0 0 0 0
0 0 0 0
0 0 0 0
0 0 0 0
0 0 0 0
0 0 0 0
0 0 0 0
-2026.7512 829.07434 2313.3674 3877388
-2025.7708 834.31683 2327.9956 5192991
-1990.2335 825.30133 2302.8396 4535317
-1980.7789 827.05194 2307.7244 4206352
-1967.1107 827.05518 2307.7334 6179886
-1945.3723 823.64166 2298.2087 6772026
-1926.554 821.42517 2292.0239 3153412
-1907.7831 819.19751 2285.8081 4732698
-1893.23 818.76208 2284.593 4534547
-1909.5653 831.77484 2320.9026 3745034
-1874.0496 822.22711 2294.2615 5061915
-1862.1163 822.9621 2296.3125 3876872
-1846.7312 822.17108 2294.1052 4798743
-1843.0955 826.63806 2306.5693 5720102
-1828.7998 826.35498 2305.7795 5127965
-1822.6879 829.79327 2315.3735 2891010
-1794.3168 823.07343 2296.623 3614474
-1792.1924 828.38239 2311.4365 3614729
-1787.5355 832.59351 2323.187 4206866
-1785.3577 838.03369 2338.3667 4864284
-1776.4125 840.3576 2344.8511 4469522
-1766.1808 842.1048 2349.7263 4009226
-1741.3918 836.88373 2335.158 4534800
-1721.5457 833.97351 2327.0376 4534800
-1708.8358 834.50122 2328.51 4534287
-1699.5359 836.71637 2334.6909 3876614
-1679.7531 833.76459 2326.4546 3679491
-1666.7234 834.14362 2327.5122 4402188
-1656.1605 835.77374 2332.0608 4402188
-1644.0741 836.65619 2334.5232 4665872
-1644.3702 843.90839 2354.7588 4665873
-1630.4153 843.90839 2354.7588 3678983
-1621.9009 846.74854 2362.6838 3152899
-1609.8419 847.77167 2365.5386 3416072
-1575.9249 837.20087 2336.0427 3942415
-1565.3585 838.95746 2340.9441 2889728
-1549.7511 838.01953 2338.3271 3219205
-1535.2257 837.65503 2337.3101 3087877
-1528.1299 841.37457 2347.6887 3614476
-1510.1671 839.12427 2341.4097 2956291
-1506.2463 844.70709 2356.9873 3548169
-1496.0629 846.8493 2362.9648 4403733
-1489.4524 851.07355 2374.752 5851688
-1476.8179 851.90363 2377.0679 4732951
-1461.7872 851.35406 2375.5344 5127451
-1452.1422 853.96082 2382.8083 5785121
-1442.061 856.35986 2389.5022 6179876
-1437.2146 861.94598 2405.0891 5982497
-1418.925 859.50085 2398.2666 5060886
-1398.343 855.60364 2387.3921 4337164
-1366.0171 844.36749 2356.04 4534543
-1380.3081 862.01196 2405.2734 4337162
-1366.6909 862.41394 2406.395 2824192
-1347.62 859.34674 2397.8364 4994834
-1337.3289 861.87231 2404.8838 4797455
-1326.7915 864.29199 2411.6353 4336647
-1311.2516 863.47009 2409.342 5257747
-1299.9989 865.48444 2414.9626 5060368
-1289.6068 868.12299 2422.325 4665354
-1272.7408 866.41376 2417.5557 4533768
-1259.4603 867.13428 2419.5659 2888448
-1264.9524 880.94495 2458.1021 4205061
-1252.4362 882.39001 2462.1343 4336649
-1244.7515 887.31317 2475.8713 4600334
-1233.395 889.70538 2482.5461 4402958
-1207.9126 881.84241 2460.6062 4732436
-1207.5779 892.37085 2489.9836 4337681
-1181.2592 883.72064 2465.8469 3153923
-1169.7699 886.08704 2472.45 3614477
-1157.8571 888.18835 2478.3132 3680014
-1150.2081 893.65656 2493.5713 2430720
-1135.1727 893.45361 2493.0049 3680784
-1115.9293 889.88953 2483.0601 2956803
-1105.2986 893.19012 2492.2698 3680783
-1107.5381 907.12146 2531.1423 3417352
-1084.0338 900.06049 2511.4402 4338711
-1064.3331 896.00513 2500.1243 6509878
-1060.434 905.32526 2526.1304 4733210
-1040.6249 901.13525 2514.439 5588004
-1017.4929 893.90405 2494.262 3680266
-1010.4758 900.82587 2513.5759 5522467
-989.60596 895.42065 2498.4937 5456673
-979.79187 900.00659 2511.2898 6049578
-951.13269 887.15656 2475.4343 5588772
-937.34778 887.995 2477.7737 5917480
-924.85602 890.10474 2483.6606 5456931
-924.00751 903.66956 2521.5105 5194016
-896.4632 891.14313 2486.5579 4338195
-892.06415 901.59027 2515.7087 5456932
-870.09479 894.33282 2495.4583 6049329
-858.48187 897.6535 2504.7239 4865056
-853.341 907.97736 2533.5305 4602912
-852.69904 923.54376 2576.9656 6708800
-834.34137 920.14032 2567.469 4404503
-800.86475 899.62714 2510.231 6247984
-780.31757 893.13617 2492.1191 5326111
-769.62256 897.88898 2505.3811 6246961
-756.55688 900.00854 2511.2952 3483657
-744.65839 903.62958 2521.3989 4667673
-733.5636 908.3941 2534.6936 5522724
-721.92358 912.66858 2546.6206 4732951
-697.21332 900.24908 2511.9666 5917224
-682.28528 900.19427 2511.8135 3087877
-666.67438 899.21588 2509.0835 3811079
-649.01025 895.36023 2498.3252 4337422
-630.96716 890.78967 2485.5718 5061146
0 0 0 0
-603.23779 893.35266 2492.7234 3876873
0 0 0 0
0 0 0 0
0 0 0 0
0 0 0 0
0 0 0 0
-528.29749 917.12573 2559.0574 9867395
-517.29376 924.56427 2579.813 657411
-500.40741 921.62134 2571.6016 6380366
-485.61108 922.46399 2573.9526 2169355
0 0 0 0
0 0 0 0
0 0 0 0
0 0 0 0
0 0 0 0
0 0 0 0
-137.79384 335.52869 936.2262 0
-132.23955 335.51343 936.18359 65536
-126.72428 335.60016 936.42566 131584
0 0 0 0
0 0 0 0
-306.89996 935.67871 2610.8257 526596
-292.18753 938.11847 2617.6333 2171416
-279.67416 948.28802 2646.0095 3815984
-265.86304 955.00415 2664.7495 3157796
-251.49438 960.43933 2679.9153 3487276
-239.40941 975.91632 2723.1006 5328707
-218.67116 955.80719 2666.9902 8618101
-204.06181 961.44135 2682.7112 7038297
-187.2536 956.79211 2669.7385 8353126
-170.46297 951.38287 2654.645 7958363
-152.8988 940.11749 2623.2114 7234641
-138.70303 949.35724 2648.9929 7893083
-121.64171 938.83875 2619.6433 6182724
-106.39655 941.31079 2626.541 6708812
-89.096924 923.33893 2576.394 8617066
-73.557945 919.95319 2566.9468 7170395
-58.706631 925.64459 2582.8274 8224116
-43.249043 922.41962 2573.8289 9541009
-28.275419 931.62653 2599.519 9936029
-13.065595 945.77667 2639.0022 10002338
2.569593 944.26904 2634.7952 10265766
18.294922 950.03149 2650.8745 10002595
34.321602 958.88898 2675.5894 10463915
50.981083 974.24121 2718.4268 10463404
66.784332 969.78711 2705.9985 10660784
83.840828 981.73279 2739.3306 10792114
100.71708 988.03473 2756.9148 10792369
118.16081 997.36743 2782.9558 10397868
132.00578 977.75812 2728.24 10331818
149.00041 983.21204 2743.458 10726576
167.14882 994.45709 2774.8352 10858162
181.86351 985.08868 2748.6943 10858162
200.3575 996.04865 2779.2761 10397612
216.86604 996.22308 2779.7629 10660785
234.50246 1001.1882 2793.6169 10792625
250.5699 999.24158 2788.1853 10924210
268.45062 1004.3197 2802.3547 10924210
285.32639 1005.2652 2804.9932 10858417
301.96851 1005.329 2805.1711 9871522
318.19498 1004.0745 2801.6707 10463659
335.59851 1006.4744 2808.3672 10463660
352.67645 1007.7173 2811.835 10463146
370.46896 1010.7976 2820.4302 10594732
386.41364 1008.788 2814.8225 9871008
402.85739 1008.1936 2813.1641 10989232
421.77365 1013.5883 2828.217 10857387
435.65228 1006.9271 2809.6304 8817803
452.56055 1007.501 2811.2317 11252657
469.04062 1007.1149 2810.1541 10199969
481.24893 997.89728 2784.4343 9542552
508.05746 1018.5617 2842.0942 9410967
528.40454 1025.3617 2861.0681 9805724
546.81409 1028.0958 2868.6973 10923435
555.97015 1013.7917 2828.7847 7567735
560.41083 991.97839 2767.9187 9869205
581.54797 1000.1194 2790.6348 1973787
604.43427 1010.7353 2820.2561 1907737
617.87634 1005.412 2805.4028 4473407
623.55566 988.06714 2757.0054 1446928
631.06006 974.42621 2718.9429 4275768
652.23975 982.05499 2740.2295 3946802
680.07361 999.0885 2787.7583 3157286
688.57684 987.58929 2755.6719 1249290
697.88452 977.74988 2728.217 788741
701.70306 960.83984 2681.0327 2828067
713.66431 955.58148 2666.3606 591362
728.78412 954.6886 2663.8691 788739
742.58984 952.14868 2656.7817 1051913
758.72601 952.64026 2658.1536 2828062
774.14594 952.23077 2657.011 2630683
781.5979 942.23218 2629.1118 131072
802.37665 948.37616 2646.2554 1380108
813.87915 943.53046 2632.7344 657414
837.37708 952.51184 2657.7952 1709328
859.92474 960.10065 2678.9702 394242
872.72418 956.72784 2669.5591 1116935
890.71399 959.06372 2676.0769 327936
896.53418 948.44366 2646.4438 3419945
904.63727 940.56226 2624.4524 65536
920.77869 941.16376 2626.1306 4539190
919.56873 924.30432 2579.0879 1709065
930.02649 919.53235 2565.7725 6248265
951.42883 925.56091 2582.594 2432784
956.55969 915.82007 2555.4141 2366737
967.10913 911.48975 2543.3313 5064764
976.26678 906.00079 2528.0154 3617318
990.32013 905.1524 2525.6482 855044
1003.8111 903.82288 2521.9385 1249801
1017.5901 902.78802 2519.0508 10195327
1046.995 915.44568 2554.3694 4866863
1048.6506 903.8255 2521.9456 3287834
1054.1011 895.75665 2499.4312 4932656
1066.3304 893.59229 2493.3918 9998716
1080.2266 892.86469 2491.3616 1314051
1102.7477 899.18964 2509.0103 5392697
1110.6545 893.58826 2493.3806 2959386
1125.4204 893.5799 2493.3574 789250
1140.0132 893.43616 2492.9563 7236434
1140.858 882.65967 2462.8865 3947300
1152.8279 880.65381 2457.2896 8289897
1153.2771 870.0072 2427.5823 3681312
1185.6501 883.40875 2464.9768 327936
1208.2432 889.28583 2481.3755 3287843
1213.392 882.33673 2461.9856 920071
1145.5767 823.12628 2296.7705 2235927
1224.3958 869.42963 2425.9709 328192
1237.1022 868.25726 2422.6997 1315341
1265.938 878.30237 2450.7285 2894620
1269.3939 870.71082 2429.5457 921354
1277.8289 866.66644 2418.2607 7962209
1292.8746 867.14575 2419.5981 7169882
1312.8218 870.86591 2429.9785 4930086
1339.8698 879.16455 2453.1343 4800812
1360.5222 883.13373 2464.2095 591873
1342.8676 862.41699 2406.4033 1644300
1350.4146 858.15051 2394.4985 11906964
1349.4958 848.64893 2367.9863 7630155
1352.0903 841.5296 2348.1213 10984829
1367.2638 842.30457 2350.2837 4931876
1395.1354 850.80774 2374.01 7827540
1421.6831 858.3418 2395.0325 8222556
1414.7347 845.70361 2359.7681 6643520
1414.828 837.48096 2336.8245 8024917
1439.3279 843.72467 2354.2463 1774346
1466.578 851.44525 2375.7891 8550487
1470.7308 845.737 2359.8613 4405793
1457.7245 830.36194 2316.9602 9010531
1478.3115 834.23102 2327.7561 7564370
1468.2578 820.8974 2290.5513 10064761
1483.8662 822.02429 2293.6956 8617058
1530.7 840.27167 2344.6113 7235406
1538.4756 836.94287 2335.323 8288362
1562.384 842.37158 2350.4707 8091496
1580.1453 844.41937 2356.1846 8814961
1585.6798 839.95453 2343.7263 9933956
1585.6877 832.66516 2323.387 6184271
1582.6031 823.89136 2298.9053 3881779
1609.0032 830.48572 2317.3057 3157035
1605.3845 821.60559 2292.5273 6512987
1611.755 817.94385 2282.3098 4473152
1822.9026 917.39978 2559.822 5328202
1936.3105 966.43121 2696.6345 6907745
0 0 0 0
0 0 0 0
0 0 0 0
0 0 0 0
1698.2238 814.00879 2271.3301 6511949
1709.132 812.79504 2267.9434 6182727
1750.8699 826.14734 2305.2002 2760984
1746.8445 817.86652 2282.0942 6907219
1727.7205 802.69818 2239.77 7234885
1726.5476 796.03766 2221.1851 7497799
1751.8229 801.57977 2236.6492 6181423
1800.2843 817.56824 2281.262 5917736
1796.3717 809.71082 2259.3374 7627839
1809.921 809.78247 2259.5374 8681040
1802.1305 800.37537 2233.2886 8615505
1788.1661 788.38348 2199.8276 8747350
1779.0516 778.68793 2172.7742 8089932
1777.8859 772.58588 2155.7476 8156242
1786.5088 770.79431 2150.7485 8551772
1792.6807 767.97809 2142.8904 9078120
1798.9246 765.23212 2135.2283 10394239
1823.0758 770.08875 2148.7798 7762518
1901.6157 797.69312 2225.8042 7893596
1916.0992 798.23169 2227.3071 9209715
1942.5925 803.73193 2242.6543 7038549
1949.7899 801.22809 2235.668 8288363
1966.0303 802.44897 2239.0747 8551794
1980.9135 803.10327 2240.9004 7565668
0 0 0 0
1993.5402 797.52924 2225.3469 7302243
0 0 0 0
0 0 0 0
0 0 0 0
0 0 0 0
0 0 0 0
0 0 0 0
2750.396 1051.6171 2934.3289 2894381
2766.0085 1050.9419 2932.4448 4473670
2696.6973 1018.2099 2841.1128 5657943
2715.3528 1018.8923 2843.0168 6973803
0 0 0 0
0 0 0 0
0 0 0 0
0 0 0 0
0 0 0 0
0 0 0 0
0 0 0 0
0 0 0 0
0 0 0 0
0 0 0 0
-1979.6614 823.20251 2259.6184 4732696
-1973.9241 826.4068 2268.4138 4601111
0 0 0 0
-1954.1409 829.42157 2276.6892 5061661
-1943.7003 830.72583 2280.2693 4666903
-1930.9218 831.04211 2281.1375 4601111
-1919.8516 832.10333 2284.0503 4798233
-1894.7821 827.06879 2270.231 5654310
-1869.5776 821.90308 2256.0515 7562050
-1835.6693 812.80896 2231.0889 6312242
-1840.1859 820.72028 2252.8047 3614471
-1844.5133 828.66223 2274.6047 4666903
-1829.8951 828.14709 2273.1907 4864282
-1823.2339 831.25195 2281.7134 3613960
-1805.2104 829.18427 2276.0378 3351558
-1798.77 832.44592 2284.9907 2824965
-1798.0463 838.42267 2301.3965 3943183
-1769.3079 831.32782 2281.9216 2890753
-1770.2473 838.17566 2300.7183 3219462
-1765.2883 842.31519 2312.0811 4009230
-1741.6167 837.52087 2298.9209 6048810
-1733.5411 840.21002 2306.3025 4272143
-1736.9919 848.573 2329.2581 5455903
-1696.5905 835.47498 2293.3052 4469522
-1691.808 839.84747 2305.3074 4731923
-1664.1921 832.86407 2286.1384 3679238
-1650.5129 832.79797 2285.957 3547909
-1642.3214 835.52252 2293.4358 3350276
-1626.7145 834.48859 2290.5977 4402706
-1609.1422 832.42053 2284.9211 3876621
-1610.0031 839.93396 2305.5447 2560768
-1590.2596 836.73474 2296.7632 3086851
-1603.4192 850.94208 2335.761 3153157
-1587.623 849.896 2332.8896 3218951
-1565.8429 845.60016 2321.0979 3021572
-1541.1454 839.63867 2304.7341 2956548
-1520.3986 835.74225 2294.0388 3417098
-1501.7864 832.95935 2286.4001 3088133
-1513.6943 847.20801 2325.5112 3285510
-1509.8345 852.81207 2340.894 5061662
-1490.8982 849.92548 2332.9705 4601364
-1473.6305 847.94489 2327.5339 4667157
-1438.54 835.57446 2293.5784 5587489
-1423.7739 834.88623 2291.689 5390364
-1433.7462 848.83057 2329.9651 5653536
-1430.8622 855.36072 2347.8899 4469003
-1423.2622 859.17236 2358.3525 5587485
-1419.7556 865.55511 2375.8726 4995092
-1384.2775 852.37903 2339.7053 4731666
-1364.1167 848.46356 2328.9575 3679491
-1350.2935 848.45013 2328.9209 3613444
-1348.8104 856.27051 2350.387 4073736
-1340.5762 859.92328 2360.4136 3021312
-1320.6857 856.09741 2349.9119 5587231
-1304.934 854.90137 2346.6289 3810819
-1299.1853 860.30334 2361.457 3745027
-1286.5299 861.19983 2363.9175 3876615
-1275.1082 862.95081 2368.7239 3218688
-1273.4202 871.40161 2391.9207 3942407
-1272.9374 880.87671 2417.929 3942663
-1250.8153 875.42261 2402.958 3809541
-1234.0017 873.60095 2397.9578 3613443
-1225.1538 877.44177 2408.5005 4271372
-1217.9418 882.55859 2422.5457 4271372
-1198.5916 878.89685 2412.4944 4271628
-1190.319 883.36774 2424.7666 3943691
-1166.8643 876.54303 2406.0334 4864283
-1166.7372 887.29004 2435.533 3417095
-1166.7783 898.43567 2466.1267 3680269
-1148.9586 895.93658 2459.2668 4338201
-1141.873 901.85095 2475.5015 3812111
-1130.3424 904.36304 2482.3967 5654830
-1109.077 899.04999 2467.813 1971456
-1086.0253 892.12762 2448.8115 3022858
-1089.0463 906.72552 2488.8816 3746576
-1069.9347 903.04395 2478.7761 5983279
-1058.1185 905.50305 2485.5261 5654309
-1029.9169 893.81146 2453.4338 6246958
-1010.0562 889.12744 2440.5764 5325084
-1006.8344 899.16681 2468.1338 4009228
-1002.7202 908.6936 2494.2839 5785635
-984.90839 905.90649 2486.6335 5325085
-968.7851 904.61145 2483.0786 5588257
-915.28918 867.84113 2382.1475 3680263
-930.40613 895.9939 2459.4243 4403215
-905.46045 885.84802 2431.5747 5587746
-888.3092 883.12274 2424.094 4600853
-886.31714 895.62628 2458.4153 3811851
-865.17889 888.87726 2439.8896 5325091
-864.89331 903.68677 2480.5405 4536347
-845.37109 898.56134 2466.4717 5522729
-834.39996 902.50458 2477.2957 5984308
-824.13818 907.37012 2490.6509 5129253
-810.51208 908.64148 2494.1406 7037250
-805.2821 919.54742 2524.0767 7564108
-781.7027 909.51666 2496.5432 5195559
-769.91125 913.0788 2506.3208 3616015
-737.61212 891.98138 2448.4104 4601628
-730.23175 900.77588 2472.5505 4799262
-717.35992 903.01794 2478.7046 3154698
-708.43713 910.42865 2499.0464 5785898
-687.20825 902.00336 2475.9197 5983277
-676.45782 907.2641 2490.3599 2759427
-662.6853 908.61578 2494.0703 3285513
-643.48492 902.4173 2477.0559 4995867
-615.92151 883.92719 2426.3022 5851176
-601.76343 884.25159 2427.1926 3614218
0 0 0 0
0 0 0 0
0 0 0 0
0 0 0 0
0 0 0 0
0 0 0 0
-523.45966 923.75385 2535.623 5063728
-512.76038 931.61621 2557.2043 1380353
-496.38211 929.32513 2550.9155 4472107
-477.02859 921.14496 2528.4617 2235922
-465.46405 927.9624 2547.175 2366736
0 0 0 0
0 0 0 0
0 0 0 0
0 0 0 0
0 0 0 0
0 0 0 0
0 0 0 0
-126.81455 341.39264 937.09271 1249808
0 0 0 0
0 0 0 0
-303.56058 940.80145 2582.417 3355433
-288.42917 941.36462 2583.9629 2828835
-274.56635 946.3634 2597.6841 4209973
-260.23462 950.24377 2608.3354 1776144
-245.27405 952.1731 2613.6313 8552047
-226.65076 939.18518 2577.9805 4735788
-214.37939 952.54297 2614.6465 5918519
-200.11823 958.45209 2630.8665 5720883
-184.31383 957.34412 2627.8252 4996901
-169.26561 960.32172 2635.9985 6839619
-149.77908 936.164 2569.6877 5260586
-134.57199 936.31305 2570.0969 5260073
-118.70829 931.34875 2556.4702 6510397
-102.90789 925.50098 2540.4187 4931878
-87.834938 925.31256 2539.9014 5392944
-72.37442 920.1189 2525.6453 5459255
-57.860596 927.39062 2545.6055 8420200
-42.529587 922.0744 2531.0129 9538944
-27.622679 925.16956 2539.509 7630953
-12.642232 930.26343 2553.4912 7236970
2.4981787 933.20618 2561.5686 9672598
17.732014 936.02679 2569.311 9739422
33.324074 946.41498 2597.8257 10068388
48.95705 951.03247 2610.5005 10266024
63.859692 942.65198 2587.4966 10068646
78.573952 935.27454 2567.2461 9476252
95.977608 957.10974 2627.1819 10463149
113.42171 973.19684 2671.3394 10660784
128.47772 967.362 2655.3235 10594991
148.06114 993.1698 2726.1636 10726577
164.80849 996.74731 2735.9834 10726577
181.37842 998.70703 2741.3628 10792370
197.02592 995.68298 2733.062 10726577
213.46373 996.80878 2736.1523 10660784
230.45367 1000.1719 2745.3838 10924209
248.06964 1005.6294 2760.364 10990003
264.9729 1007.7012 2766.0508 10858162
281.56961 1008.4335 2768.061 10266281
296.89227 1004.7735 2758.0149 10792369
313.1207 1004.4009 2756.9919 10726831
331.46466 1010.5147 2773.7739 10792367
346.95059 1007.7495 2766.1836 10857904
364.57651 1011.169 2775.5698 10857904
379.3985 1006.8524 2763.7209 10923696
397.51285 1011.2685 2775.8428 10989490
414.1792 1011.7964 2777.292 11055796
428.79361 1007.4629 2765.397 11516601
444.69324 1006.3571 2762.3613 11582394
459.0686 1002.0026 2750.4087 6713197
480.72241 1013.2886 2781.3882 10660778
494.68393 1008.1498 2767.2822 11976639
514.52203 1014.9326 2785.9006 10529195
534.0672 1020.7338 2801.8245 11779005
543.78809 1007.9748 2766.802 11581368
566.96643 1020.1775 2800.2974 10594215
580.0943 1014.1161 2783.6594 12173502
604.32666 1027.2657 2819.7539 12896708
609.92029 1008.8773 2769.2791 11382700
625.9903 1008.3275 2767.77 7171945
636.10156 998.45258 2740.6643 2763811
650.12817 995.06219 2731.3582 3223595
667.20776 996.39581 2735.0186 3815990
682.638 995.26141 2731.9048 920586
694.10547 988.53577 2713.4436 2894631
699.50348 973.66644 2672.6287 3223596
726.05316 988.24567 2712.6472 1776407
735.90533 979.95813 2689.8987 1973529
741.86316 966.94617 2654.1819 328450
760.58972 970.77179 2664.6829 722693
771.88098 965.14478 2649.2373 196865
782.10901 958.43915 2630.8311 1249294
794.84576 955.00989 2621.418 2170140
819.44629 965.69342 2650.7432 196608
833.86975 964.20703 2646.6633 262400
852.90747 968.01257 2657.1091 1446416
867.30267 966.50659 2652.9753 131072
895.18573 979.81714 2689.5117 1841171
907.43011 975.84442 2678.6069 2893858
906.45892 958.04071 2629.7373 65792
909.91736 945.44128 2595.1531 1578001
921.51447 941.57678 2584.5452 590850
933.34802 938.07605 2574.936 196865
948.45441 937.92444 2574.52 1380622
959.74994 934.06891 2563.9368 1972757
953.79883 913.80988 2508.3276 5261891
968.5885 913.73895 2508.1328 4340788
978.15826 908.82019 2494.6313 131328
1005.2761 920.10944 2525.6191 7039324
1028.3278 927.40033 2545.6321 5261371
1042.01 926.15259 2542.2073 5721410
1041.4475 912.46008 2504.6226 328192
1044.765 902.50403 2477.2939 5919556
1064.3704 906.69885 2488.8083 8683113
1083.808 910.63824 2499.6216 4011045
1106.2007 916.92065 2516.8665 1116928
1116.4033 913.06622 2506.2864 2892823
1121.7581 905.40021 2485.2437 854530
1131.4014 901.34924 2474.1243 5986378
1145.6036 900.98755 2473.1313 8157285
1143.2804 887.80231 2436.939 6841681
1149.3231 881.36133 2419.2593 4077350
1167.2754 884.09955 2426.7754 393216
1201.99 899.3125 2468.5334 1182213
1200.5896 887.46368 2436.0095 723208
1210.2594 883.98218 2426.4531 788994
1228.0353 886.43359 2433.1821 460292
1236.5479 882.21924 2421.614 2828064
1258.3628 887.48328 2436.0635 920584
1268.8328 884.71753 2428.4717 2762270
1276.3699 879.99176 2415.4998 5526340
1283.8341 875.32098 2402.679 9933955
1313.072 885.43524 2430.4417 919040
1309.4633 873.42102 2397.4639 5721657
1328.36 876.51501 2405.9563 591360
1332.0079 869.5882 2386.9429 5986104
1358.7242 877.70868 2409.2329 10591101
1351.8701 864.19995 2372.1526 9406064
1353.7885 856.51941 2351.0703 7629649
1360.7063 852.12622 2339.0115 6972496
1398.4375 866.92371 2379.6292 5261871
1434.7617 880.56213 2417.0654 8090967
1437.0582 873.25336 2397.0034 7498572
1412.4694 849.91028 2332.9287 8617565
1419.7799 846.02808 2322.2725 6248769
1428.3163 842.94391 2313.8069 8287830
1478.359 864.18115 2372.1011 262144
1448.8833 838.97327 2302.9077 5986368
1439.0535 825.50568 2265.9402 8288094
1472.8878 837.10315 2297.7744 7498579
1526.2648 859.49335 2359.2334 9998973
1530.2676 853.92499 2343.949 9406838
1542.5815 853.0531 2341.5557 3025692
1562.3292 856.27094 2350.3882 7433305
1573.9139 854.9975 2346.8926 7828070
1569.0409 844.8844 2319.1331 5130559
1573.1185 839.72461 2304.97 4868160
1571.6819 831.7356 2283.041 6447449
1565.9779 821.64398 2255.3403 8027254
1606.6646 835.85754 2294.3552 7039846
1644.5443 848.38464 2328.741 5921108
1887.5411 965.63794 2650.5911 10658716
1910.6199 969.37756 2660.856 10787473
1954.6016 983.57465 2699.8257 5656393
0 0 0 0
0 0 0 0
1693.9697 831.99091 2283.7417 5525050
1689.7559 823.34314 2260.0044 6182723
1725.5985 834.19574 2289.7937 5919552
1729.7841 829.69458 2277.4385 8024670
1729.2007 822.99335 2259.0442 6577734
1721.6572 813.10791 2231.9097 7168837
1752.2131 821.22992 2254.2036 8221522
1776.6 826.35944 2268.2837 5588515
1786.3097 824.63617 2263.5537 8154693
1792.0475 821.11877 2253.8987 7035696
1800.4633 818.87146 2247.73 7562812
1801.5271 813.33795 2232.541 7628861
1766.4108 791.66986 2173.064 8419156
1777.9856 791.09003 2171.4724 8616024
1786.024 788.9563 2165.6155 8353620
1793.9255 786.79303 2159.6775 6774847
1787.2 778.29059 2136.3391 5984821
1792.1594 774.96057 2127.1985 7433038
1802.3263 773.91309 2124.3232 8354914
1801.6835 768.27069 2108.8354 9736310
1897.4299 803.52515 2205.6057 7169619
1924.6853 809.49091 2221.9812 7630683
1957.9741 817.89594 2245.0522 6512202
1961.3407 813.7724 2233.7336 6380620
2003.4006 825.65088 2266.3389 5723204
2005.4144 820.97705 2253.5095 4999230
1984.9084 807.20673 2215.7114 5789257
2018.8601 815.61835 2238.8005 8487033
0 0 0 0
2014.6908 803.37476 2205.1929 5065546
0 0 0 0
0 0 0 0
0 0 0 0
2664.8418 1035.7538 2843.053 6118236
0 0 0 0
0 0 0 0
0 0 0 0
0 0 0 0
0 0 0 0
0 0 0 0
0 0 0 0
0 0 0 0
0 0 0 0
0 0 0 0
0 0 0 0
0 0 0 0
0 0 0 0
-1952.0863 824.94043 2228.1438 4666645
-1946.1072 828.01459 2236.447 4600594
-1959.9624 839.62781 2267.814 4798744
-1907.2592 822.69147 2222.0693 4206353
-1896.2958 823.64929 2224.6562 4732697
-1909.163 835.04364 2255.4321 4930076
-1889.2631 832.16571 2247.6589 4995354
-1868.7134 828.95862 2238.9968 4798231
-1852.6594 827.71442 2235.636 4863767
-1834.625 825.56085 2229.8196 4534802
-1816.6525 823.4043 2223.9946 4271632
-1800.7577 822.16467 2220.6465 4074511
-1794.6809 825.42242 2229.4456 2627072
-1807.4376 837.45483 2261.9448 2100992
-1779.1626 830.51331 2243.196 2496512
-1782.1685 838.17932 2263.9016 2496514
-1774.894 841.08984 2271.7629 2956551
-1759.2898 840.06738 2269.0012 3351563
-1749.3767 841.76758 2273.5935 3088132
-1741.8715 844.66187 2281.4109 4403476
-1737.8058 849.28235 2293.8906 3811339
-1700.4828 837.59442 2262.3218 4995868
-1692.9309 840.50128 2270.1733 3548423
-1659.3973 830.45221 2243.0308 4469525
-1668.0588 841.52802 2272.9463 4732954
-1640.9999 834.61658 2254.2788 2299398
-1623.4388 832.4621 2248.4595 5784871
-1598.6571 826.53857 2232.4602 3021569
-1594.3888 831.21069 2245.0793 5192733
-1582.1708 831.78198 2246.6226 3613959
-1592.1327 844.1225 2279.9541 4140561
-1574.3488 841.83795 2273.7834 4404248
-1565.8317 844.51184 2281.0056 4140821
-1550.0535 843.2821 2277.6841 4206614
-1545.7949 848.35291 2291.3801 2825217
-1523.473 843.51221 2278.3057 3746318
-1509.2765 843.12415 2277.2573 4930592
-1499.1927 845.04724 2282.4517 6114350
-1490.2855 847.6745 2289.5479 4141070
-1473.8304 846.01752 2285.0723 4864537
-1486.4103 861.15112 2325.9478 5456672
-1453.6223 850.03809 2295.9319 5324569
-1446.2921 853.7428 2305.9382 5455641
-1428.1078 851.04999 2298.6648 5258262
-1415.85 851.87091 2300.8823 5653019
-1396.2617 848.25446 2291.1143 4205579
-1392.0873 854.02313 2306.6956 5784093
-1386.5243 859.04602 2320.262 4073992
-1360.0529 851.08551 2298.761 4336909
-1359.6375 859.43408 2321.3101 1245696
-1339.1023 855.10541 2309.6187 2100480
-1330.2535 858.22717 2318.0503 3547655
-1304.1781 850.1839 2296.3257 5061146
-1300.5895 856.78479 2314.1545 4929302
-1313.54 874.53778 2362.105 3415810
-1273.0162 856.68726 2313.8911 3482120
-1270.5402 864.33136 2334.5376 2955265
-1262.0549 868.01068 2344.4753 2823937
-1250.7661 869.82233 2349.3687 4073991
-1244.25 875.03113 2363.4375 4337162
-1229.127 874.23682 2361.292 5323031
-1213.1628 872.81909 2357.4626 4534284
-1189.4276 865.71222 2338.2673 4007684
-1191.5493 877.47931 2370.0498 4271370
-1170.3452 872.14459 2355.6411 4468749
-1157.5114 872.99402 2357.9351 4797713
-1146.2441 875.06 2363.5154 4469008
-1138.3876 879.81323 2376.3538 4469007
-1134.0793 887.46222 2397.0134 5653536
-1122.0913 889.2193 2401.7593 5390363
-1102.5065 884.92383 2390.1575 5851940
-1091.1447 887.20276 2396.3127 5523235
-1075.6794 886.16138 2393.5 6181425
-1063.6189 887.93433 2398.2888 4207638
-1076.2681 910.66302 2459.6785 7102532
-1048.8617 899.65845 2429.9551 5984047
-1036.0031 900.99933 2433.5769 4338965
-1016.2996 896.34113 2420.9954 5325601
-1005.7823 899.76752 2430.2498 5260064
-989.3111 897.88965 2425.1777 5654565
-975.45935 898.36884 2426.4719 5061914
-960.86066 898.16431 2425.9194 4337934
-938.98364 891.04669 2406.6951 3416324
-928.84552 895.02087 2417.4292 4008459
-910.67859 891.26208 2407.2769 4798485
-890.66431 885.54681 2391.8401 4008714
-877.07727 886.14044 2393.4434 5390882
-871.1676 894.63782 2416.3945 3812621
-862.0639 900.08417 2431.1052 5456935
-847.43152 899.84509 2430.4595 3943955
-830.32416 896.92432 2422.5703 6708029
-824.21228 905.98718 2447.0488 7366730
-814.59857 911.4563 2461.821 6313785
-791.62225 901.90094 2436.0122 6050358
-778.36987 903.2749 2439.7231 4799780
-762.78931 901.94788 2436.1389 4931364
-741.84534 894.10547 2414.9568 4141334
-731.54413 899.03394 2428.2686 4338710
-715.25372 896.65216 2421.8354 4667676
-703.51862 900.00031 2430.8787 6312754
-689.78583 900.87939 2433.2529 6116147
-674.39624 899.586 2429.7595 4405531
-661.12085 901.11792 2433.8972 5787443
-645.25848 899.1134 2428.4832 6050609
-632.65521 901.66223 2435.3674 5325859
-613.71344 895.08563 2417.604 5325346
-594.42963 887.68384 2397.6121 3614730
-569.4043 871.1355 2352.9153 4469784
0 0 0 0
0 0 0 0
0 0 0 0
0 0 0 0
-568.09058 990.39178 2675.0237 6576703
-513.04095 920.09552 2485.1553 7301195
-507.38403 936.84375 2530.3918 6511936
-485.64026 924.00446 2495.7131 5590838
-475.16235 932.46667 2518.5696 2499094
-459.57385 931.12366 2514.9419 4143145
-444.64859 931.07928 2514.8223 2696471
0 0 0 0
0 0 0 0
0 0 0 0
0 0 0 0
0 0 0 0
0 0 0 0
-127.33616 348.37311 940.94714 3092004
0 0 0 0
0 0 0 0
-294.57648 927.80878 2505.9885 5920584
-284.2319 942.75598 2546.3606 6052427
-270.88864 948.87543 2562.8892 6250066
-257.47839 955.47333 2580.71 3354659
-242.30841 955.96198 2582.0298 6710098
-226.73434 954.81488 2578.9314 3485470
-213.86833 965.73016 2608.4133 3551265
-197.40765 960.84979 2595.2317 3945505
-179.69014 948.5105 2561.9036 3879195
-162.70352 938.10791 2533.8062 4207643
