# .PCD v0.7 - Point Cloud Data file format
VERSION 0.7
FIELDS x y z rgb
SIZE 4 4 4 4
TYPE F F F U
COUNT 1 1 1 1
WIDTH 1322
HEIGHT 1
VIEWPOINT 0 0 0 1 0 0 0
POINTS 1322
DATA ascii
-1403.9949 921.63562 2238.5002 4272909
-1394.2406 923.96265 2244.1523 2167810
-1392.1591 931.46832 2262.3823 5127712
-1391.1453 939.84137 2282.719 2364417
-1371.7468 935.83618 2272.9912 4864282
-1359.7529 936.85345 2275.4619 3877642
-1350.8983 940.07556 2283.2878 4667157
-1341.3917 942.9046 2290.1592 6048553
-1324.25 940.36969 2284.0022 3680009
-1299.031 931.98743 2263.6431 5522465
-1269.724 920.46655 2235.6609 4206606
-1287.8011 943.41547 2291.3999 4601110
-1270.1344 940.38922 2284.0496 3943693
-1258.3217 941.67859 2287.1814 4206868
-1240.3965 938.37195 2279.1501 5127969
-1229.1724 940.11792 2283.3906 5062179
-1227.1533 949.02148 2305.0159 5786159
-1196.9152 936.05634 2273.5256 3352077
-1206.3367 954.16534 2317.5095 3812113
-1184.5334 947.70935 2301.8291 3681554
-1196.4456 968.39185 2352.0635 4668450
-1189.0399 973.74213 2365.0583 3221005
-1177.2028 975.54767 2369.4436 2825221
-1167.1376 978.88293 2377.5444 2233345
-1143.454 970.73816 2357.7622 3285769
-1152.9683 990.92426 2406.7908 3811857
-1143.7664 995.32861 2417.4883 3746063
-1095.2102 965.16345 2344.2222 3088902
-1099.2146 981.13776 2383.021 5062177
-1095.0001 990.09631 2404.78 6050102
-1057.1595 968.48566 2352.2913 6247223
-1039.9979 965.49493 2345.0273 5523498
-1030.7421 969.862 2355.6343 6445371
-1017.8322 970.86383 2358.0674 6314302
-1004.8791 971.85144 2360.4663 5985598
-993.90161 974.80475 2367.6394 3222811
-999.38818 994.22162 2414.7996 1381384
-973.82825 982.86786 2387.2231 2761746
-968.64105 992.04437 2409.5115 3814178
-962.98383 1001.0068 2431.2798 592131
0 0 0 0
-910.22284 975.34924 2368.9617 1314052
-912.69543 993.31934 2412.6082 4338457
-894.72247 989.25562 2402.738 4930589
0 0 0 0
0 0 0 0
0 0 0 0
0 0 0 0
0 0 0 0
-823.43103 1006.5443 2444.7292 2430983
-804.53235 1001.0562 2431.3997 590848
-795.73285 1008.1631 2448.6614 1314307
0 0 0 0
0 0 0 0
-368.76224 494.24753 1200.4454 196608
-362.14154 494.92188 1202.0833 591617
0 0 0 0
0 0 0 0
0 0 0 0
-687.38617 1019.6498 2476.5605 5261614
-680.16479 1030.95 2504.0068 6051643
-663.48944 1028.105 2497.0967 7367243
-648.03577 1027.0663 2494.574 5590574
-634.20367 1028.6091 2498.3213 5788210
-606.37512 1006.9825 2445.7937 3485204
-590.5788 1004.7674 2440.4136 3747860
-590.58954 1030.009 2501.7212 2563074
-575.01715 1028.6733 2498.4771 4010777
-560.95563 1030.0413 2501.7996 4142362
-554.89014 1046.5646 2541.9321 5721395
-534.99591 1037.2002 2519.1875 4734500
-524.07965 1045.2036 2538.6265 2957577
-514.00818 1055.4146 2563.4272 4273438
-509.74213 1078.5309 2619.573 4142113
-486.80884 1062.3619 2580.3013 4405544
-472.7551 1065.1505 2587.0742 4998195
-457.85886 1066.1642 2589.5361 4931627
-441.97836 1064.8767 2586.4092 6511684
-425.51831 1062.0503 2579.5442 4010523
-405.50406 1049.8116 2549.8186 4536610
-393.64734 1058.5623 2571.0723 4536352
-378.28833 1058.2201 2570.2415 4668454
-364.48685 1062.389 2580.3672 5194799
-350.0567 1065.0106 2586.7344 4997420
-333.75546 1061.9189 2579.2253 5326643
-319.23471 1064.4674 2585.415 7432534
-302.99738 1061.2605 2577.626 4076837
-288.02185 1062.3672 2580.314 6905676
-274.11676 1067.7676 2593.4307 7234897
-260.41534 1074.65 2610.147 8616808
-245.16626 1075.6118 2612.4829 6051138
-226.33936 1059.9482 2574.4387 8814445
-210.87193 1058.8899 2571.8682 4801075
-199.67787 1080.7972 2625.0774 8945779
-186.42305 1094.3097 2657.897 8287594
-170.38182 1092.4506 2653.3813 7498078
-153.37534 1083.395 2631.387 6972505
-137.71028 1082.8375 2630.033 8618618
-121.21571 1074.7827 2610.469 9803668
-108.87502 1106.5906 2687.7253 11120559
-95.635651 1138.6007 2765.4727 10989488
-79.968987 1148.976 2790.6724 11055283
-64.193726 1162.7943 2824.2349 11186868
-47.584229 1165.9188 2831.8237 11252661
-30.993832 1173.171 2849.4382 11252661
-14.157919 1177.3677 2859.6311 11318711
2.8010406 1182.5079 2872.1157 11450553
19.849396 1184.1534 2876.1125 11450554
37.01543 1188.0558 2885.5906 11450554
54.219543 1190.3276 2891.1086 11318714
71.181671 1187.4717 2884.1721 11516093
88.459541 1189.9691 2890.2378 11647679
105.7798 1192.134 2895.4961 11713472
123.0224 1192.9414 2897.4573 11779519
139.45776 1186.6821 2882.2544 11713726
155.48431 1178.6897 2862.842 11516346
174.26268 1191.0785 2892.9324 11516602
192.9581 1200.7318 2916.3787 11713212
210.31996 1201.1818 2917.4714 11384504
224.00377 1182.1528 2871.2534 11121586
240.91173 1181.6245 2869.9702 11187122
261.57501 1198.3705 2910.6436 10595499
274.83917 1181.2435 2869.0447 10463656
290.92603 1177.5371 2860.0425 10529447
309.31351 1183.038 2873.4033 9805981
332.53806 1205.4999 2927.9595 12042941
350.83066 1208.7417 2935.8333 11450805
370.69766 1216.8452 2955.5154 6975599
390.62689 1224.4125 2973.895 12435649
398.27603 1194.4962 2901.2336 8882571
424.73572 1221.1377 2965.9412 3223853
443.79007 1225.2169 2975.8489 131329
453.62134 1204.4944 2925.5173 7565413
469.95587 1201.9299 2919.2888 4933178
488.05042 1203.889 2924.0471 3616808
502.34305 1196.6571 2906.4819 2038550
528.27698 1216.7166 2955.2031 3748912
555.39819 1238.1355 3007.2261 2038552
575.69769 1243.488 3020.2266 2038551
587.21973 1230.1304 2987.783 2104857
597.28851 1214.5995 2950.0608 4736065
605.40326 1196.0913 2905.1077 3223338
605.73877 1163.6622 2826.3428 8420987
621.48108 1161.7793 2821.7695 6578522
649.8183 1182.9229 2873.1238 328448
664.49719 1178.7581 2863.0081 591621
675.91919 1169.167 2839.7129 1973528
696.42212 1175.368 2854.7742 460548
714.36591 1177.0581 2858.8792 394756
732.15936 1178.4281 2862.2065 1051657
739.81433 1163.7872 2826.6465 393986
756.94373 1164.3689 2828.0591 3288876
769.33881 1157.8004 2812.1055 722692
782.2359 1152.25 2798.6245 2564896
801.02802 1155.4333 2806.3562 262912
822.69507 1162.5497 2823.6406 11972514
833.16205 1153.871 2802.5615 6971733
847.4436 1150.7112 2794.8867 1445126
861.99133 1148.027 2788.3674 3879467
877.41608 1146.5901 2784.8772 7959651
893.06012 1145.4873 2782.199 4012597
916.98444 1154.8527 2804.9458 6708810
925.85211 1145.2599 2781.6465 2433560
933.66675 1134.7229 2756.054 5524789
943.66241 1127.1533 2737.6687 1906444
983.19708 1154.5261 2804.1526 1510917
989.2821 1142.3633 2774.6111 2827034
991.41705 1126.1112 2735.1377 3879721
1010.9331 1129.8071 2744.1145 4341301
1016.8758 1118.4568 2716.5464 6051666
1043.6927 1130.0619 2744.7332 1381136
1073.5532 1144.5555 2779.936 196608
1085.5131 1139.8151 2768.4221 920329
1095.2251 1132.8907 2751.604 1315085
1081.7679 1102.5551 2677.9236 8617334
1101.7827 1106.7185 2688.0359 1643017
1130.118 1119.0018 2717.8701 1708299
1139.0656 1112.0127 2700.8948 3024924
1142.8518 1100.2483 2672.321 8419684
1189.902 1129.8876 2744.3098 4339235
1204.7091 1128.5233 2740.9963 7168576
1196.9186 1106.3086 2687.0403 6378549
1216.4392 1109.5892 2695.0085 5260325
1214.7828 1093.7186 2656.4612 4536351
1222.8937 1086.9351 2639.9851 10260338
1237.2743 1085.8253 2637.2898 3418136
1253.8066 1086.6082 2639.1912 1576452
1269.7397 1086.8586 2639.7996 6509622
1287.5455 1088.6865 2644.2393 7365444
1299.5907 1085.6581 2636.8838 7101499
1324.1514 1093.0328 2654.7957 7299650
1347.5269 1099.2673 2669.9382 3220749
1361.0233 1097.3917 2665.3828 4668705
1374.291 1095.377 2660.489 11051143
1361.9465 1073.225 2606.6858 6511428
1422.3947 1108.288 2691.8479 7959135
1435.1477 1105.8228 2685.8604 8353898
1490.559 1135.9204 2758.9626 9604222
1553.2606 1170.8606 2843.8264 8683378
1573.693 1173.5295 2850.3091 10197132
1617.5117 1193.3966 2898.5625 9670788
1722.1483 1257.2455 3053.6411 8815993
1766.3356 1276.095 3099.4233 10526359
1753.453 1253.7504 3045.1519 2499616
1754.0847 1241.4254 3015.2168 5920340
1782.3741 1248.7262 3032.949 4407104
1784.8602 1237.9838 3006.8574 4670790
1893.3311 1300.2383 3158.0635 5723735
1916.3418 1303.1594 3165.1582 8487041
1923.1001 1295.0787 3145.5317 3683896
1947.4796 1298.906 3154.8276 5855065
1984.3558 1310.9164 3183.9985 4868171
1997.6785 1307.2867 3175.1829 4868171
2033.8716 1318.5516 3202.5435 4736586
2079.5786 1335.7191 3244.2405 1841948
2127.8279 1354.1901 3289.1033 7565941
2147.8215 1354.5063 3289.8718 7171438
2139.3667 1337.0378 3247.4434 4605512
2119.9465 1313.0886 3189.2749 2433573
2158.5232 1325.1685 3218.6145 3551541
2176.9692 1324.7861 3217.6863 3814715
2186.1172 1318.8014 3203.1501 3090992
2209.468 1321.4139 3209.4956 5131089
2272.1499 1347.3037 3272.3777 5328981
2304.3657 1354.8429 3290.689 4144707
2337.2026 1362.6179 3309.5732 6776170
2345.125 1355.8586 3293.156 5460309
2349.5696 1347.2168 3272.1665 4604999
2348.2544 1335.441 3243.5652 5921116
2426.855 1368.9352 3324.9167 6776425
2415.8403 1351.7468 3283.1692 6381669
2417.3416 1341.7804 3258.9624 5658203
2443.3184 1345.4498 3267.8748 8618374
2487.553 1359.0363 3300.874 4670792
2517.0061 1364.3982 3313.8972 7170157
2534.0806 1363.0188 3310.5471 6380385
2583.6621 1379.0111 3349.3896 2893870
2628.7734 1392.3917 3381.8889 4999502
2621.4124 1377.9871 3346.9023 5723482
2677.0461 1396.6643 3392.2661 8289152
2714.5847 1405.6927 3414.1948 4605001
2710.0715 1392.9731 3383.301 5854299
2754.1301 1405.2229 3413.0535 6709605
2766.2476 1401.1155 3403.0776 3223603
2749.5264 1382.5665 3358.0249 5591126
2742.0908 1368.9197 3324.8792 7104106
2744.9473 1360.569 3304.5967 5327695
2789.0864 1372.6542 3333.9495 3946040
2801.562 1369.0953 3325.3059 4341054
2846.8855 1381.5267 3355.4995 4209725
2824.2522 1361.0365 3305.7324 5065032
2851.4531 1364.6787 3314.5786 6051158
2845.7009 1352.608 3285.261 6181460
2815.323 1329.0759 3228.1052 6970973
2824.8428 1324.5696 3217.1602 2499104
2843.3271 1324.2988 3216.5024 65537
2847.261 1317.2999 3199.5032 656902
2967.291 1363.7506 3312.3245 1445649
2974.6897 1358.1663 3298.761 4472385
3053.1575 1384.8914 3363.6719 5921114
3121.5903 1406.7476 3416.7568 6118238
3081.4644 1379.7151 3351.0996 8157823
3133.6956 1394.1167 3386.0786 7499895
3130.4758 1383.823 3361.0769 4342343
3143.6523 1380.8616 3353.884 4539469
3163.5637 1380.8771 3353.9216 789520
3242.4683 1406.4818 3416.1113 8289405
3366.4746 1451.2111 3524.7515 9408144
0 0 0 0
0 0 0 0
0 0 0 0
0 0 0 0
0 0 0 0
0 0 0 0
0 0 0 0
0 0 0 0
0 0 0 0
0 0 0 0
0 0 0 0
-1788.7703 858.52924 2055.637 4075541
0 0 0 0
-1771.9537 862.20178 2064.4304 4601626
-1786.2312 875.19171 2095.533 8219470
-1762.6613 869.68964 2082.3591 4206096
-1767.5797 878.2652 2102.8921 4075021
-1781.2373 891.33563 2134.1875 3746056
-1760.1396 887.07697 2123.9907 4797973
-1731.1295 878.74048 2104.03 2824193
-1720.5077 879.68494 2106.2915 2955777
-1700.1493 875.62848 2096.5789 2889728
-1698.9564 881.45587 2110.5317 4075021
-1687.0048 881.74634 2111.2273 4338192
-1695.9507 893.04535 2138.2812 4601620
-1672.7787 887.47461 2124.9429 4996380
-1658.4219 886.5318 2122.6853 2891778
-1651.2721 889.45636 2129.688 3483918
-1626.5288 882.8764 2113.9331 3221001
-1609.7598 880.55627 2108.3779 1444864
-1596.2883 880.01782 2107.0886 5194273
-1582.1704 879.11169 2104.9189 4732950
-1582.4164 886.23566 2121.9763 4733204
-1579.1995 891.51886 2134.6262 4930841
-1545.4999 879.53979 2105.9438 5062685
-1531.9723 878.9389 2104.5051 7233600
-1541.0337 891.39441 2134.3284 4930844
-1519.146 886.00592 2121.4263 4996121
-1529.7881 899.65796 2154.1143 4470029
-1506.8196 893.6073 2139.6267 5128217
-1545.4934 924.32062 2213.166 4997404
-1521.7513 917.91089 2197.8186 4997665
-1499.9332 912.56097 2185.009 5984561
-1516.8162 930.86871 2228.8445 4142615
-1512.4767 936.35956 2241.9915 4076824
-1485.0599 927.53412 2220.8601 5458474
-1498.5885 944.35303 2261.1309 4471323
-1460.5024 928.65643 2223.5474 6971200
-1437.0356 922.05426 2207.7393 5260064
-1406.9521 911.0462 2181.3821 4602135
-1394.9091 911.62421 2182.7659 4075283
-1378.468 909.31177 2177.229 2035973
-1369.2202 911.74548 2183.0564 3746325
-1358.1075 912.97205 2185.9932 4272155
-1349.7695 916.10541 2193.4956 3154184
-1350.3469 925.40961 2215.7732 2562049
-1348.2727 933.06134 2234.0945 6114349
-1336.8698 934.34509 2237.1682 4338193
-1329.4597 938.47327 2247.0525 4601621
-1310.9456 934.76709 2238.1785 5127964
-1291.0653 930.0011 2226.7671 5719845
-1277.054 929.4079 2225.3467 5193501
-1261.9797 928.02063 2222.0251 4338449
-1239.7152 921.26105 2205.8401 3746056
-1258.8734 945.46753 2263.7993 5193505
-1230.2637 933.93317 2236.1819 5128225
-1225.0403 940.09448 2250.9343 6510134
-1193.527 925.99445 2217.1736 3614989
-1206.0955 946.1618 2265.4617 3680270
-1205.2571 956.14746 2289.3711 3746063
-1189.4114 954.31934 2284.9939 3746577
-1175.589 954.09125 2284.4478 5260073
-1177.3741 966.6723 2314.5715 4931365
-1169.7056 971.69666 2326.6016 3418380
-1170.2188 983.71851 2355.3865 3944468
-1148.8567 977.4198 2340.3049 4931103
-1147.1692 987.91022 2365.4229 3747086
-1124.5343 980.39789 2347.4355 4602394
-1116.4092 985.50568 2359.6655 3549449
-1106.0951 988.78625 2367.5205 4207124
-1085.9567 983.2558 2354.2786 5062434
-1078.9 989.58026 2369.4216 6378551
-1053.1896 978.73645 2343.4575 4732958
-1026.7638 966.9292 2315.1865 4470042
-1006.5305 960.71259 2300.3018 6246969
-1004.9672 972.3902 2328.2622 1708036
-996.69385 977.81 2341.2393 5852727
-990.2984 985.2511 2359.0559 5523764
-987.20618 996.23877 2385.3645 8419938
-976.479 999.72894 2393.7212 8025695
-970.06342 1007.8013 2413.0496 6644301
-960.55017 1012.849 2425.1355 8025955
-944.80286 1011.3766 2421.6101 6511940
-923.94061 1004.2991 2404.6638 5458219
-889.00739 981.46533 2349.9915 4601880
0 0 0 0
0 0 0 0
0 0 0 0
0 0 0 0
0 0 0 0
-836.00671 1018.7021 2439.1499 2101504
-823.16675 1020.7045 2443.9446 2695184
-813.37061 1026.6207 2458.1101 3748646
-788.20422 1012.9987 2425.4939 1972755
-767.03522 1004.1036 2404.1958 1051913
0 0 0 0
-368.36023 500.81506 1199.1367 196608
-362.0585 501.93054 1201.8076 1906960
0 0 0 0
0 0 0 0
0 0 0 0
-675.95929 1017.1322 2435.3911 5590315
-669.12982 1028.8225 2463.3821 5063197
-661.01306 1039.0109 2487.7766 4864788
-643.91125 1035.2188 2478.697 5522461
-617.29254 1015.5919 2431.7031 3746054
-602.26306 1014.5498 2429.208 2825219
-587.89716 1014.6018 2429.3323 5063207
-576.64545 1020.1658 2442.6545 4536608
-565.19434 1025.6543 2455.7964 5918776
-550.08405 1024.6176 2453.3137 6247998
-533.32574 1020.3712 2443.1462 1709576
-519.69812 1022.0446 2447.1533 4932141
-512.38947 1036.598 2481.9995 1906698
-509.45816 1061.129 2540.7358 3352856
-497.51694 1067.8163 2556.7476 591361
-483.02637 1069.28 2560.2524 3155481
-467.23907 1067.8752 2556.8887 4668716
-453.4957 1071.2041 2564.8591 2103820
-437.5726 1069.4365 2560.6272 3024146
-415.33731 1051.5608 2517.8259 5063984
-401.95163 1055.5933 2527.481 7038541
-386.95996 1055.557 2527.3943 4076317
-367.57709 1043.057 2497.4648 5195052
-355.72647 1051.7792 2518.3486 4207902
-343.05127 1058.7201 2534.968 1906186
-331.37711 1069.5278 2560.8457 4997673
-315.26257 1066.3536 2553.2456 4471330
-300.9397 1069.2251 2560.1208 6379325
-285.05954 1066.5748 2553.7751 5326639
-271.33524 1072.146 2567.1145 4339489
-256.38846 1073.2615 2569.7854 6576452
-241.93559 1076.7161 2578.0571 8880234
-224.13493 1064.733 2549.365 8945512
-209.8665 1069.0099 2559.6055 6510655
-194.69933 1069.0188 2559.6267 6115124
-178.82034 1064.7903 2549.5024 5391143
-162.65292 1057.9058 2533.0181 7167552
-148.37392 1063.1522 2545.5801 6444600
-132.65698 1058.1167 2533.5234 5722167
-120.69695 1085.587 2599.2974 6907227
-106.587 1098.9287 2631.2424 10133148
-92.300606 1114.7123 2669.0339 10989743
-76.607849 1116.527 2673.3792 11055282
-62.059502 1140.3159 2730.3386 11252662
-46.380436 1152.7808 2760.1838 11121075
-29.34903 1126.9026 2698.2222 10660524
-13.028237 1099.0183 2631.4568 10529194
2.6958556 1154.4836 2764.2615 10924210
19.293076 1167.5319 2795.5037 11056051
35.421768 1153.2695 2761.3542 11253175
52.838257 1176.7 2817.4553 11055540
69.694389 1179.3955 2823.9097 11516347
86.659889 1182.5397 2831.4377 11647933
103.41759 1182.2882 2830.8357 11713726
120.7979 1188.2311 2845.0654 11713726
137.79198 1189.3843 2847.8264 11319225
153.30203 1178.8741 2822.6611 10792368
171.70151 1190.4651 2850.4143 10726831
187.5695 1184.0002 2834.9351 11055282
204.62077 1185.4535 2838.4146 11450297
220.98851 1183.0267 2832.604 11450294
237.6492 1182.4001 2831.104 11516343
252.64215 1174.1058 2811.2441 11582139
271.48016 1183.6013 2833.98 11647931
288.62317 1185.0311 2837.4033 11582137
307.50793 1193.0613 2856.6304 11516087
329.16364 1210.4427 2898.2483 9542554
348.40598 1217.6659 2915.543 7963265
364.7189 1214.4519 2907.8477 11120302
385.56519 1225.9423 2935.3596 11383988
401.9913 1222.9928 2928.2976 11450294
416.76779 1215.4766 2910.3008 11647669
437.07199 1224.0381 2930.8003 11844789
450.69522 1213.9501 2906.646 8553854
464.10013 1204.0383 2882.9138 10592923
477.97391 1196.0037 2863.6758 6776677
497.63925 1202.515 2879.2664 1973791
528.7265 1235.28 2957.7178 1512981
548.09399 1239.4396 2967.6772 1578775
566.49634 1241.2258 2971.9543 2829097
584.69226 1242.4659 2974.9233 1183756
595.98315 1229.3894 2943.6135 2235930
608.17487 1218.8622 2918.4075 1578771
602.92212 1174.9229 2813.2004 7236710
622.32001 1180.0927 2825.5789 1775894
649.48694 1199.3378 2871.6587 460035
658.35352 1184.6697 2836.5378 131841
654.67487 1148.7194 2750.4597 2631718
684.86169 1172.4943 2807.3855 1644823
709.1839 1185.3391 2838.1409 262913
725.2157 1184.0532 2835.062 0
744.32117 1187.7302 2843.866 1578771
750.51501 1171.0973 2804.0405 197378
776.05017 1184.7111 2836.637 0
791.65942 1182.916 2832.3391 2499615
793.14801 1160.5343 2778.749 1052170
813.04968 1165.4572 2790.5359 7828070
833.47382 1170.9175 2803.6101 4143150
841.90875 1159.6505 2776.6328 1577225
866.9035 1171.1879 2804.2576 4274478
874.81018 1159.6394 2776.6062 6116423
886.01923 1152.8141 2760.2639 4603441
910.18182 1162.7848 2784.1375 1774862
922.14307 1157.0905 2770.5029 4734771
930.36761 1146.9885 2746.3152 2432791
941.57867 1140.8525 2731.6235 2366487
965.28131 1149.8035 2753.0554 327680
979.55682 1147.4143 2747.3347 1972501
981.31348 1130.6788 2707.2639 986121
1007.3298 1141.9845 2734.3337 1841686
1021.8868 1140.1466 2729.9331 723208
1040.8828 1143.2416 2737.3435 1381139
1060.9541 1147.4044 2747.311 196608
1081.8961 1152.3688 2759.1975 1117449
1093.579 1147.47 2747.468 854536
1100.4907 1137.7822 2724.272 2564894
1120.5135 1141.7339 2733.7336 196608
1144.1589 1149.2114 2751.6377 2169613
1143.5466 1132.4564 2711.52 7170388
1157.3287 1130.2229 2706.1724 6841175
1161.0419 1118.3519 2677.7485 2036486
1169.1271 1110.9556 2660.0388 3682596
1177.2777 1103.8173 2642.9473 2038543
1203.2435 1113.3506 2665.7737 6510398
1216.8441 1111.3438 2660.9685 1839109
1221.7961 1101.5906 2637.6157 7826256
1241.0734 1104.8365 2645.3877 3548685
1255.9945 1104.1719 2643.7964 6181162
1270.3051 1102.9935 2640.9749 5457187
1281.7277 1099.3668 2632.2913 7037246
1294.5981 1097.0542 2626.7539 11181953
1319.9878 1105.2793 2646.448 2958357
1334.4291 1104.2515 2643.9868 6049848
1349.8878 1104.0796 2643.5752 4537387
1351.9879 1093.111 2617.3125 7432019
1368.3362 1093.7804 2618.9153 4471079
1404.5223 1110.1145 2658.0251 6906448
1429.4281 1117.2693 2675.1562 6577485
1636.9669 1265.4508 3029.9578 7367777
1648.7333 1260.7177 3018.6248 7893351
1639.699 1240.3516 2969.8608 4472117
1655.6212 1239.0957 2966.854 8024936
1726.2712 1278.3954 3060.9519 9341309
1745.9313 1279.5094 3063.6194 11315359
1758.9415 1275.7775 3054.6836 7631470
1745.8024 1253.3481 3000.9797 5393995
1793.5844 1274.6667 3052.0244 4539715
1793.6345 1261.9764 3021.6389 3749688
1829.0216 1274.1537 3050.7959 7039338
1880.8212 1297.4142 3106.49 6841960
1897.9781 1296.5583 3104.4407 5854809
1931.4901 1306.7842 3128.9253 6381666
1941.3051 1300.9354 3114.9211 6842730
1954.2333 1297.2635 3106.1294 5460051
1974.1434 1298.2517 3108.4954 3158066
2026.3186 1320.2438 3161.1526 3749690
2013.4845 1299.8643 3112.3564 6512740
2059.8513 1317.7268 3155.1257 4341573
2074.6099 1315.2294 3149.146 2762028
2104.2283 1322.113 3165.6282 920335
2125.1699 1323.4714 3168.8809 1248788
2140.6633 1321.443 3164.0239 1906719
2141.707 1310.6073 3138.0793 2696491
2180.4319 1322.8185 3167.3174 5197138
2230.7085 1341.7695 3212.6934 4144195
2261.5208 1348.7913 3229.5056 3289399
2297.9106 1358.9935 3253.9338 5394261
2312.2122 1356.0717 3246.9377 7105649
2306.9414 1341.814 3212.7996 3157814
2338.9111 1349.2732 3230.6597 4144708
2344.564 1341.5525 3212.1736 6118498
2397.79 1360.9585 3258.6387 5000017
2383.7407 1342.1746 3213.6631 3092020
2442.3052 1364.2499 3266.5195 3881536
2458.8918 1362.714 3262.8418 3683643
2471.606 1359.0725 3254.123 5723482
2504.9189 1366.7268 3272.4502 4934223
2533.0571 1371.4615 3283.7866 4275266
2559.1594 1375.03 3292.3313 3617336
2568.9001 1369.8202 3279.8569 4538438
2618.4956 1385.781 3318.0728 4670280
2697.8879 1417.1554 3393.1948 7565686
2668.292 1391.2395 3331.1426 7104621
2705.0654 1400.0549 3352.25 6512483
2721.2417 1398.1591 3347.7107 7302512
2732.5808 1393.8234 3337.3293 4933705
2745.405 1390.302 3328.8979 7894392
2737.1409 1376.2278 3295.199 8157564
2779.5898 1387.6707 3322.5974 3947068
2786.3652 1381.2684 3307.2681 4012089
2807.6501 1382.0981 3309.2546 6117723
2798.7664 1368.1683 3275.9016 3617588
2839.3203 1378.4314 3300.4753 5196105
2787.355 1343.9452 3217.9026 7299429
2775.4138 1329.0946 3182.3447 4337976
2789.8547 1326.993 3177.3127 4996924
2825.2371 1334.8136 3196.0381 526087
2904.2751 1363.0183 3263.5706 5064778
2919.3315 1361.021 3258.7883 4604740
2946.8486 1364.821 3267.887 7959671
2978.053 1370.2679 3280.929 8946822
2985.7554 1364.9008 3268.0776 7762804
3005.2095 1364.9402 3268.1721 8157819
3057.3611 1379.7349 3303.5962 7171183
3070.1243 1376.6791 3296.2795 8026238
3123.1836 1391.6171 3332.0466 8026495
3124.9851 1383.6715 3313.022 6579049
3178.2793 1398.4824 3348.4849 6513257
3166.8784 1384.8196 3315.771 6250086
0 0 0 0
0 0 0 0
0 0 0 0
0 0 0 0
0 0 0 0
0 0 0 0
0 0 0 0
0 0 0 0
0 0 0 0
0 0 0 0
0 0 0 0
-1754.4882 854.02411 2016.2405 3548942
0 0 0 0
-1771.7174 874.31952 2064.1553 6640951
-1761.7941 875.4671 2066.8645 4732951
-1741.4142 871.39825 2057.2585 5917224
-1726.4915 870.02197 2054.0093 4272656
-1752.149 889.22089 2099.3354 4469521
-1735.2405 886.93738 2093.9443 4338192
-1704.8884 877.70013 2072.1365 4733207
-1703.7854 883.49591 2085.8196 4074251
-1680.4242 877.75006 2072.2544 1312000
-1680.606 884.30762 2087.7358 3088131
-1679.1334 890.08545 2101.3767 3285767
-1682.5148 898.54187 2121.3411 4075795
-1649.3966 887.48633 2095.2405 5195043
-1629.916 883.6568 2086.1995 4799510
-1631.2008 891.11255 2103.8015 5325597
-1622.8907 893.40125 2109.2048 3614210
-1593.4083 883.97974 2086.9617 5259033
-1573.5674 879.80133 2077.0972 4863761
-1551.9222 874.54047 2064.6768 5126933
-1554.2417 882.80768 2084.1948 4600334
-1548.5875 886.64227 2093.2476 5126934
-1527.1566 881.43274 2080.9487 5126937
-1509.9226 878.58044 2074.2148 5258009
-1495.8417 877.53113 2071.7375 4798485
-1497.1948 885.59375 2090.7722 4338192
-1487.2332 887.04236 2094.1921 4469524
-1474.7714 887.0116 2094.1196 4535830
-1457.2875 883.93408 2086.854 4470293
-1448.1782 885.92712 2091.5593 4009742
-1457.9752 899.62036 2123.8872 5391394
-1458.9733 908.0755 2143.8489 5326113
-1437.6383 902.65692 2131.0562 5128990
-1415.9218 896.90051 2117.4661 5260833
-1431.9625 915.17206 2160.6028 5457956
-1422.8322 917.54114 2166.196 4800028
-1406.2751 915.12067 2160.4814 4206866
-1379.7712 906.12335 2139.24 3877902
-1355.9403 898.73077 2121.7871 3746319
-1349.8829 903.09064 2132.0801 4141074
-1346.3744 909.25409 2146.6313 6180404
-1343.2677 915.80933 2162.1072 3746316
-1336.9204 920.26001 2172.6147 4141331
-1337.1429 929.36346 2194.1069 5062429
-1334.7843 936.83411 2211.7441 7628870
-1325.9777 939.88263 2218.9412 5522723
-1315.1979 941.57935 2222.947 4075020
-1300.7927 940.68878 2220.8445 4272400
-1284.9445 938.72571 2216.21 4271371
-1252.8932 924.7627 2183.2451 3548166
-1238.1802 923.43915 2180.1204 3153665
-1222.8527 921.62457 2175.8364 1575681
-1220.7225 929.82379 2195.1936 5259554
-1214.1219 934.75775 2206.842 5654312
-1206.4546 938.96893 2216.7842 5588519
-1184.7399 932.21967 2200.8499 3219974
-1194.6683 950.49579 2243.9976 4207124
-1181.3053 950.44385 2243.875 4601884
-1184.7012 964.02783 2275.9451 4602398
-1173.7208 966.09174 2280.8176 6971202
-1168.4385 972.94836 2297.0051 4339223
-1148.2126 967.37665 2283.8511 6116406
-1138.6617 970.77301 2291.8694 4801060
-1115.6426 962.63019 2272.6453 3682063
-1109.1123 968.68964 2286.9509 5063968
-1114.1559 985.13269 2325.7708 5655848
-1095.7489 980.99304 2315.9976 3023365
-1087.4064 985.87286 2327.5183 5391140
-1060.3257 973.67145 2298.7124 5259813
-1063.6366 989.42365 2335.9011 5589036
-1046.0422 985.88806 2327.5542 3483405
-1015.2574 969.65997 2289.2417 6772796
-1003.8833 971.78223 2294.252 5062436
-993.77167 975.2016 2302.325 4733472
-977.60626 972.69299 2296.4023 4799779
-974.64856 983.44037 2321.7754 6181430
-946.81189 969.03265 2287.7607 5392942
-939.07452 975.07617 2302.0286 5458994
-926.08008 975.75885 2303.6404 7892821
-924.55609 988.72852 2334.26 6380095
-908.67316 986.5033 2329.0066 7432526
-899.58887 991.70435 2341.2856 5853234
-891.71954 998.42859 2357.1606 5524009
0 0 0 0
0 0 0 0
0 0 0 0
0 0 0 0
0 0 0 0
-813.99017 1005.9484 2374.9141 590080
-811.8186 1020.9168 2410.2524 1379073
-798.52881 1022.1891 2413.2561 1181953
-781.17065 1018.2048 2403.8499 3683371
0 0 0 0
0 0 0 0
-368.21487 507.72101 1198.6636 196608
-361.60452 508.41443 1200.3007 3880750
0 0 0 0
0 0 0 0
0 0 0 0
-668.12616 1019.6109 2407.1694 5261614
-658.18359 1026.3518 2423.0837 4405277
-647.04565 1031.4878 2435.2092 3484432
-632.51392 1031.3245 2434.8235 4273948
-613.06232 1022.9442 2415.0391 4076310
-599.80182 1024.7408 2419.2805 4208411
-590.37885 1033.3422 2439.5872 5853754
-572.83673 1027.8077 2426.521 9472375
-546.51282 1005.8258 2374.6245 6906194
-536.68359 1013.8417 2393.5491 8748397
-528.16522 1024.8364 2419.5063 4603436
-512.71326 1022.6156 2414.2632 2169362
-509.20035 1044.7635 2466.5515 3024660
-491.82153 1038.9301 2452.7795 3748127
-479.54395 1043.8455 2464.384 7103828
-462.03778 1037.3308 2449.0037 3814695
-457.5267 1060.5153 2503.7395 2301717
-443.62823 1062.7653 2509.0513 3091481
-426.04599 1056.0404 2493.1746 3946535
-408.05789 1047.7902 2473.697 5327410
-389.97113 1038.6624 2452.1475 6247997
-371.74554 1028.4437 2428.0227 3484956
-360.20816 1036.6504 2447.3975 2430983
-350.88928 1052.1984 2484.104 2825998
-337.38693 1056.0135 2493.1116 2760208
-324.69019 1062.8156 2509.1699 6313544
0 0 0 0
-294.88361 1062.5747 2508.6013 5786684
-281.10535 1066.7042 2518.3506 4339488
-264.78284 1061.101 2505.1221 6773831
-252.61688 1072.4785 2531.9829 6313275
-238.64859 1077.1581 2543.0308 3154961
-220.14139 1060.6008 2503.9414 6049071
-206.6049 1067.3292 2519.8262 6378033
-194.57867 1083.5157 2558.0405 6509876
-177.263 1070.4945 2527.2991 6772793
-161.4751 1065.1476 2514.6755 6574647
-146.90965 1067.5969 2520.4583 4469274
-132.38708 1070.9478 2528.3691 3811864
-119.28157 1088.0801 2568.8162 3352860
-104.94563 1097.3593 2590.7231 7697261
-89.620979 1097.7086 2591.5479 9211789
-74.047203 1094.5201 2584.0205 10396581
-59.028961 1100.0215 2597.0083 10331046
-43.478031 1095.9756 2587.4565 10791340
-28.062553 1092.7955 2579.949 10331046
-12.723431 1088.5356 2569.8918 8686222
2.5056574 1088.2584 2569.2373 11055025
18.010551 1105.3845 2609.6699 10660524
32.990143 1089.3411 2571.7932 10792110
49.935993 1127.8467 2662.7 10989491
66.471283 1140.814 2693.3142 10792624
84.591187 1170.6898 2763.8472 11055796
99.901184 1158.2936 2734.5813 11252919
117.15594 1168.7589 2759.2886 9147798
134.72095 1179.3768 2784.356 10529707
149.57532 1166.5371 2754.0432 11450297
165.44415 1163.3573 2746.5361 11450554
182.11432 1165.8772 2752.4851 11450553
198.78346 1167.9766 2757.4417 11450553
215.81587 1171.7296 2766.302 11384760
231.86142 1169.9728 2762.1545 11516346
249.74799 1177.1249 2779.0396 11582140
267.20157 1181.4775 2789.3157 11713724
284.57632 1184.9949 2797.6196 11516346
301.89041 1187.8862 2804.4456 11384760
321.8555 1200.3627 2833.9011 11253174
340.79999 1207.9841 2851.8943 11318966
358.38245 1210.2858 2857.3279 11450552
375.64783 1211.3572 2859.8574 11516602
394.23334 1216.4092 2871.7847 11779005
412.64801 1220.538 2881.5322 11845308
430.90964 1223.9039 2889.4788 12239038
446.05093 1218.4885 2876.6938 11844022
459.26801 1208.4091 2852.8975 6908773
477.19406 1210.9954 2859.0034 10132375
495.21548 1213.6383 2865.2429 9014411
525.01117 1244.0045 2936.9338 10133410
547.41675 1255.4735 2964.0105 9607323
553.08185 1229.0294 2901.5793 6844016
571.44977 1231.5564 2907.5452 6054242
592.32867 1239.1885 2925.5637 1908254
597.86377 1215.1993 2868.9285 1447700
609.88989 1205.3654 2845.7117 2236448
619.10406 1190.6528 2810.9773 7104870
640.29669 1199.1443 2831.0247 920331
667.55585 1218.2736 2876.1863 1315344
677.77612 1206.1289 2847.5144 394499
688.04004 1194.6501 2820.4143 328707
699.86395 1186.3601 2800.8428 263171
727.78522 1205.1093 2845.1069 920844
741.48694 1199.9968 2833.0371 4671044
756.30829 1196.8827 2825.6851 65792
777.72412 1204.1133 2842.7556 855050
795.97876 1206.2468 2847.7927 657670
804.64709 1194.066 2819.0354 3288873
815.60345 1185.707 2799.3008 8289133
826.86627 1178.1179 2781.384 2103822
849.25708 1186.3707 2800.8679 2366483
865.39807 1185.7438 2799.3877 2235159
876.94342 1178.962 2783.377 1183239
884.6543 1167.3708 2756.0115 5261625
898.9494 1164.7308 2749.7788 5195321
930.77393 1184.4926 2796.4336 3551013
936.3913 1170.7954 2764.0964 2037524
949.68567 1167.0029 2755.1428 196608
966.6203 1167.7362 2756.8743 262144
983.06433 1167.8624 2757.1721 1249036
988.64703 1155.2924 2727.4958 197377
997.33722 1146.6997 2707.2095 3091751
1006.8182 1139.2738 2689.678 131072
1023.845 1140.4849 2692.5371 5920338
1051.4204 1153.2286 2722.6238 196608
1076.6936 1163.1003 2745.9294 65536
1082.0752 1151.5101 2718.5664 4999234
1099.749 1153.1489 2722.4355 3025186
1123.684 1161.2107 2741.4683 1906701
1137.4064 1158.6395 2735.3979 1972749
1148.6257 1153.6267 2723.5632 4670516
1143.9335 1132.9932 2674.8503 4538153
1159.7542 1132.9628 2674.7786 788481
1181.4337 1138.5797 2688.0396 4076571
1182.6115 1124.5519 2654.9214 2564885
1206.3835 1132.0952 2672.7305 7628623
1223.1997 1133.0002 2674.8669 1642503
1231.298 1125.9103 2658.1287 10327679
1249.8773 1128.4624 2664.1538 5721133
1256.4436 1120.24 2644.7417 5458219
1253.7289 1104.0474 2606.5129 5326377
1280.9958 1114.3297 2630.7883 5721906
1300.2932 1117.5154 2638.3093 722432
1306.168 1109.2266 2618.7405 7366986
1314.8784 1103.5123 2605.2498 7761486
1319.7372 1094.7357 2584.5295 3024147
1350.0861 1107.0621 2613.6306 8485476
1362.7595 1104.7797 2608.2419 7564633
1405.5002 1126.6504 2659.8757 8879980
1420.7173 1126.2175 2658.854 2827031
1625.2751 1274.2404 3008.3167 4736311
1626.2695 1261.1859 2977.4966 6644059
1670.9812 1281.9507 3026.5198 10855318
1670.2009 1267.7446 2992.981 2763040
1728.7584 1298.4032 3065.3621 8354927
1748.5073 1299.5797 3068.1396 11184546
1768.2281 1300.7113 3070.811 7631468
1776.5293 1293.5052 3053.7983 3552563
1791.2181 1291.0483 3047.998 8224123
1778.942 1269.3992 2996.8872 8092026
1823.8035 1288.5468 3042.092 7039338
1858.5413 1300.2367 3069.6907 7170924
1887.5735 1307.7474 3087.4224 7236717
1900.356 1303.9636 3078.4895 5854807
1899.6969 1291.1165 3048.1589 5328722
1927.1217 1297.4186 3063.0374 6776168
1953.8514 1303.1394 3076.5435 5657687
1977.1702 1306.5005 3084.4785 4999244
1985.9259 1300.265 3069.7576 3617591
2018.8716 1309.8372 3092.356 1579036
2035.0129 1308.4326 3089.04 1512730
2069.3142 1318.625 3113.103 3025712
2109.634 1332.4385 3145.7148 5525843
2070.8582 1296.4912 3060.8479 6249820
2150.5852 1334.7142 3151.0876 2170399
2168.4082 1334.1907 3149.8516 1775384
2193.2791 1337.9755 3158.7871 1512217
2218.689 1342.0221 3168.3406 1775901
2282.5037 1369.036 3232.1169 4209987
2298.1902 1366.9734 3227.2473 8158079
2293.4036 1352.8679 3193.946 4276294
2310.9185 1352.0411 3191.9944 3552315
2312.0615 1341.7271 3167.6438 5657434
2341.6392 1347.9471 3182.3289 3683899
2352.7029 1343.4954 3171.8188 3354934
2387.2424 1352.4139 3192.8745 5328980
2432.738 1367.3502 3228.137 6381669
2421.2544 1350.2775 3187.8303 5920861
2441.8955 1351.2455 3190.1157 2762541
2473.9207 1358.4497 3207.1238 3092019
2493.2808 1358.6426 3207.5793 4209730
2537.6902 1372.3792 3240.0095 3617593
2557.4014 1372.653 3240.656 2498854
2549.2886 1358.0999 3206.2981 1380373
2552.5803 1349.7927 3186.686 4867146
2671.2427 1402.1671 3310.3352 4340545
2699.1008 1406.4611 3320.4727 4011579
2689.4836 1391.3064 3284.6943 3551540
2695.1262 1384.2068 3267.9331 1445907
2730.1067 1392.1688 3286.7305 10525343
2743.5642 1389.1206 3279.5339 6710116
2748.4233 1381.7925 3262.2332 7170411
2743.0181 1369.4421 3233.0757 5920086
2750.1055 1363.4567 3218.9448 6116695
2767.9192 1362.8351 3217.4775 2433314
2845.3584 1391.3788 3284.8655 7564397
2808.9624 1364.2477 3220.8123 10256005
2792.3582 1347.0302 3180.1638 3021855
2821.5703 1351.9971 3191.8901 1446934
2862.4702 1362.4609 3216.594 1708823
2867.1099 1355.6416 3200.4944 1315350
2878.939 1352.2889 3192.5791 3946559
2932.2625 1368.3433 3230.4814 5197133
2960.0955 1372.3715 3239.9915 5723479
3023.1716 1392.582 3287.7061 5657944
3022.1748 1383.2085 3265.5762 5723227
3064.885 1393.8309 3290.6545 4933971
3112.126 1406.3665 3320.2493 8092292
3134.8916 1407.7537 3323.5242 5460826
3145.2661 1403.594 3313.7039 8158338
3193.6497 1416.3424 3343.801 7894909
0 0 0 0
0 0 0 0
0 0 0 0
0 0 0 0
0 0 0 0
0 0 0 0
0 0 0 0
0 0 0 0
0 0 0 0
0 0 0 0
0 0 0 0
-1734.4542 856.08447 1993.2175 6904380
-1729.3643 859.42517 2000.9956 7956809
0 0 0 0
-1722.8595 868.09772 2021.188 2561795
-1690.5092 857.76086 1997.1206 5719075
-1679.0571 857.95667 1997.5767 4600594
-1708.627 879.26532 2047.1895 5324318
-1701.9379 882.08636 2053.7576 3482886
-1684.9907 879.59308 2047.9526 4272401
-1678.894 882.76898 2055.3469 5325858
-1670.418 884.73096 2059.915 5851946
-1649.4248 880.0434 2049.001 4536344
-1647.6703 885.62708 2062.0015 4075797
-1640.879 888.56677 2068.8459 4667931
-1626.884 887.62042 2066.6426 2956549
-1614.1305 887.34216 2065.9946 3746314
-1606.2805 889.77594 2071.6611 3548678
-1597.3217 891.62823 2075.9739 4271629
-1574.2905 885.59314 2061.9224 3678982
-1554.1694 881.11328 2051.4919 3481605
-1545.6172 883.1734 2056.2886 5718563
-1536.9838 885.21948 2061.0525 2627072
-1526.2701 886.09064 2063.0808 2824705
-1508.2097 882.67633 2055.1311 4140307
-1494.188 881.58911 2052.5999 3351305
-1489.0469 885.76672 2062.3267 2035712
-1473.6344 883.85315 2057.8711 3680270
-1460.6519 883.37708 2056.7627 6443315
-1456.6504 888.3703 2068.3884 3680269
-1450.4248 892.08038 2077.0266 5522466
-1427.6488 885.58746 2061.9092 4996378
-1414.7219 885.14478 2060.8784 7036476
-1398.6707 882.72253 2055.2388 5326114
-1404.3967 894.1225 2081.7812 5983787
-1406.712 903.53369 2103.6934 4602134
-1405.4778 910.81293 2120.6416 4403984
-1407.2798 920.20898 2142.5183 3877388
-1375.9524 907.91589 2113.8962 4206606
-1361.14 906.39423 2110.3535 4272400
-1352.7622 909.16901 2116.814 5984045
-1337.4154 907.26813 2112.3882 5655336
-1336.9618 915.53003 2131.6243 5325607
-1343.6777 928.90576 2162.7671 3022597
-1331.9214 929.64606 2164.4907 2693891
-1317.2274 928.33057 2161.4277 4601883
-1315.8087 936.43677 2180.3015 5391399
-1312.2261 943.14868 2195.9287 3877903
-1290.9827 937.17432 2182.0186 4667417
-1279.7916 938.4502 2184.9893 2825221
-1256.9364 931.11169 2167.9031 5193252
-1244.9304 931.74146 2169.3694 1575936
-1231.922 931.62634 2169.1013 5127968
-1218.1637 930.93567 2167.4932 5391138
-1203.3759 929.43518 2163.9995 5983016
-1185.7866 925.71527 2155.3386 4930073
-1183.9822 934.3714 2175.4927 3877643
-1176.6417 938.80115 2185.8064 4535064
-1175.9607 948.7019 2208.8584 4667160
-1174.3414 958.06024 2230.6472 4601624
-1139.7063 940.38965 2189.5049 5654571
-1140.8103 952.14069 2216.8647 4338711
-1128.775 953.07141 2219.0317 4009746
-1105.1212 944.09839 2198.1399 5851948
-1082.0706 935.43274 2177.9639 5852202
-1099.3552 961.84821 2239.4668 6576182
-1093.2876 968.22803 2254.3208 7299649
-1076.2996 964.97504 2246.7468 4668700
-1073.4891 974.51068 2268.9487 5391655
-1065.5719 979.59363 2280.7832 3220745
-1048.1226 975.93158 2272.2571 2234368
-1025.5242 967.31744 2252.2007 5260840
-1024.7659 979.34821 2280.2119 5918768
-1013.9943 982.00323 2286.3936 5194532
-1003.5289 985.03052 2293.4421 5984309
-993.42419 988.50006 2301.52 5128484
-969.14459 977.76508 2276.5259 4865822
-936.37903 958.04468 2230.6111 7102526
-928.14972 963.22302 2242.6677 5917994
-935.05151 984.48285 2292.1667 6049839
-914.33435 976.86169 2274.4226 5721135
-898.72968 974.5564 2269.0552 6970946
-891.25757 981.13361 2284.3689 6049329
-893.48987 998.76166 2325.4121 5588518
-870.49182 988.29706 2301.0476 4930330
0 0 0 0
0 0 0 0
0 0 0 0
0 0 0 0
0 0 0 0
-804.76337 1008.4604 2347.9937 590592
-784.92786 1000.9105 2330.4153 656384
-779.10748 1011.2817 2354.5625 1972494
-767.32159 1014.1467 2361.2332 2236180
0 0 0 0
0 0 0 0
-367.92542 514.41986 1197.7213 196608
-360.81842 514.40692 1197.6913 4538932
0 0 0 0
0 0 0 0
0 0 0 0
-657.13184 1016.8633 2367.5583 5063978
-644.06781 1018.3918 2371.1169 4603167
-637.40314 1030.3326 2398.9187 4734239
-620.6665 1026.166 2389.2178 7036736
-608.55695 1029.6337 2397.2913 5852715
-590.85565 1023.58 2383.1965 5918767
-577.25922 1024.5151 2385.3738 5589800
-560.7359 1020.1721 2375.262 5721128
-549.20599 1024.9241 2386.3262 5655854
-532.09619 1019.239 2373.0896 7103567
-521.47229 1026.0065 2388.8462 6051141
-503.54294 1018.3768 2371.082 196864
-494.65408 1029.1177 2396.0898 8288614
-482.97452 1034.5157 2408.6584 5130290
-473.64911 1045.4388 2434.0903 3222549
-460.16055 1047.5704 2439.0535 5590838
-446.22336 1048.7859 2441.8835 4472611
-430.07938 1044.7224 2432.4224 4932901
-417.65561 1049.7273 2444.0752 6445623
-399.16977 1039.3081 2419.8162 6708793
-383.8504 1036.6641 2413.6602 6839867
-370.15488 1038.3705 2417.6333 4405789
-354.36557 1034.1045 2407.7007 3879192
-341.98465 1039.844 2421.064 3483924
-330.86807 1050.099 2444.9407 1774598
-320.41455 1063.494 2476.1282 4011555
-307.93381 1071.1232 2493.8914 6839625
-293.22665 1071.3871 2494.5056 5326385
-277.02521 1065.9291 2481.7979 4273695
-262.71478 1067.5433 2485.5562 5721137
-248.85056 1071.2701 2494.2332 5721136
-235.76532 1079.0327 2512.3069 3813147
-219.12305 1070.465 2492.3586 7826505
-205.12206 1074.4946 2501.7407 5983787
-192.0844 1084.5914 2525.2493 5851689
-178.50996 1093.1077 2545.0774 3811341
-161.01721 1076.9875 2507.5449 3351820
-145.27914 1070.519 2492.4846 984320
-131.27249 1076.7888 2507.0823 524544
-116.46101 1077.2145 2508.0735 1050881
-101.47361 1075.8994 2505.0117 1972241
-89.820084 1115.5394 2597.3054 5459271
-74.388496 1114.949 2595.9304 5328200
-58.489689 1105.2217 2573.2827 7894387
-42.571495 1088.1381 2533.5068 11185065
-27.589121 1089.3909 2536.4238 9803415
-12.590716 1092.2523 2543.0859 7960954
2.4548595 1081.1129 2517.1504 10461344
17.566536 1093.2178 2545.3337 9145228
32.875393 1100.74 2562.8479 10593444
48.031754 1100.0157 2561.1616 10528167
63.74271 1109.2908 2582.7566 7896706
79.021996 1108.9165 2581.885 10726575
96.216087 1131.1752 2633.7097 11055285
111.88406 1131.7826 2635.124 11055798
128.05956 1136.7462 2646.6809 10990003
144.26413 1140.8566 2656.2512 11055796
161.35629 1150.4869 2678.6736 11187639
175.21384 1137.3948 2648.1909 11187382
194.64624 1159.6689 2700.052 11055795
214.92123 1183.198 2754.8345 11450553
225.68529 1154.7411 2688.5784 11450297
243.79036 1165.1213 2712.7468 11647932
262.4993 1176.9248 2740.2288 11713469
279.9371 1181.9858 2752.0122 11647931
297.59717 1187.3766 2764.5632 11516345
312.43182 1181.5197 2750.9268 11385017
334.72467 1203.0496 2801.0547 11318967
352.32422 1206.4735 2809.0266 11318968
370.67789 1212.0543 2822.0205 11319224
389.31729 1218.0474 2835.9741 11581626
408.0715 1223.8885 2849.5742 11647418
426.46545 1228.2281 2859.678 11975613
443.92276 1229.6416 2862.9688 11909819
460.6796 1229.082 2861.666 9870236
478.2363 1230.6204 2865.2478 10857130
495.32849 1230.8992 2865.8967 12107453
520.09875 1249.6069 2909.4539 10791593
534.96173 1244.0742 2896.5723 10989229
550.14099 1239.5983 2886.1509 11186608
567.28302 1239.6815 2886.3447 10989485
575.17175 1220.1306 2840.8245 9936540
590.04858 1216.094 2831.4263 10134689
613.10724 1228.6772 2860.7236 10331551
629.93707 1228.4366 2860.1633 8093559
654.02466 1241.9911 2891.7219 2894379
667.39008 1235.0117 2875.4722 3355440
681.13324 1229.0616 2861.6184 1381651
696.22156 1225.7689 2853.9519 1381648
713.07806 1225.6715 2853.7253 4078905
722.2428 1212.6639 2823.4399 2368290
737.56897 1210.3564 2818.0674 394755
768.94238 1233.9019 2872.8879 2434080
775.89404 1218.087 2836.0664 1052427
794.03229 1220.1324 2840.8286 1446415
801.67432 1206.299 2808.6204 3683632
813.09601 1198.6 2790.6948 3486254
813.62299 1175.468 2736.8367 921100
841.86542 1192.499 2776.49 2499103
868.08765 1206.0703 2808.0879 65536
884.1178 1205.2371 2806.1479 4407096
883.69916 1182.4257 2753.0361 4933436
890.55426 1169.9972 2724.0991 8420209
908.177 1171.9059 2728.543 2564119
938.23761 1189.5167 2769.5464 393985
946.11456 1178.8807 2744.7827 131072
967.06421 1184.6178 2758.1401 327680
981.84808 1182.7369 2753.761 196608
996.81073 1181.1294 2750.0181 262400
1006.3055 1173.1986 2731.553 2630949
1010.4975 1159.4351 2699.5071 196608
1021.402 1153.682 2686.1123 2565156
1047.3086 1164.7904 2711.9763 131072
1066.2194 1167.9003 2719.2168 131072
1081.4965 1166.9963 2717.1123 3025446
1105.2977 1175.1824 2736.1716 1446414
1119.686 1173.2681 2731.7146 2433052
1133.7742 1171.0984 2726.6631 2893340
1144.2168 1165.277 2713.1089 1314310
1147.8932 1152.8217 2684.1094 6183240
1167.6102 1156.5962 2692.8975 1644300
1172.5981 1145.8754 2667.9363 5852472
1186.1632 1143.7102 2662.895 3944476
1207.3252 1148.8304 2674.8167 8880731
1216.1373 1142.219 2659.4231 197122
1215.6556 1127.1592 2624.3596 8880490
1248.7572 1143.2252 2661.7661 3417618
1261.782 1140.7395 2655.9788 4667683
1277.2633 1140.5087 2655.4412 5195051
1287.4429 1135.6071 2644.0286 4472622
1302.4801 1135.0563 2642.7463 985349
1296.1381 1116.1091 2598.6316 4011040
1316.0332 1119.9343 2607.5381 8353888
1317.7185 1108.3542 2580.5762 2038807
1320.1134 1097.6298 2555.6064 7696476
1370.1406 1126.3043 2622.3691 4209452
1369.2319 1112.9338 2591.2388 4801335
1400.2219 1125.5004 2620.4973 5656390
1546.8304 1229.7061 2863.1189 7104609
1558.5258 1225.5602 2853.4661 5065029
1507.036 1172.3506 2729.5786 4998981
1638.8785 1261.374 2936.8513 6710109
1691.3564 1288.085 2999.0422 8420213
1714.6298 1292.2305 3008.6941 7236452
1744.5342 1301.2365 3029.6628 9078657
1759.7266 1299.1973 3024.915 8092021
1730.3417 1264.6199 2944.4084 10329243
1774.0812 1283.6423 2988.6985 8355199
1760.774 1261.4205 2936.9595 6907754
1812.8192 1285.9938 2994.1733 4934220
1816.4132 1276.0531 2971.0286 5263185
1871.0967 1301.8497 3031.0908 3025966
1868.3219 1287.5583 2997.8162 6250081
1902.4857 1298.7528 3023.8801 6644838
1909.8568 1291.6185 3007.2695 5197137
1950.8965 1307.1754 3043.4905 7434098
1971.908 1309.1506 3048.0894 2368037
2004.6101 1318.7809 3070.5115 3354933
2009.8711 1310.3475 3050.876 2565675
2058.3711 1330.0031 3096.6399 1183766
2124.5503 1360.6335 3167.9568 3683899
2126.8955 1350.2042 3143.6743 3091764
2119.0161 1333.5215 3104.832 5065550
2144.9873 1338.2452 3115.8303 6381670
2168.0132 1341.0664 3122.3987 5526615
2191.9939 1344.4254 3130.2195 1249812
2236.3884 1360.1436 3166.8159 2894383
2270.0439 1369.123 3187.7229 2894128
2272.0632 1359.0314 3164.2263 6512999
2266.8623 1344.8212 3131.1409 2763055
2277.7961 1340.3362 3120.6985 5855326
2288.3418 1335.6967 3109.8965 4078915
2341.7703 1355.962 3157.0801 2368298
2364.5608 1358.3063 3162.5383 6381673
2388.6072 1361.3295 3169.5771 5197398
2408.8799 1362.1716 3171.5378 5526361
2402.2693 1347.9164 3138.3474 5460568
2439.7786 1358.4457 3162.8628 2368295
2448.395 1352.85 3149.8342 5065550
2489.7944 1365.3157 3178.8584 5657686
2508.9036 1365.463 3179.2014 3749688
2518.5676 1360.506 3167.6597 4407364
2550.5403 1367.584 3184.1394 4012348
2545.8933 1355.0669 3154.9961 2761769
2552.6509 1348.7583 3140.3079 854028
2518.0483 1320.8455 3075.3186 788492
2542.5757 1324.1277 3082.9604 1050895
2540.5322 1313.6241 3058.5051 3682359
2636.3325 1353.5028 3151.3542 3353905
2677.6484 1365.0446 3178.2271 3156524
2686.8918 1360.1892 3166.9221 6577246
2737.5542 1376.2231 3204.2539 7037796
2736.5979 1366.2653 3181.0691 7561058
2762.4744 1369.7484 3189.179 6180688
2739.1787 1348.9684 3140.7969 4997696
2757.6096 1348.8793 3140.5894 9736592
2831.4348 1375.7058 3203.0493 10657439
2870.533 1385.4144 3225.6541 1446934
2902.2202 1391.4418 3239.6873 6776168
2880.4622 1371.9343 3194.2683 9079177
2900.2422 1372.3364 3195.2046 5262927
2910.9202 1368.4546 3186.1665 6907754
2950.6489 1378.1918 3208.8374 5789275
2980.1096 1383.0389 3220.123 5393748
3016.6904 1391.1077 3238.9097 3617337
3048.9983 1397.1166 3252.9001 5064529
3084.5054 1404.5066 3270.1062 6512489
3082.98 1395.0472 3248.082 1972773
3148.8657 1416.0195 3296.9116 3684160
0 0 0 0
0 0 0 0
0 0 0 0
0 0 0 0
0 0 0 0
0 0 0 0
0 0 0 0
0 0 0 0
0 0 0 0
0 0 0 0
0 0 0 0
-1713.2621 857.29248 1968.8639 5851174
-1719.0409 866.08246 1989.0509 5391136
-1703.2954 864.07458 1984.4396 5259805
-1708.0923 872.53223 2003.8635 5587746
-1693.3319 871.04822 2000.4553 5062171
-1677.9426 869.21753 1996.2509 6509361
-1677.4391 875.12659 2009.8218 3811852
-1671.2988 878.15851 2016.7849 5259552
-1671.7136 884.70325 2031.8156 5456932
-1644.369 876.54553 2013.0804 5654564
-1628.726 874.55182 2008.5017 5062430
-1608.9121 870.27264 1998.6741 8023118
-1607.4042 875.90533 2011.6101 2036993
-1619.4001 889.03552 2041.7651 4075536
-1614.1276 892.81189 2050.438 5786157
-1590.7965 886.5813 2036.1288 3680780
-1592.0094 894.0387 2053.2554 3614732
-1574.4221 890.97192 2046.2122 3219719
-1563.8843 891.87775 2048.2927 3087876
-1554.2948 893.34296 2051.6575 2956291
-1534.1863 888.73761 2041.0809 2890497
-1531.7875 894.39966 2054.0845 2956546
-1515.3813 891.90814 2048.3623 2956550
-1501.0358 890.599 2045.3557 1837824
-1480.3706 885.4884 2033.6188 4864030
-1479.3326 892.13031 2048.8726 4666904
-1464.4417 890.4588 2045.0338 5259041
-1457.9106 893.88519 2052.9028 3416583
-1443.5737 892.54291 2049.8201 5259294
-1430.8063 892.15649 2048.9326 5061662
-1419.9702 892.97803 2050.8193 2891011
-1400.0719 888.06537 2039.5371 5193762
-1385.0352 886.17804 2035.2025 5522470
-1379.5439 890.41846 2044.941 4667929
-1395.1425 908.46692 2086.3914 4996637
-1375.0309 903.37714 2074.7021 5259808
-1361.2505 902.39252 2072.4409 4075277
-1350.2612 903.25714 2074.4265 4206865
-1347.2058 909.49371 2088.7495 5588521
-1340.8298 913.58344 2098.1421 6378295
-1329.7126 914.48907 2100.2219 2562053
-1330.015 923.33978 2120.5483 1641730
-1315.3433 921.8645 2117.1604 2562311
-1315.5175 930.86584 2137.833 1246976
-1298.9045 928.04816 2131.3618 2825482
-1295.1321 934.43958 2146.0403 3154187
-1282.8068 934.72559 2146.6973 3154440
-1280.3969 942.31476 2164.1265 3943441
-1270.5626 944.53809 2169.2327 3088651
-1248.9734 937.979 2154.1689 3614478
-1231.4105 934.33929 2145.8101 2890757
-1226.5687 940.37671 2159.6755 7826251
-1216.9924 942.87323 2165.4092 5852200
-1197.9233 937.98999 2154.1943 4798743
-1190.2909 942.0531 2163.5256 4139787
-1175.3105 940.32593 2159.5591 4008200
-1164.2596 941.73907 2162.8044 4666131
-1150.9851 941.36505 2161.9456 4930330
-1142.5773 945.00787 2170.3115 4272399
-1122.7933 939.21741 2157.0132 5654054
-1111.8812 940.80042 2160.6487 4535833
-1100.6672 942.16187 2163.7754 5457191
-1083.9312 938.77271 2155.9919 4404505
-1075.4471 942.53516 2164.6326 7891530
-1065.7943 945.35138 2171.1006 6115118
-1071.9933 962.46899 2210.4128 4272659
-1061.4767 964.81659 2215.8044 5259810
-1046.3956 963.02216 2211.6833 4272661
-1038.5986 967.97101 2223.0488 6181942
-1020.1667 963.00787 2211.6506 4076575
-1013.9003 969.54913 2226.6731 9537124
-1001.3852 970.2085 2228.1875 6379316
-988.4505 970.47363 2228.7964 9076833
-960.00995 955.31586 2193.9849 6115887
-960.63525 969.06274 2225.5562 6181422
-950.16791 971.84656 2231.9495 6378545
-940.43756 975.47351 2240.2791 5982760
-924.3446 972.51019 2233.4736 6442798
-915.73035 977.44342 2244.8032 4863254
-900.71246 975.58618 2240.5378 5257757
-888.56226 976.82587 2243.385 4600855
-885.45673 988.19745 2269.501 5654055
-877.51337 994.43726 2283.8315 4864796
