# .PCD v0.7 - Point Cloud Data file format
VERSION 0.7
FIELDS x y z rgb
SIZE 4 4 4 4
TYPE F F F U
COUNT 1 1 1 1
WIDTH 1302
HEIGHT 1
VIEWPOINT 0 0 0 1 0 0 0
POINTS 1302
DATA ascii
2556.2183 1361.0221 4837.5825 6775653
2619.6785 1379.3408 4902.6943 8881287
2607.6189 1357.9307 4826.5942 6973801
2583.4695 1330.7573 4730.0103 5855577
2611.6826 1330.8501 4730.3398 6249556
2738.0869 1380.4453 4906.6201 6248793
2716.8953 1355.3678 4817.4849 5722961
2689.7292 1327.8622 4719.7197 4276032
2707.7146 1322.9836 4702.3799 5591892
2753.6917 1331.7418 4733.5098 5855066
2950.8398 1412.6957 5021.25 6447203
2904.2156 1376.4938 4892.5747 5920859
2961.6924 1389.86 4940.083 6512996
3085.5164 1433.7952 5096.2451 3947066
3050.0769 1403.5884 4988.8789 4933962
3041.6353 1386.2662 4927.3096 4933448
3072.448 1386.9941 4929.897 3880247
3062.6604 1369.5527 4867.9038 4340026
3131.2163 1387.1434 4930.4277 2168857
3140.4922 1378.3904 4899.3159 1905428
3164.7771 1376.3248 4891.9741 2694687
3209.6362 1383.1632 4916.2803 2694944
3304.2129 1411.1108 5015.6167 2234393
3428.6628 1451.2045 5158.1245 1773843
3468.7493 1455.1976 5172.3174 3155240
3374.947 1403.4441 4988.3662 4931909
3358.7573 1384.5837 4921.3296 4274493
3449.5461 1409.7686 5010.8457 3616051
3565.2285 1444.61 5134.6851 1775642
3686.7551 1481.2096 5264.7739 2759710
3791.833 1510.6421 5369.3882 7229777
3783.3887 1494.7344 5312.8462 10386804
3951.2783 1548.1802 5502.8125 11307132
3946.4658 1533.6371 5451.1206 11109240
3988.3884 1537.3445 5464.2983 10582893
3940.998 1506.8431 5355.8853 10517356
3910.6936 1483.3098 5272.2393 10583146
3979.5537 1497.4644 5322.5493 10518379
3839.1865 1433.2853 5094.4326 13282191
3800.3494 1407.7161 5003.5503 13414282
3896.8381 1432.282 5090.8667 14142371
3890.7417 1419.0547 5043.8521 13946273
3931.3994 1422.9518 5057.7036 12689788
4065.1877 1460.2429 5190.2505 12556663
4022.9824 1434.2306 5097.793 13609097
4012.2842 1419.7549 5046.3408 13740943
3934.4041 1381.8969 4911.7793 10977903
4177.2534 1456.4187 5176.6577 8872794
4408.8018 1525.9424 5423.771 10714479
4495.5303 1544.6986 5490.4375 11043188
4345.3218 1482.3569 5268.8521 10122593
4336.6782 1468.8535 5220.856 9728090
4373.4326 1470.809 5227.8062 9464918
4286.9673 1431.5889 5088.4033 9398872
4329.8545 1435.811 5103.4102 7687497
4301.4673 1416.5034 5034.7837 4464668
4324.918 1414.4149 5027.3604 4661530
4559.2505 1480.8492 5263.4932 5582630
4645.9268 1498.7479 5327.1118 8544598
4825.7886 1546.2634 5495.9995 8346962
4738.2939 1508.0504 5360.1763 7294533
4850.5171 1533.4871 5450.5874 6833727
4922.688 1546.0083 5495.0928 7886673
4849.0303 1512.8674 5377.2979 9794667
4747.5327 1471.5302 5230.3696 9663081
4872.8647 1500.5806 5333.6255 10255215
5105.6206 1562.124 5552.374 9925224
5119.2935 1556.2775 5531.5933 8939097
5134.9634 1551.1088 5513.2217 8544081
5235.9673 1571.619 5586.1226 8280907
5073.7612 1513.363 5379.0596 7755075
4832.2603 1432.3311 5091.041 12821884
5218.4946 1537.217 5463.8452 13282685
0 0 0 0
0 0 0 0
0 0 0 0
0 0 0 0
0 0 0 0
0 0 0 0
0 0 0 0
0 0 0 0
-2392.97 774.16797 2694.9172 5919797
-2430.1731 791.48615 2755.2029 5722160
-2428.1035 796.16138 2771.4775 4997667
-2430.9783 802.53259 2793.656 5128997
-2410.9021 801.36249 2789.5828 5259812
-2398.7446 802.82642 2794.679 5259553
-2379.3938 801.88647 2791.407 5260834
-2355.7727 799.48419 2783.0444 6643000
-2336.4578 798.51971 2779.687 6379829
-2323.9932 799.89941 2784.49 5852976
-2311.0117 801.11969 2788.7375 6182197
-2288.9373 799.18262 2781.9946 6313784
-2282.3728 802.67218 2794.1418 7300678
-2260.2256 800.69244 2787.2502 5787439
-2278.5933 813.14166 2830.5867 6840126
-2261.7241 813.10767 2830.4685 6708540
-2247.5469 814.04816 2833.7424 7037504
-2243.6655 818.76007 2850.1445 5721132
-2236.6885 822.40515 2862.8333 6839868
-2227.4253 825.25897 2872.7678 6115887
-2232.5762 833.53821 2901.5881 6510131
-2218.3813 834.66711 2905.5181 5260324
-2201.7407 834.88641 2906.2812 7300165
-2200.9448 841.16467 2928.1362 7695182
-2205.5657 849.62933 2957.6023 7760463
-2174.7971 844.48767 2939.7039 5721138
-2149.3401 841.34229 2928.7544 6510909
-2129.1921 840.24054 2924.9194 4931877
-2113.7375 840.98816 2927.522 4866341
-2089.6672 838.29193 2918.1362 6313787
-2098.2629 848.7644 2954.5913 6577218
-2088.4519 851.90466 2965.5225 5393714
-2080.1265 855.70935 2978.7671 5262131
-2110.6128 875.68207 3048.2932 5130547
-2070.0039 866.24792 3015.4521 7367255
-2023.1868 854.02881 2972.917 4735792
-2001.9902 852.505 2967.6125 4407343
-1977.6479 849.60278 2957.5098 6710359
-1999.6324 866.72876 3017.1262 4407864
-1995.97 872.94684 3038.7717 6777440
-1989.0349 877.83405 3055.7842 7171945
-1976.2542 880.20721 3064.0454 8224639
-1972.9764 886.8963 3087.3306 10001821
-1958.6979 888.7193 3093.6763 9805469
-1909.4391 874.55518 3044.3701 10134436
-1975.9229 913.63837 3180.4209 9674399
-1961.4496 915.6806 3187.53 9608607
-1924.3555 907.09961 3157.6592 9411227
-1887.6295 898.52521 3127.8113 10332073
-1901.8217 914.25867 3182.5801 10134952
-1872.4283 909.14465 3164.7778 10135466
-1881.2216 922.65582 3211.811 10003880
-1879.8582 931.41107 3242.2883 10003880
-1863.4081 932.79486 3247.1055 9740195
-1795.6519 908.25653 3161.6863 9543073
-1833.8413 937.35394 3262.9758 10530225
-1815.0039 937.612 3263.8743 10464690
-1801.8608 940.84906 3275.1426 10398896
-1783.4559 941.37915 3276.9878 10793398
-1762.3806 940.49585 3273.9131 10859447
-1759.2203 949.2597 3304.4204 10662066
-1752.9001 956.49664 3329.6125 10399150
-1737.062 958.64557 3337.093 8951703
-1718.6849 959.42664 3339.812 10003877
-1673.9532 945.34247 3290.7844 10464170
0 0 0 0
-1649.4513 953.7276 3319.9734 10003619
-1617.8065 946.72302 3295.5901 8884626
0 0 0 0
-1623.1194 973.3324 3388.2185 9871777
-1593.2633 967.39618 3367.5542 9806242
-1573.3065 967.39618 3367.5542 9149083
-1549.6471 965.09021 3359.5273 8360080
-1536.5217 969.37012 3374.4258 9215388
-1443.8041 922.88708 3212.616 259
0 0 0 0
0 0 0 0
0 0 0 0
-1414.8395 954.73083 3323.4656 6580060
-1403.521 960.46344 3343.4211 4803396
-1389.3488 964.37933 3357.0527 3224108
-1361.5015 958.77899 3337.5576 1973785
-1335.0807 954.03302 3321.0366 2697507
-1330.4158 964.92401 3358.9485 1973528
-1321.183 972.78241 3386.3042 1513236
-1299.2727 971.40503 3381.5095 1776151
-1257.4454 954.86017 3323.916 1644563
-1257.6113 970.18445 3377.2605 65536
-1231.1506 965.13098 3359.6689 1117705
-1205.3684 960.45203 3343.3813 854532
-1201.3525 973.25012 3387.9324 1446154
-1195.8534 985.26135 3429.7439 723204
-1161.1932 973.24683 3387.9207 1512720
-1145.1426 976.68121 3399.8762 2433306
-1127.6898 979.02155 3408.0227 591361
-1099.073 971.57812 3382.1121 1644564
-1051.9183 947.16638 3297.1335 1249804
-1031.1398 946.02966 3293.1765 1314825
-1009.7519 944.27917 3287.083 2696735
-1008.1385 961.31598 3346.3889 723206
-985.63861 958.72034 3337.3535 1644045
-961.38104 954.27374 3321.8745 2630683
-947.87457 960.53589 3343.6736 525828
-948.75024 981.95105 3418.2205 657665
-899.33118 951.11011 3310.8616 4604988
-875.86169 946.94916 3296.3772 920581
-875.03845 967.64105 3368.407 788994
-864.78192 978.62408 3406.6394 1512204
-847.74713 982.2782 3419.3594 591616
-814.90961 967.35248 3367.4021 3749675
-792.98962 964.9624 3359.0825 131328
-778.84875 972.15924 3384.135 131328
-751.64258 962.99731 3352.2419 2104338
-736.72681 969.5119 3374.9194 5262909
-720.49139 974.60492 3392.6484 5789251
-680.07703 946.34467 3294.2732 8091484
-661.37927 947.52643 3298.3867 8092253
-637.03766 940.448 3273.7466 4538917
-616.34564 938.48218 3266.9033 5920056
-594.29932 934.25977 3252.2048 5261876
-580.69055 943.46307 3284.2419 5524785
-556.54272 935.58765 3256.8274 6249020
-532.83478 927.9126 3230.1099 10262397
-528.70135 955.02386 3324.4858 2169610
-503.76089 945.19452 3290.2693 2169096
-486.2728 949.11896 3303.9307 4735276
-463.73669 943.10675 3283.0017 6578001
-449.82224 954.86969 3323.9492 4143392
-426.06912 945.86835 3292.615 4406308
-409.53549 952.79944 3316.7424 4471846
-392.78839 959.90765 3341.4863 7695703
-370.2605 952.89325 3317.0688 8946285
-355.38956 965.90283 3362.3562 5327670
-337.03168 970.41809 3378.0737 3287830
-315.44431 965.61768 3361.3633 8551523
-292.79697 956.70667 3330.3438 7630676
-272.0043 953.00555 3317.46 6840648
-253.55597 957.58154 3333.3892 6775110
-231.78113 949.30627 3304.5825 7959638
-209.14473 935.64923 3257.0417 8419930
-188.34521 928.26831 3231.3484 8090962
-171.38724 940.29272 3273.2058 7761477
-153.00638 946.5835 3295.1045 7695684
-134.05984 950.70349 3309.4463 3154947
-114.34812 949.87909 3306.5767 7299389
-92.789917 930.20312 3238.0835 7365181
-74.477715 941.29181 3276.6838 3615252
-54.942318 939.29047 3269.7168 5918505
-35.313362 932.63727 3246.5569 8287569
-16.012062 929.0683 3234.1331 11446147
3.1865253 938.61969 3267.3818 7696204
22.630684 941.98944 3279.1123 8616540
41.327969 925.51978 3221.7805 2432524
61.16917 936.98126 3261.6785 2432267
81.376114 947.19556 3297.2351 5525053
101.87217 956.16803 3328.4685 1709059
123.20506 968.80975 3372.4751 3813671
142.31404 962.87592 3351.8191 393984
161.81525 960.72437 3344.3293 787200
182.45702 965.0752 3359.4749 9669224
202.26672 964.60187 3357.8271 4339744
220.50208 957.37769 3332.6797 3286283
241.19368 961.12921 3345.7388 10062442
260.01108 957.40955 3332.7905 9866865
279.67877 957.12512 3331.8003 8945245
294.77786 942.27429 3280.1038 9142879
314.77289 943.94287 3285.9124 9274209
334.56857 944.85425 3289.0847 7234885
353.37161 943.01617 3282.6863 9208929
372.68661 942.66479 3281.4631 5852972
390.25238 938.14325 3265.7234 10985865
412.83752 945.5451 3291.4897 9274987
426.7764 933.36951 3249.106 9274985
448.12222 937.74512 3264.3374 6314820
457.71069 918.17303 3196.2063 6512202
491.51138 946.79645 3295.8457 6973527
491.54495 910.67236 3170.0962 8092529
525.57159 937.86768 3264.7644 4868419
647.98785 1115.2604 3882.2771 4079418
690.02936 1146.8972 3992.4067 7040106
728.55035 1170.7791 4075.5405 7039852
746.58093 1161.257 4042.3933 4539458
0 0 0 0
0 0 0 0
674.92194 957.61316 3333.4993 6578250
0 0 0 0
0 0 0 0
726.97205 948.20251 3300.7405 7366723
764.66034 971.22693 3380.8894 8221779
768.53723 951.22687 3311.2681 8946022
783.04938 945.05811 3289.7944 7433045
796.38416 937.80286 3264.5386 8354664
822.70581 945.82196 3292.4534 7565409
1011.3871 1135.8018 3953.7825 7499359
1092.395 1198.9973 4173.7695 7500130
1150.0453 1234.3252 4296.7476 6052688
1157.7062 1215.6317 4231.6748 4210746
1209.0544 1242.632 4325.6636 6645346
1240.6014 1248.582 4346.3765 7434609
1239.5236 1222.1233 4254.2725 5131598
1303.7842 1259.8566 4385.6235 7631734
1328.3635 1258.5201 4380.9712 5920861
1331.9849 1237.7593 4308.7017 2828588
1354.2893 1234.8143 4298.4502 6841961
1370.4406 1226.4714 4269.4082 3552312
1377.7793 1210.6871 4214.4624 6579301
1426.7714 1231.4149 4286.6172 6974059
1463.9717 1241.4185 4321.4399 5065548
1476.958 1230.8981 4284.8179 4671813
1511.6039 1238.4794 4311.2085 4671814
1531.197 1233.6807 4294.5039 3157549
1525.0784 1208.6616 4207.4116 1775897
1580.0427 1232.0785 4288.9268 1973277
1577.1014 1210.3154 4213.1685 5197136
1652.7333 1248.5903 4346.4053 2434342
1707.735 1270.3442 4422.1318 9737111
1734.3267 1270.6265 4423.1143 9671576
1735.9336 1252.868 4361.2964 10132384
1773.3685 1261.1096 4389.9854 6842733
1813.9642 1271.3279 4425.5557 6579047
1846.3701 1275.5967 4440.4155 6118751
1883.5583 1283.0032 4466.1982 6315875
1909.1531 1282.4169 4464.1572 4407877
1934.0077 1281.3562 4460.4648 4342340
1941.9138 1269.2463 4418.3101 328965
2033.3567 1311.3326 4564.8145 4276547
2082.0857 1325.1289 4612.8398 5065547
2111.3101 1326.3146 4616.9673 2499109
2144.8601 1330.1527 4630.3281 1578007
2183.8174 1337.205 4654.877 2433830
2167.061 1310.3917 4561.5391 3487031
2215.3079 1323.0616 4605.6436 2370093
2224.2498 1312.2345 4567.9541 3815481
2264.3479 1319.8279 4594.3867 1052431
2325.0869 1339.1289 4661.5747 2829357
2338.7114 1331.1597 4633.8335 2039326
2347.2649 1320.5227 4596.8057 9079177
2393.4148 1331.038 4633.4097 3684152
2518.4448 1384.6846 4820.1562 2302498
2488.9875 1353.1405 4710.3496 3815225
2502.7998 1345.5588 4683.9575 3881273
2527.9307 1344.1619 4679.0947 6315612
2591.6797 1363.1066 4745.042 5657170
2562.9106 1333.5067 4642.0034 8683901
2630.5461 1354.1627 4713.9082 1052429
2645.0955 1347.3442 4690.1724 6117979
2658.5103 1340.0956 4664.9395 5789268
2682.5596 1338.3015 4658.6943 4868424
2691.9792 1329.3197 4627.4282 5723479
2746.2742 1342.4553 4673.1543 6776167
2787.2695 1348.8925 4695.562 9078923
2889.9612 1384.765 4820.436 5855066
2903.3923 1377.5834 4795.4365 4012862
3011.47 1415.0132 4925.7314 6447459
2986.1025 1389.6235 4837.3491 4933449
3027.2803 1395.3901 4857.4229 4538433
3069.7786 1401.6512 4879.2178 3353903
3089.2495 1397.379 4864.3462 4471613
3099.3772 1388.9988 4835.1743 2826532
3057.1355 1357.5176 4725.5864 2892323
3155.7104 1388.5697 4833.6807 1379342
3228.5266 1407.8308 4900.729 656132
3244.2566 1402.0773 4880.7012 1510928
3390.2332 1452.2173 5055.2407 1643029
3324.4346 1411.5586 4913.7061 4143932
3312.8865 1394.4412 4854.1191 2630693
3397.2166 1417.6272 4934.8311 6973546
3538.1577 1463.8394 5095.6978 4209989
3467.8467 1422.6075 4952.168 6249319
3806.0903 1548.262 5389.5771 5064014
3822.7102 1542.0819 5368.064 2826536
3812.1538 1525.1312 5309.0581 524288
3830.6406 1519.9825 5291.1353 2824218
3883.156 1528.3103 5320.1245 7162698
3844.2131 1500.7981 5224.353 10056811
3841.1355 1487.6156 5178.4639 10451305
3792.7964 1457.2518 5072.7666 10122337
3812.6255 1453.3511 5059.1875 11372909
3784.6223 1431.4199 4982.8442 11570288
3807.5125 1428.9282 4974.1704 13346952
3834.1648 1427.8759 4970.5073 13808015
3839.8699 1419.0981 4939.9517 13676939
3905.967 1432.6035 4986.9644 12820345
3979.5737 1448.6395 5042.7866 12886139
3943.6289 1424.8551 4959.9917 13215364
3882.4712 1392.3802 4846.9453 11043689
3978.8655 1416.4708 4930.8057 2097153
3872.7341 1368.6368 4764.293 6766401
4226.1763 1482.7346 5161.4731 9070163
4270.5703 1487.5435 5178.2134 9267031
4347.2607 1503.4531 5233.5957 9727580
4319.6055 1483.3064 5163.4639 9398618
4344.5186 1481.3673 5156.7134 7161403
4347.6665 1472.0859 5124.4048 5122082
4279.5176 1438.9601 5009.0918 4727326
4287.1313 1431.59 4983.436 4530465
4457.5288 1478.3065 5146.0591 2953230
4459.8564 1469.0282 5113.7603 1508870
4515.3252 1477.2607 5142.4185 10980483
4683.8018 1522.1074 5298.5317 9595998
4699.334 1516.985 5280.7007 8938326
4693.208 1504.9854 5238.9292 7162431
0 0 0 0
0 0 0 0
4462.2153 1403.0671 4884.1465 10518394
4880.1851 1524.6011 5307.2124 6437946
4996.875 1551.0597 5399.3159 5388080
5226.4321 1611.9929 5611.4282 11504249
5223.3677 1600.8618 5572.6802 11766900
5204.73 1585.1278 5517.9092 12161911
5151.0044 1558.9707 5426.855 12490357
5143.7373 1547.1118 5385.5732 13215101
0 0 0 0
0 0 0 0
0 0 0 0
0 0 0 0
0 0 0 0
0 0 0 0
0 0 0 0
0 0 0 0
0 0 0 0
-2444.5317 812.5871 2771.4822 4602654
-2415.5405 808.38141 2757.1379 5786924
-2414.5903 813.56665 2774.8232 6049837
-2374.4326 805.52185 2747.3848 5260577
-2353.0186 803.76868 2741.4053 5721898
-2359.5508 811.6037 2768.1282 6379572
-2317.6521 802.77319 2738.01 6445366
-2299.3455 802.04742 2735.5344 6247730
-2296.8606 806.86938 2751.981 7300418
-2261.5491 800.14618 2729.05 5918507
-2262.6299 806.29462 2750.0205 5918506
-2252.8147 808.62134 2757.9561 6247729
-2239.77 809.81427 2762.0249 6774330
-2226.2678 810.85822 2765.5854 6576441
-2252.24 826.40161 2818.5994 6182195
-2266.114 837.70514 2857.1521 7103295
-2224.8762 828.65259 2826.2764 5523237
-2215.8857 831.56421 2836.207 5654823
-2201.6736 832.54572 2839.5549 5193757
-2183.1968 831.91748 2837.4119 4403988
-2162.9775 830.61017 2832.9534 4733467
-2155.0251 834.02997 2844.6172 5589291
-2176.593 849.01868 2895.7388 6445115
-2144.9248 843.3147 2876.2844 5129256
-2114.5649 838.03802 2858.2874 4340254
-2109.8274 842.91272 2874.9133 5261355
-2080.4304 837.93463 2857.9346 6314559
-2050.7043 832.74103 2840.2209 6774854
-2051.3738 839.9068 2864.6611 4274979
-2074.3662 856.40802 2920.9417 4932399
-2068.738 861.27155 2937.5298 7959650
-2056.1108 863.27899 2944.3765 4143144
-2046.5333 866.61218 2955.7451 7104856
-2020.9498 863.16669 2943.9934 4210476
-1992.8593 858.58099 2928.353 4934198
-1977.5156 859.45483 2931.3333 6907989
-1963.7579 861.03931 2936.7378 4472368
-1958.4425 866.38708 2954.9773 3814182
-1964.2869 876.81281 2990.5359 5130558
-1931.179 869.88257 2966.8992 6512472
-1959.3176 890.6665 3037.7866 6315864
-1927.0792 884.13507 3015.51 7829360
-1918.7911 888.57269 3030.6455 6119256
-1920.431 897.73511 3061.8955 7566964
-1890.4917 892.16919 3042.9119 7237486
-1853.1046 882.94763 3011.46 8027772
-1822.8132 876.96027 2991.0391 7171951
-1840.0101 893.92657 3048.9058 9343118
-1835.0078 900.33752 3070.7715 8817031
-1759.0243 871.70135 2973.1023 7040362
-1783.6205 892.83331 3045.177 8882823
-1774.2635 897.22736 3060.1638 8882567
-1761.5942 900.01996 3069.6885 7962237
-1743.4077 900.02264 3069.6975 8028031
-1767.8796 922.2796 3145.6091 9278357
-1745.2025 920.15192 3138.3523 10002852
-1757.1333 936.42181 3193.8438 9805988
-1725.6431 929.65375 3170.7603 10595761
-1734.9536 944.95935 3222.9626 10398638
-1737.2565 956.7464 3263.1648 9346205
-1725.5198 960.97986 3277.6038 10201514
-1711.3224 963.92365 3287.644 10003878
-1705.8311 971.89557 3314.8337 7897989
-1674.4647 965.13922 3291.79 9871779
-1675.4816 977.10883 3332.6147 9345435
-1669.5959 985.29053 3360.52 10332073
-1642.9766 981.28638 3346.863 10266280
-1652.3992 998.97388 3407.1897 10201002
-1682.9167 1030.0099 3513.0439 10135723
-1585.8262 982.74414 3351.835 10069930
-1561.6384 980.03058 3342.5798 9938854
-1525.2842 969.51373 3306.7102 10005162
-1547.9254 996.71057 3399.47 10268076
0 0 0 0
0 0 0 0
0 0 0 0
0 0 0 0
-1444.1472 994.61108 3392.3096 7173740
-1432.1694 1000.2866 3411.6665 7042154
-1424.266 1009.0109 3441.4226 8555652
-1399.7053 1006.0165 3431.21 6450020
-1384.3541 1009.6507 3443.605 5659733
-1341.9066 993.33575 3387.9597 2895657
-1309.4038 983.99854 3356.1133 7698289
-1281.645 977.99335 3335.6313 2895396
-1286.7346 997.25854 3401.3389 4934726
-1266.3131 997.05029 3400.6287 2894887
-1225.8514 980.80127 3345.2083 3092522
-1203.528 978.76892 3338.2766 723461
-1212.3772 1002.4434 3419.0232 986634
-1192.3179 1002.6138 3419.604 657670
-1157.0968 989.82013 3375.969 1907735
-1125.6567 979.86743 3342.0234 1644564
-1105.8063 979.8277 3341.8879 328961
-1068.1801 963.7486 3287.0469 2565665
-1040.5907 956.2959 3261.6282 394756
-1036.4341 970.50317 3310.0847 920841
-1010.7161 964.67938 3290.2217 854793
-1004.4011 977.51001 3333.9829 1117704
-994.59283 987.38757 3367.6724 789510
-961.42419 974.0036 3322.0237 2631455
-964.02972 997.05994 3400.6616 592129
-928.11621 980.41144 3343.8789 789253
-897.46722 968.71899 3303.9995 3552557
-882.21802 973.49811 3320.2996 986889
-883.76636 997.45361 3402.0044 789509
-869.56805 1004.3405 3425.4934 2302489
-845.88019 1000.3342 3411.8293 65536
-815.72925 988.30145 3370.7891 4276023
-785.23578 975.23901 3326.2373 2236443
-771.27997 982.57214 3351.2483 196864
-748.45728 978.6983 3338.0359 1776143
-734.85382 986.99677 3366.3394 4868407
-707.2951 976.4917 3330.5098 8552555
-682.82153 969.76508 3307.5674 7104851
-646.79004 945.74078 3225.6279 6380614
-641.22852 966.16351 3295.2834 4867121
-618.42163 961.06879 3277.907 1380615
-599.3335 961.61023 3279.7537 5722175
-577.23322 957.19299 3264.688 6117442
-555.09015 952.39606 3248.3271 5065010
-528.75439 939.80243 3205.374 6840909
-524.2959 966.60364 3296.7847 1380614
-503.88953 964.93958 3291.1091 4340520
-487.80453 971.75024 3314.3381 1709063
-468.46216 972.37103 3316.4556 7367254
-448.54218 971.7948 3314.49 3222294
-427.42993 968.46448 3303.1313 4801067
-406.79013 965.93616 3294.5083 3878938
-386.89166 965.00195 3291.322 6380094
-370.29813 972.64966 3317.4058 6709068
-350.53943 972.37494 3316.4688 4274468
-333.20288 979.18555 3339.6978 2695184
-314.90048 983.83875 3355.5681 6380352
-293.42026 978.52148 3337.4329 4735269
-271.2883 970.10529 3308.7275 7235402
-253.99666 979.03461 3339.1829 4537636
-229.664 960.03998 3274.3982 6116922
-211.0728 963.75476 3287.0681 8485470
-190.61302 958.82556 3270.2561 6906697
-167.38998 937.30756 3196.865 6906960
-149.62585 944.76581 3222.3025 6641722
-133.82602 968.6236 3303.6743 1774853
-113.13107 959.15625 3271.3838 7761740
-92.153961 942.88593 3215.8909 4603679
-73.207695 944.32788 3220.8091 3946018
-55.304989 964.99567 3291.3003 4734752
-35.30188 951.5675 3245.5012 3879187
-16.034939 949.58911 3238.7534 9274726
3.2078989 964.40851 3289.2979 8748380
22.628765 961.3407 3278.8342 9736050
41.148281 940.50568 3207.7727 4209182
61.099121 955.21545 3257.9431 1314562
79.079529 939.45258 3204.1809 2037260
100.47479 962.50684 3282.8118 1379845
119.70872 960.73547 3276.7703 1906186
139.02606 960.03461 3274.3799 1116929
159.26781 965.10699 3291.6799 1577219
180.67456 975.36163 3326.6555 11577234
199.0197 968.69666 3303.9233 4603944
219.93265 974.60455 3324.0732 6906444
238.44415 969.77417 3307.5984 7562317
257.60095 968.10278 3301.8977 7957068
277.65958 969.81732 3307.7456 11182976
291.47336 950.93195 3243.3335 8353622
314.72934 963.28265 3285.4578 7958606
335.51892 967.08521 3298.4272 4734754
353.29395 962.25842 3281.9646 6050608
369.17706 953.05127 3250.562 9998447
393.31778 965.0177 3291.3755 10722688
406.49536 950.22571 3240.9246 9670514
431.83325 963.91199 3287.6045 9407603
451.7562 964.85156 3290.8091 6841681
474.95172 972.41364 3316.6008 6513233
486.1196 955.72784 3259.6907 6184273
501.76053 948.77563 3235.979 7368809
529.29565 963.99805 3287.8977 6250587
567.86829 997.52802 3402.2581 4802886
680.61981 1154.5948 3937.9644 3420978
711.54449 1167.0396 3980.4092 2763306
619.59418 983.61871 3354.8179 3750455
0 0 0 0
655.77228 978.27124 3336.5793 7894634
668.95746 968.73083 3304.04 7894374
688.91974 969.26819 3305.8726 6709321
714.87805 977.97845 3335.5806 6512184
725.85876 966.28137 3295.6855 8024394
713.84753 925.39191 3156.2244 6905659
747.53015 944.31293 3220.7581 8222034
769.43542 947.78467 3232.5989 8617055
794.65594 955.07214 3257.4543 6643528
817.53314 959.2644 3271.7527 7235924
847.81927 971.75433 3314.3521 7302234
873.82709 978.88599 3338.6758 6381134
939.84906 1029.5343 3511.4219 6184272
949.6864 1017.7756 3471.3164 4868674
1098.9591 1152.7795 3931.7727 3552560
1174.8334 1206.7831 4115.9619 6381661
1180.2791 1187.7173 4050.9346 4670791
1289.8036 1272.0585 4338.5962 4342084
1308.422 1265.1998 4315.2036 6710631
1301.4872 1234.3687 4210.0479 7237231
1325.4229 1233.425 4206.8296 4144706
1360.3273 1242.5352 4237.9014 3091760
1378.895 1236.6635 4217.875 3749691
1395.0011 1228.8325 4191.166 6579304
1428.8748 1236.653 4217.8389 6974058
1446.9808 1230.7925 4197.8511 8355708
1460.2325 1221.071 4164.6938 5263694
1526.9581 1255.645 4282.6152 5920336
1505.635 1217.8685 4153.771 2038810
1538.8033 1224.6748 4176.9854 788487
1552.7859 1216.2382 4148.2104 2695971
1595.4231 1230.1588 4195.6895 5788756
1635.8735 1241.9919 4236.0488 854795
1699.4926 1270.7917 4334.2759 9605264
1725.8636 1271.2964 4335.9971 6710118
1754.0526 1273.1058 4342.1685 6316130
1795.0963 1284.058 4379.5229 10527138
1798.7175 1268.3108 4325.814 9013643
1839.0558 1278.5322 4360.6763 7500403
1873.4373 1284.3865 4380.6431 8092539
1877.5673 1269.6244 4330.2944 8487297
1944.3915 1297.0831 4423.9478 6316130
2020.5574 1329.9601 4536.0806 6315874
2044.1904 1327.8497 4528.8828 5986905
2077.8503 1332.223 4543.7988 6118491
2114.8003 1338.5667 4565.4351 5723476
2184.9192 1365.4791 4657.2251 6446942
2208.1929 1362.8093 4648.1191 2564900
2191.9966 1336.1462 4557.1797 854282
2221.2625 1337.5065 4561.8188 3551796
2258.458 1343.5513 4582.436 4473155
2276.1331 1337.9778 4563.4268 5000013
2313.9143 1344.2156 4584.7017 5526871
2362.7527 1356.6571 4627.1362 3684412
2388.2583 1355.5698 4623.4277 6973805
2474.1736 1388.4066 4735.4233 6973804
2468.499 1369.6866 4671.5757 13355724
2451.2471 1345.0294 4587.4775 10658209
2503.1594 1358.4479 4633.2437 3945525
2498.469 1341.1907 4574.3848 5524556
2544.4954 1351.2368 4608.6489 8221039
2569.438 1349.9921 4604.4033 65536
2608.2478 1355.9825 4624.8354 6973797
2622.6008 1349.2664 4601.9282 2105118
2584.968 1316.218 4489.2104 3486770
2652.1528 1336.6704 4558.9678 5986651
2716.5068 1355.2982 4622.501 4407362
2689.7974 1328.5748 4531.356 6447202
2715.8965 1328.2058 4530.0972 6381410
2669.2664 1292.6239 4408.7383 4341829
2914.9812 1397.9312 4767.9087 2499625
2891.4934 1373.3549 4684.0869 5789275
2937.8633 1382.1102 4713.9487 3025710
2940.877 1370.4961 4674.3364 4670022
2963.7786 1368.2804 4666.7793 5525586
3035.2151 1388.3054 4735.0786 5131598
3072.5027 1392.4869 4749.3403 4736583
3140.7959 1410.5171 4810.8354 3354674
3173.0601 1412.1879 4816.5342 3683895
3206.531 1414.3612 4823.9468 4078397
3194.9871 1396.816 4764.1055 3880761
3220.7803 1395.7585 4760.499 1446932
3241.7554 1392.6498 4749.896 4867398
3355.1018 1428.9354 4873.6548 6051416
3433.8999 1450.0131 4945.5439 4472387
3439.6165 1440.1355 4911.8545 4669765
3468.1648 1439.9027 4911.061 5130318
3474.8533 1430.6737 4879.5835 4933969
3502.696 1430.2349 4878.0869 8947341
3786.915 1533.631 5230.7388 4735821
3759.4851 1510.1608 5150.689 1906973
3793.7122 1511.6361 5155.7212 524288
3841.3223 1518.3781 5178.7158 656646
3820.9324 1498.3474 5110.3975 3414811
3815.2683 1484.3611 5062.6943 8149334
3826.0022 1476.9229 5037.3247 10253930
3795.1533 1453.6722 4958.0244 10253414
3940.9106 1497.9055 5108.8901 10385504
3879.8606 1463.4578 4991.3994 10780259
3883.6338 1453.797 4958.4502 12820604
3895.2629 1447.2003 4935.9507 13346175
3882.8057 1431.8198 4883.4927 12622451
3918.4795 1434.2845 4891.8989 8016183
3967.5542 1441.5819 4916.7881 2885382
3994.366 1440.7429 4913.9263 3215637
4094.8193 1466.2858 5001.0454 10647402
4182.6045 1486.958 5071.5518 9397846
4275.6606 1509.1957 5147.3975 9727070
4356.6636 1526.8939 5207.7607 9595230
4193.4307 1459.3473 4977.3804 8872020
4208.0952 1454.2216 4959.8979 8411473
4269.0234 1465.0437 4996.8091 7095098
4408.562 1502.5084 5124.5894 4069648
4371.8647 1479.8073 5047.1631 1509125
4344.3511 1460.5022 4981.3193 1441792
4555.8086 1521.2539 5188.5244 3283477
4614.2661 1530.4443 5219.8701 9596771
4567.2412 1504.7594 5132.2666 10517871
4380.354 1433.639 4889.6973 12096644
4148.2275 1348.7441 4600.1475 13281176
4014.3442 1296.692 4422.6138 13940133
4037.3708 1295.6708 4419.1304 6371374
4284.252 1366.0387 4659.1338 9332061
4695.1411 1487.4648 5073.2803 8542800
4848 1526.1195 5205.1196 9003356
4940.9722 1545.5525 5271.3994 8872027
4852.1919 1508.2458 5144.1582 8279631
4911.0151 1516.9994 5174.0137 7358270
5004.2129 1536.1967 5239.4893 8739407
0 0 0 0
0 0 0 0
0 0 0 0
0 0 0 0
0 0 0 0
0 0 0 0
0 0 0 0
0 0 0 0
-2337.7244 787.49902 2632.7009 4932386
-2360.8311 800.6261 2676.5867 6181938
-2379.5579 812.43561 2716.0669 5655593
-2387.8879 820.83203 2744.1372 6576694
-2323.9431 804.3288 2688.9651 7103038
-2320.3689 808.63672 2703.3667 6181937
-2319.5728 813.97925 2721.2275 5063455
-2287.449 808.32623 2702.3289 5787690
-2271.8833 808.48596 2702.8628 6576952
-2274.3555 815.11255 2725.0164 6379316
-2219.8555 801.26947 2678.7375 4931871
-2257.7996 820.83563 2744.1494 4865824
-2236.9312 819.14905 2738.511 2498056
-2217.5237 817.97662 2734.5911 3944725
-2190.6404 814.00897 2721.3269 4931108
-2177.1133 814.98236 2724.5811 4930846
-2166.7844 817.17639 2731.916 4009490
-2174.3271 826.19421 2762.0637 4207379
-2160.1108 827.01825 2764.8184 4535832
-2152.4194 830.37213 2776.0308 4470038
-2152.9819 836.98633 2798.1428 5194531
-2145.8398 840.68481 2810.5073 6050353
-2118.5757 836.49609 2796.5042 6840126
-2105.3271 837.81897 2800.9265 5787440
-2091.47 838.9187 2804.603 6642497
-2076.2993 839.50507 2806.5632 4472099
-2065.321 841.80963 2814.2676 5327410
-2022.0214 830.87036 2777.6965 5984828
-2026.7791 839.66101 2807.0847 5985600
-2022.9181 844.99701 2824.9236 6380357
-2022.5374 851.88794 2847.9609 4472617
-2032.4991 863.28778 2886.0718 3156500
-2012.7164 862.14014 2882.2351 5919806
-2020.1393 872.72601 2917.625 7565404
-1971.6805 859.14471 2872.2209 7894627
-1976.6069 868.79156 2904.4714 8420974
-1954.9729 866.83112 2897.9175 6183498
-1921.5798 859.57574 2873.6619 4275757
-1937.0247 874.23248 2922.6611 6315339
-1906.6007 868.26508 2902.7114 6381134
-1924.267 884.28864 2956.28 3485732
-1923.088 891.86694 2981.6152 3682598
-1894.7708 886.88312 2964.9536 4077356
-1855.4939 876.62805 2930.6699 5655876
-1835.7584 875.4989 2926.895 7301726
-1853.9314 892.59967 2984.0649 7104858
-1823.0874 886.20276 2962.6792 6446155
-1794.8816 880.97632 2945.2065 9077616
-1771.3639 877.97083 2935.1587 6248513
-1763.7283 882.85565 2951.4895 7695708
-1737.0341 878.20276 2935.9343 6314311
-1728.9357 882.95251 2951.8132 8090722
-1723.8226 889.33948 2973.1658 5130550
-1704.153 888.27094 2969.5935 5854532
-1694.147 892.26965 2982.9617 6644822
-1691.4407 900.23798 3009.6006 8948097
-1703.2024 916.15839 3062.8245 8488319
-1676.3929 911.45087 3047.0864 7830907
-1692.8173 930.40277 3110.4451 9542043
-1681.6304 934.42926 3123.9062 9476764
-1698.0792 954.07275 3189.5764 10069415
-1677.3158 953.01508 3186.0408 10070186
-1664.4218 956.45563 3197.5427 10135980
-1679.1075 976.00647 3262.9036 10070189
-1621.0189 953.21899 3186.7224 10135981
-1658.1915 986.57153 3298.2239 10530482
-1668.5359 1004.5675 3358.3862 10530482
-1659.4745 1011.1734 3380.4705 10464688
-1687.3966 1040.7513 3479.353 10267566
-1621.2463 1012.3215 3384.3088 10267566
-1587.0581 1003.3867 3354.4387 10267566
-1592.6189 1019.6745 3408.8909 10135980
-1536.4237 996.33374 3330.8599 9939111
-1501.8135 986.56488 3298.2014 7964810
0 0 0 0
0 0 0 0
0 0 0 0
0 0 0 0
-1421.9103 999.09009 3340.0747 9674652
-1391.5988 991.59576 3315.0203 7107955
-1381.4246 998.44128 3337.9058 5331798
-1366.7931 1002.2174 3350.5295 6515816
-1384.5198 1030.1815 3444.0171 9213586
-1348.5215 1018.4092 3404.6606 9674909
-1309.1553 1003.6971 3355.4763 9740190
-1291.5188 1005.4478 3361.3291 7634558
-1251.7998 989.79272 3308.9924 5594461
-1231.0729 988.89532 3305.9924 6909550
-1220.9242 996.60358 3331.7622 5923422
-1204.6667 999.49695 3341.4351 6844782
-1185.1361 999.72595 3342.2004 5791836
-1167.962 1001.9845 3349.751 2830125
-1152.8502 1006.1207 3363.5789 2106145
-1130.267 1003.7674 3355.7114 197635
-1098.942 993.42725 3321.1431 263429
-1062.0883 977.62103 3268.301 855050
-1027.2966 963.16089 3219.9592 1184013
-1035.3944 989.12628 3306.7646 855047
-1030.1057 1003.0585 3353.3416 4210488
-1014.2797 1007.0762 3366.7734 855304
-997.79059 1010.5839 3378.4998 3355180
-967.05597 999.51141 3341.4832 0
-970.47437 1024.0132 3423.3955 1776404
-938.85382 1011.7999 3382.5652 3355438
-911.69135 1003.963 3356.3652 1907736
-901.68945 1015.0953 3393.582 4934213
-895.10754 1030.6736 3445.6619 1644562
-869.25714 1024.2743 3424.2686 1315339
-842.13794 1016.0385 3396.7354 722946
-812.62561 1004.4412 3357.9641 3815727
-783.58142 992.8548 3319.2295 5789516
-761.21466 989.35046 3307.5142 131072
-748.36737 998.36035 3337.635 1249283
-738.78497 1012.3331 3384.3479 3223068
-720.53418 1014.8763 3392.8499 3223322
-686.81903 995.15851 3326.9312 7828831
-656.39838 979.18988 3273.5461 5263678
-637.1925 979.48798 3274.5425 2828317
-622.90546 987.60333 3301.6731 197120
-603.97333 988.64154 3305.144 5788487
-585.50128 990.52783 3311.4502 3551009
-564.26733 987.71039 3302.031 5656380
-535.66052 971.32104 3247.2397 3617560
-522.3515 982.48376 3284.5579 8026212
-506.34506 989.24084 3307.1475 2170635
-486.59842 988.94043 3306.1433 3353886
-465.30417 985.33759 3294.0986 2959131
-451.84363 998.73462 3338.8862 393986
-427.26358 987.65491 3301.8457 1117701
-406.27603 984.21466 3290.3445 5459000
-386.55807 983.65826 3288.4841 7038289
-367.43042 984.62457 3291.7148 2893588
-348.89517 987.37585 3300.9126 262144
-327.66232 982.36615 3284.1646 4669232
-312.46573 995.96393 3329.6235 3682591
-291.82416 992.86951 3319.2786 1971976
-272.96173 995.81848 3329.1372 3682590
-251.89497 990.55847 3311.5525 2695438
-230.91342 984.77313 3292.2114 1643529
-208.28116 970.23047 3243.5935 5327407
-189.40541 972.00842 3249.5376 4932391
-165.02509 942.74292 3151.6995 4866080
-149.4205 962.53906 3217.8804 4011030
-130.88228 966.46466 3231.0039 5721642
-112.63163 974.22296 3256.9412 7563595
-92.285637 963.31836 3220.4858 6445113
-73.364449 965.47791 3227.7053 5918770
-54.834297 976.1217 3263.2886 4011542
-35.591629 978.76923 3272.1396 6775104
-15.95227 963.78802 3222.0559 6775106
3.1404333 963.20898 3220.1201 9538672
22.172611 961.0011 3212.739 8288352
41.394524 965.25763 3226.969 1315336
59.542522 949.69519 3174.9419 328192
76.679573 929.35382 3106.9385 3222824
98.407631 961.75873 3215.2717 854533
116.69592 955.48596 3194.301 1314314
139.26793 981.14331 3280.0764 196608
159.49948 986.04639 3296.4683 3287578
182.42929 1004.7404 3358.9644 8420199
197.02821 978.38715 3270.8625 4799773
217.65703 984.01575 3289.6794 3417352
239.95001 995.62402 3328.4871 8880228
255.07629 977.99072 3269.5371 9406058
275.12305 980.38104 3277.5283 10590855
294.66956 980.79108 3278.8989 7498840
309.63797 966.85504 3232.3091 6906441
325.81659 958.10162 3203.0454 6116660
344.52676 957.3465 3200.521 7563590
364.20905 959.23041 3206.8191 7958609
393.80548 985.74384 3295.4565 7629901
409.76996 977.24152 3267.0325 10064760
428.11053 974.91754 3259.2629 9143660
447.55807 975.20605 3260.2278 8683884
467.42499 976.3468 3264.0413 9736831
477.2915 957.33838 3200.4939 6316115
495.07211 955.04999 3192.8435 6118998
513.94904 954.96722 3192.5669 7763570
559.86072 1003.34 3354.2825 15395559
554.87433 960.3075 3210.4199 8685435
0 0 0 0
0 0 0 0
638.77325 1002.398 3351.1335 7038800
649.64056 988.71246 3305.3811 5919799
670.13159 990.04608 3309.8394 5721903
689.25317 989.33807 3307.4724 6247472
711.04529 992.39655 3317.6973 6510121
711.90228 966.8576 3232.3179 8089407
718.43463 950.16302 3176.5059 8089666
743.16748 957.77747 3201.9617 7300669
764.04431 960.16675 3209.9495 6643003
776.8335 952.52319 3184.3962 8156761
821.68909 983.62854 3288.3848 8551265
865.1189 1011.6251 3381.9807 8090717
890.41522 1017.6297 3402.0549 8157026
901.08795 1007.0257 3366.6042 8552300
911.94873 997.08661 3333.3767 7763044
929.82111 995.07251 3326.6436 8421236
1083.5134 1135.4757 3796.0278 5789523
1177.725 1209.1018 4042.1685 3354928
1229.2778 1236.8704 4135.002 7236974
1275.8762 1258.6659 4207.8667 4670790
1290.7136 1248.8937 4175.1973 3355445
1313.4307 1246.9701 4168.7666 6184035
1333.6322 1242.7734 4154.7368 8289667
1355.7861 1240.5155 4147.188 6315872
1370.0732 1231.2679 4116.2725 5789015
1402.8162 1238.6399 4140.9175 6512737
1418.9365 1231.3334 4116.4912 5724758
1432.0135 1221.6776 4084.2109 7303534
1462.9677 1227.3407 4103.1431 3484971
1509.6578 1245.8043 4164.8691 3354928
1536.6367 1247.6693 4171.104 197121
1550.1934 1238.7496 4141.2847 2894892
1583.5493 1245.6829 4164.4634 4670278
1614.1488 1250.2684 4179.793 986382
1646.8396 1256.3107 4199.9932 2697514
1715.0327 1288.853 4308.7861 3947579
1712.375 1267.9772 4238.9956 8026744
1737.9326 1268.2955 4240.0601 3552822
1779.9191 1280.4235 4280.605 6908265
1800.3405 1276.915 4268.876 7631989
1810.0833 1266.035 4232.5029 5658198
1867.4965 1288.3391 4307.0679 8027003
1891.7158 1287.4508 4304.0981 6842474
1919.7542 1289.1505 4309.7808 12303552
1917.4802 1270.7178 4248.1577 8027264
1970.407 1288.8702 4308.8438 7829115
2008.0037 1296.6589 4334.8823 2499879
2019.5177 1287.621 4304.667 3354931
2079.2844 1309.1898 4376.7744 5130574
2107.991 1310.9119 4382.5312 2762795
2125.0005 1305.4061 4364.125 2565673
2164.5293 1313.7004 4391.854 2959917
2227.7913 1336.0305 4466.5059 2696744
2281.5745 1352.2186 4520.6245 2170659
2315.8599 1356.6093 4535.3027 3486266
2308.3804 1336.7144 4468.792 5591641
2348.6052 1344.5814 4495.0928 4605003
2421.7825 1370.926 4583.1655 7038831
2423.8188 1356.8612 4536.1455 5855068
2392.0955 1324.4136 4427.6689 6643298
2412.7112 1321.3337 4417.373 3024169
2472.7844 1339.6973 4478.7642 3484721
2486.2109 1332.667 4455.2612 3420211
2551.2693 1353.1696 4523.8037 7697267
2552.7249 1339.8622 4479.3154 6710884
2598.9062 1350.0625 4513.4165 8487549
2601.3708 1337.5767 4471.6748 5723478
2591.1289 1318.8752 4409.1538 7565682
2602.0105 1311.1915 4383.4663 4671046
2646.0837 1320.2201 4413.6499 5986907
2749.405 1358.3436 4541.1011 5921368
2803.5701 1371.6776 4585.6782 6512994
2773.6086 1343.991 4493.1187 9078922
2821.1311 1354.0199 4526.6465 4144705
2872.2104 1365.5508 4565.1958 4933707
2881.0076 1356.9517 4536.4478 5196880
2966.583 1384.3397 4628.0093 4078138
3010.4099 1391.9229 4653.3604 4670276
3061.8909 1402.875 4689.9746 4801862
3098.8418 1407.0328 4703.875 3947067
3099.2698 1394.681 4662.5815 4736583
3212.1887 1432.7214 4789.7549 5986652
3189.0671 1409.9495 4713.6255 4868171
3191.8552 1398.9283 4676.7808 5722710
3225.8008 1401.6355 4685.8311 4670022
3286.9653 1416.022 4733.9268 4472644
3324.3223 1419.9957 4747.2114 3880765
3352.0791 1419.8365 4746.6792 2827820
3386.1694 1422.3401 4755.0488 2827820
3489.1199 1453.488 4859.1802 4868173
3558.0405 1470.066 4914.6021 9013132
3537.2312 1449.6022 4846.1895 7039599
3549.301 1442.834 4823.562 3947072
3549.5928 1431.4241 4785.418 4209474
3643.2349 1457.5416 4872.7314 7762296
3744.2112 1486.1594 4968.4043 2300961
3765.96 1483.129 4958.2734 1380114
3702.0032 1446.6537 4836.332 1117198
3764.4158 1459.7417 4880.0869 3481889
3864.9607 1487.3041 4972.231 6570560
3881.5073 1482.3699 4955.7354 8806231
3851.4478 1459.8442 4880.4297 8148038
3857.5808 1451.2705 4851.7666 7687742
3754.2568 1401.9493 4686.8804 7226934
3864.2087 1432.411 4788.7173 7819328
3955.8274 1455.6823 4866.5156 7029814
4022.4409 1469.4818 4912.6489 6306096
4091.0369 1483.8019 4960.5229 9529438
4161.4956 1498.5885 5009.9561 11437436
4300.0674 1537.5199 5140.1084 11108470
4343.8848 1542.2618 5155.9614 10647919
4361.8237 1537.8137 5141.0908 10056039
4381.9434 1534.1909 5128.979 9529696
4396.3252 1528.623 5110.3652 8740438
4486.748 1549.3901 5179.792 8740694
4541.0645 1557.4911 5206.8745 9004123
4606.0991 1569.1344 5245.7993 8740695
4366.0933 1477.4015 4939.1255 8150098
4316.4248 1450.8679 4850.4209 8675926
4201.0498 1402.746 4689.5435 8019281
4107.0669 1362.3523 4554.5029 14005413
4094.1406 1349.1979 4510.5259 13807521
4086.8782 1338.0684 4473.3188 8411991
4158.4062 1352.7128 4522.2764 9267811
4417.1831 1427.6906 4772.936 11043443
4597.4512 1476.501 4936.1147 10977908
4638.4053 1480.2351 4948.5986 11635324
4666.4897 1479.8414 4947.2822 11174778
4874.6987 1536.2168 5135.752 11634821
4966.3833 1555.3992 5199.8809 11634822
0 0 0 0
0 0 0 0
0 0 0 0
0 0 0 0
0 0 0 0
0 0 0 0
0 0 0 0
0 0 0 0
0 0 0 0
-2339.2837 809.03601 2652.1572 4601621
-2300.2285 800.9101 2625.519 5851686
-2342.3599 821.13409 2691.8167 5390879
-2297.6396 810.98004 2658.53 5193499
-2283.7566 811.64539 2660.7112 5786147
-2253.2239 806.36151 2643.3896 6313776
-2250.0125 810.84961 2658.1023 7169082
-2227.6809 808.46185 2650.2751 6971964
-2210.9702 808.09473 2649.0715 7563845
-2202.7524 810.84857 2658.0991 7695951
-2233.9817 828.26746 2715.2012 1642753
-2192.5684 818.81079 2684.2007 3813140
-2185.8557 822.26965 2695.5393 3483924
-2169.5579 822.14709 2695.1375 3418131
-2151.3772 821.30389 2692.3733 4800039
-2144.2729 824.70825 2703.5332 4668451
-2149.8762 833.08789 2731.0034 6444604
-2148.4319 838.84314 2749.8701 5129000
-2122.6851 835.125 2737.6814 6444857
-2098.0334 831.78381 2726.7285 6247476
-2102.9592 840.20807 2754.3445 7563338
-2101.9707 846.38263 2774.5857 6181941
-2060.3865 836.17932 2741.1375 5458477
-2036.809 833.17963 2731.3042 6379325
-2044.4969 843.02393 2763.5754 5919545
-2010.7861 835.81903 2739.9565 5524790
-2015.1606 844.4566 2768.272 6314562
-2021.6377 854.12421 2799.9639 6446150
-1969.0045 838.77161 2749.6355 6774857
-1994.1659 856.57886 2808.0107 6512200
-1974.0422 855.07025 2803.0652 5919807
-1932.6637 844.25122 2767.5986 7235924
-1925.0565 848.12573 2780.2998 7367509
-1940.6931 862.39606 2827.0806 6907729
-1925.3721 863.03833 2829.1858 7105110
-1921.7185 868.96771 2848.6233 7368285
-1901.2117 867.3139 2843.2019 6183756
-1882.7572 866.57507 2840.78 6841941
-1858.0803 862.93323 2828.8413 6709841
-1844.9459 864.63434 2834.418 6249544
-1858.7977 879.13013 2881.9375 5986121
-1822.0956 869.76306 2851.231 6314826
-1800.4482 867.47437 2843.728 6973010
-1796.0514 873.53223 2863.5869 6182724
-1821.3896 894.30585 2931.6863 6906699
-1774.7502 879.7981 2884.1272 6511427
-1773.0372 887.49597 2909.3623 5722166
-1738.814 878.91223 2881.2234 7235403
-1709.0823 872.45117 2860.0427 5458991
-1718.6161 886.10565 2904.8044 5590578
-1691.8356 881.12347 2888.4722 5130029
-1686.3514 887.24432 2908.5371 6051131
-1666.0444 885.61218 2903.187 5853751
-1645.9645 884.06805 2898.1248 4998701
-1638.1683 889.15857 2914.8125 5393461
-1603.697 879.72461 2883.8865 4538413
-1622.1169 899.41406 2948.4319 8157812
-1626.8333 911.85144 2989.2036 7566451
-1597.4945 905.26434 2967.6099 9541017
-1623.8672 930.45251 3050.1809 10660781
-1586.5311 919.29242 3013.5964 9674399
-1579.349 925.54962 3034.1084 9477021
-1625.4297 963.52405 3158.595 10201258
-1595.5588 956.83612 3136.6709 10003624
0 0 0 0
-1665.8365 1022.8126 3352.9531 9805989
-1648.6331 1024.4698 3358.3857 10069674
-1683.0371 1058.6287 3470.3643 10201516
-1589.3459 1012.064 3317.7173 10136237
-1587.0531 1023.2625 3354.428 10464945
-1575.5907 1028.7581 3372.4434 10334129
-1567.3608 1036.5326 3397.9294 10530995
-1550.4449 1038.6903 3405.0032 5332063
0 0 0 0
0 0 0 0
0 0 0 0
0 0 0 0
0 0 0 0
-1382.043 1004.2973 3292.2568 6054757
-1375.5814 1013.9155 3323.7871 10068646
-1364.8042 1020.5861 3345.6541 10003623
-1333.157 1011.6167 3316.251 10004137
-1322.4707 1018.5225 3338.8892 9872551
-1292.5298 1010.5834 3312.8638 10069931
-1278.7826 1015.2562 3328.1819 10201770
-1262.6085 1018.1182 3337.5642 9938855
-1236.7633 1013.1489 3321.2739 9807268
-1221.5537 1016.8724 3333.48 9609890
-1193.3483 1009.7223 3310.0408 9806755
-1170.5208 1006.9595 3300.9839 9477792
-1155.6954 1011.1038 3314.5696 8951449
-1148.9495 1022.5822 3352.1978 8162446
-1120.8719 1015.1451 3327.8179 9675687
-1095.204 1009.6631 3309.8467 9544102
-1089.5801 1022.7964 3352.9001 8227727
-1064.2466 1017.5725 3335.7751 8029833
-1035.4744 1008.8008 3307.0198 5726046
-1018.8731 1011.7767 3316.7756 1645853
-992.82953 1005.3087 3295.5725 1053973
-963.83514 995.53339 3263.5271 1908510
-924.99487 974.97968 3196.1487 2105374
-945.8551 1017.8088 3336.5498 3684403
-925.65979 1017.3448 3335.0288 3158315
-904.81769 1016.1342 3331.0601 1381905
-887.06451 1018.4158 3338.5398 131585
-889.73279 1044.7817 3424.9717 1776149
-855.55841 1028.1058 3370.3052 131585
-845.1543 1039.8796 3408.9016 1052681
-818.67841 1031.9709 3382.9756 4013110
-789.5166 1020.1946 3344.3708 855560
-760.26257 1007.6896 3303.3772 657410
-745.16772 1013.7868 3323.365 788996
-731.5155 1022.231 3351.0466 3946284
-712.52118 1023.473 3355.1182 3091231
-684.59644 1011.5905 3316.165 3617830
-662.7475 1008.2487 3305.2102 1446407
-641.18982 1005.1599 3295.0847 2433046
-623.95935 1008.8738 3307.2593 394499
-602.28589 1005.4118 3295.9102 5196609
-585.01904 1009.3203 3308.7229 3156766
-552.75476 986.72772 3234.6606 6314571
-532.73297 985.15118 3229.4927 4472617
-521.41162 1000.146 3278.6482 4209196
-496.63779 989.4989 3243.7451 525312
-479.98743 994.8313 3261.2256 2301716
-463.57098 1001.1163 3281.8289 1972241
-446.92639 1007.4374 3302.5503 1248259
-421.35822 993.30121 3256.2097 854275
-409.12552 1010.7537 3313.4221 5985352
-385.02115 999.15808 3275.4094 3288094
-364.8512 997.08331 3268.6082 2893594
-349.04855 1007.3804 3302.3638 2762008
-324.19034 991.21326 3249.365 1577739
-307.85019 1000.6927 3280.4404 1314307
-288.10123 999.62274 3276.9329 3287581
-271.80374 1011.2394 3315.0142 2235405
-250.88907 1006.1494 3298.3284 2893075
-227.19925 988.12994 3239.2573 5722430
-209.21489 993.88837 3258.1345 3419419
-187.59184 981.77454 3218.4233 4472360
-165.52649 964.34167 3161.2754 3749157
-147.81125 971.03687 3183.2236 3485460
-130.13589 979.99158 3212.5784 4998185
-111.91077 987.16571 3236.0964 7762004
-91.664825 975.79498 3198.8213 7893335
-72.169533 968.56934 3175.1345 7432529
-53.842281 977.45154 3204.252 1971723
-34.919056 979.29852 3210.3064 5458999
-15.804585 973.7832 3192.2266 6380606
3.0983696 969.13501 3176.989 9209961
22.022787 973.41821 3191.03 7631199
40.608871 965.69818 3165.7224 525828
59.306606 964.67328 3162.3625 1380617
77.858841 962.3421 3154.7207 1051913
99.148224 988.19446 3239.469 131072
118.12155 986.32025 3233.325 1314825
137.88518 990.64722 3247.5095 1446410
159.25612 1004.0477 3291.4385 657925
181.37714 1018.7367 3339.5916 2630157
198.44798 1004.9609 3294.4321 7892560
215.47568 993.45392 3256.7102 2103298
233.12701 986.47772 3233.8413 6643525
250.07948 977.82886 3205.4888 11117188
270.07632 981.46442 3217.4067 8945503
287.04819 974.35254 3194.0928 5854791
304.99091 971.21228 3183.7983 6775112
325.77597 976.96173 3202.646 8551517
347.2486 984.02649 3225.8057 5327150
372.36053 1000.1288 3278.592 3616277
381.95364 975.01904 3196.2776 8946277
404.71759 984.31476 3226.7507 8288862
428.24442 994.54352 3260.2822 9012334
446.62549 992.45471 3253.4346 7630945
469.45859 1000.0221 3278.2419 6842203
480.79993 983.48175 3224.0198 6052693
497.07196 977.90582 3205.7412 3618609
517.94287 981.45508 3217.376 7565933
528.43042 965.77527 3165.9751 9342087
0 0 0 0
585.80951 999.65625 3277.0425 6907227
609.73535 1007.0977 3301.437 5920327
628.79773 1006.2933 3298.8 7433047
638.82465 991.51355 3250.3494 8025692
652.42712 982.98627 3222.3955 9078383
687.31122 1006.0961 3298.1536 5261344
696.49402 991.3465 3249.8018 8353609
702.20166 972.57727 3188.2729 7300147
726.27551 979.56305 3211.1736 7366198
763.88196 1003.9782 3291.2107 8748373
776.39508 995.01825 3261.8384 7827276
807.34222 1009.5444 3309.4578 6577725
842.10852 1028.0441 3370.1028 7433037
858.49817 1023.7722 3356.0986 8025179
878.1037 1023.4418 3355.0156 6644042
893.17615 1017.9598 3337.0447 5920066
915.08167 1020.3342 3344.8284 7565405
925.81274 1010.4123 3312.3027 8552815
951.34851 1016.7245 3332.9956 7631460
960.87585 1006.0195 3297.9023 5328970
1118.9496 1148.1663 3763.8838 7039591
1237.7808 1245.2764 4082.2271 5460306
1286.0564 1269.0413 4160.1323 3684152
1306.295 1264.7664 4146.1187 5657944
1321.4066 1255.777 4116.6499 3026224
1326.7566 1238.005 4058.3901 4670791
1364.8469 1250.8719 4100.5703 4012861
1388.025 1249.8611 4097.2563 6973545
1400.6276 1239.5256 4063.3752 5789527
1425.9597 1240.6146 4066.9448 5065805
1432.297 1225.4163 4017.1221 4408132
1473.9862 1240.4658 4066.4575 5066062
1520.9647 1259.4113 4128.5635 3421237
1524.2596 1242.1577 4072.0037 6447718
1564.3333 1254.9469 4113.9287 6447975
1603.8163 1266.8768 4153.0371 5986911
1645.1366 1279.8759 4195.6499 5000016
1684.5167 1291.0006 4232.1187 5460568
1706.7289 1288.8345 4225.0181 4671048
1696.4907 1262.5807 4138.9536 4144704
1718.9274 1261.0463 4133.9233 3617592
1710.9363 1237.546 4056.8857 5591381
1766.2205 1259.8308 4129.939 3815226
1784.4702 1255.4512 4115.5815 2368039
1822.1157 1264.6514 4145.7417 5789531
1873.1019 1282.7428 4205.0483 8355713
1921.496 1298.6072 4257.0547 10855594
1964.0652 1310.175 4294.9756 9145234
1987.65 1308.9447 4290.9429 6381418
2006.1617 1304.4469 4276.1982 8421257
2006.5594 1288.4303 4223.6929 7105134
2047.0179 1298.2146 4255.7676 4210239
2071.7859 1297.931 4254.8379 4078653
2083.4802 1289.5624 4227.4043 2697514
2164.5366 1323.814 4339.6865 7895156
2205.3535 1332.9399 4369.603 4604742
2227.2834 1330.5712 4361.8379 1841436
2251.1875 1329.4225 4358.0723 2762281
2288.1567 1335.9279 4379.3979 4802121
2290.9343 1322.5487 4335.5386 4867916
2338.4377 1334.9999 4376.356 5723482
2353.7825 1329.0201 4356.7534 3815485
2389.7993 1334.7157 4375.4243 4801610
2391.0381 1321.0737 4330.7036 2958116
2428.074 1327.2897 4351.0806 3946042
2487.1208 1345.2806 4410.0581 3419698
2541.8403 1360.5813 4460.2163 4275008
2547.0359 1349.3309 4423.3354 3091247
2535.188 1329.3728 4357.9092 4407105
2576.5835 1337.4546 4384.4028 2762536
2588.5623 1330.2578 4360.8105 7235694
2610.0916 1328.0629 4353.6152 5985877
2682.1228 1351.3557 4429.9731 4472896
2686.8948 1340.6378 4394.8379 4604486
2722.3574 1345.2917 4410.0942 4209215
2817.6794 1379.1562 4521.1079 3617334
2806.5461 1360.7673 4460.8262 2893610
2845.4995 1366.78 4480.5366 4077885
2927.9487 1393.3806 4567.7378 3551796
2962.9985 1397.1437 4580.0737 5591122
3004.4507 1403.8298 4601.9922 6380896
