# .PCD v0.7 - Point Cloud Data file format
VERSION 0.7
FIELDS x y z rgb
SIZE 4 4 4 4
TYPE F F F U
COUNT 1 1 1 1
WIDTH 1394
HEIGHT 1
VIEWPOINT 0 0 0 1 0 0 0
POINTS 1394
DATA ascii
2123.7036 1404.1772 6496.1562 6373434
2182.6169 1417.4355 6557.4932 4596765
2254.4985 1438.5045 6654.9648 8810085
2299.3101 1441.8738 6670.5522 2891545
2354.105 1451.2837 6714.085 3879474
2390.5198 1449.2382 6704.6216 393216
2423.6138 1445.2792 6686.3062 524288
2443.4666 1433.6783 6632.6372 1969420
2462.5095 1421.9771 6578.5039 5914168
2514.4993 1429.3694 6612.7026 9136223
2577.8835 1442.9124 6675.3569 9662308
2610.4929 1439.0811 6657.6318 9990760
2633.4834 1430.14 6616.2681 9201500
2720.4783 1455.7097 6734.5615 9859172
2782.0728 1467.145 6787.4644 9596000
2809.918 1460.7098 6757.6938 9859686
2856.4143 1464.0151 6772.9849 9201756
2802.2778 1416.3656 6552.5435 10517871
2739.0342 1365.4785 6317.124 11767681
2743.8623 1349.4414 6242.9316 12096391
2754.0571 1336.4355 6182.7622 8148558
2946.1187 1410.8651 6527.0962 3346702
2933.9966 1386.8513 6416.001 2951688
2977.9604 1389.6238 6428.8271 3285021
3127.158 1440.8115 6665.6377 5123364
3247.8887 1477.77 6836.6191 8478550
3386.6626 1521.9265 7040.9004 8544342
3419.1614 1517.8302 7021.9502 8478549
3497.9333 1534.1272 7097.3447 8149584
3520.8259 1525.8206 7058.9155 8412756
3527.0125 1510.554 6988.2876 8479062
3569.8513 1511.1571 6991.0781 8347220
3655.8298 1529.7985 7077.3184 8150097
3717.054 1537.7756 7114.2236 8150097
3659.2144 1496.8689 6924.9761 8281681
3771.0718 1525.5172 7057.5122 8150094
3938.7043 1575.8522 7290.3774 8084302
4128.2485 1633.7668 7558.3081 8149838
4060.4651 1589.6927 7354.4082 8084302
4138.7026 1603.1158 7416.5078 8215631
0 0 0 0
0 0 0 0
0 0 0 0
0 0 0 0
0 0 0 0
0 0 0 0
0 0 0 0
0 0 0 0
5593.3315 1977.5532 9148.7705 7360839
5672.1846 1986.1796 9188.6787 5190960
5727.3403 1986.4231 9189.8047 3678497
5585.9429 1919.1332 8878.501 1772556
6429.3628 2188.2903 10123.704 919048
6467.3511 2180.8694 10089.373 197128
6477.9814 2164.4434 10013.381 7
6534.6597 2163.5615 10009.302 9
6620.2227 2172.1729 10049.141 131085
6547.4346 2129.1372 9850.0449 65550
6538.0903 2107.311 9749.0693 15
6511.415 2080.3298 9624.2471 15
6601.0605 2090.6582 9672.0283 15
6293.7461 1976.1672 9142.3584 15
6758.8203 2104.0828 9734.1348 14
6907.3394 2132.1204 9863.8457 13
6883.1924 2106.8372 9746.877 196618
6583.3799 1998.3 9244.751 1709596
6709.0859 2019.649 9343.5186 65546
6852.3887 2045.9025 9464.9746 131085
6731.9102 1993.6124 9223.0645 65549
8614.8242 2530.6785 11707.697 15
8630.9248 2515.1514 11635.864 16
9003.9199 2603.0493 12042.508 16
7472.4658 2143.3152 9915.6357 16
8801.2686 2504.7563 11587.773 16
7640.355 2157.5376 9981.4326 16
7831.9961 2194.6633 10153.188 16
7857.7271 2185.0862 10108.882 15
7968.3428 2199.0806 10173.624 14
8069.1104 2210.1675 10224.915 14
8186.8755 2225.71 10296.819 14
8631.6172 2329.2576 10775.862 14
8671.1045 2322.7288 10745.658 14
8731.8779 2321.9558 10742.082 16
9226.2285 2435.6548 11268.089 14
9483.8535 2485.6753 11499.499 16
9776.5098 2544.0979 11769.779 16
9738.5029 2516.2551 11640.971 16
10059.896 2581.0137 11940.563 16
10152.678 2586.6238 11966.518 16
8467.3154 2142.2759 9910.8281 16
7764.8276 1951.0096 9025.9707 16
8965.4268 2237.2632 10350.268 16
9209.7373 2282.6125 10560.068 14
7084.6479 1744.0627 8068.5713 14
7186.3135 1757.2303 8129.4883 14
9415.1045 2286.8933 10579.872 14
9713.8535 2343.8494 10843.369 14
9753.0674 2337.8459 10815.595 14
9819.0879 2338.3042 10817.716 14
9893.1562 2340.6609 10828.618 14
9885.4355 2323.761 10750.434 14
9945.7207 2322.9612 10746.733 14
9988.4629 2318.1001 10724.245 14
10101.016 2329.3999 10776.521 14
10127.013 2320.7222 10736.375 14
10089.232 2297.6289 10629.539 16
10086.649 2282.7876 10560.879 16
0 0 0 0
0 0 0 0
0 0 0 0
0 0 0 0
0 0 0 0
0 0 0 0
-3310.1897 816.98572 3678.7686 1182722
-3334.6643 828.48273 3730.5378 1248258
-3308.7507 827.53094 3726.2522 2629646
-3290.811 828.57404 3730.949 3483924
-3268.6399 828.55872 3730.8799 4997671
-3250.1272 829.47681 3735.0139 6116148
-3212.8716 825.59113 3717.5176 3220490
-3212.1335 831.1004 3742.3247 3287312
-3127.302 814.77679 3668.8223 3155989
-3104.2163 814.42432 3667.2349 3484955
-3131.3225 827.32819 3725.3391 3090710
-3076.3696 818.58032 3685.9487 5854015
-3030.0889 812.03149 3656.4602 3684131
-3045.6594 822.08307 3701.7214 7236685
-3035.7156 825.34387 3716.4041 5722673
-3028.0935 829.28809 3734.1643 5590830
-3001.7314 828.12042 3728.9065 4867107
-2905.2251 807.44043 3635.7874 4537373
-2862.2051 801.42773 3608.7131 8353625
-2850.3242 804.10925 3620.7876 7762002
-2839.7366 807.19904 3634.7004 7103300
-2868.5564 821.62323 3699.6509 5721906
-2840.7356 819.92163 3691.9883 3878931
-2773.1353 806.6228 3632.1057 2300420
-2761.5928 809.54895 3645.2817 7103560
-2738.0129 808.96478 3642.6514 3418902
-2710.8257 807.297 3635.1418 5327925
-2740.7676 822.7522 3704.7344 4340775
-2682.8101 811.8573 3655.6763 3946273
-2644.2883 806.71448 3632.5188 1577731
-2628.7368 808.55243 3640.7947 7564886
-2635.8503 817.44989 3680.8589 6644037
-2597.199 812.18445 3657.1492 7894104
-2574.3406 811.81067 3655.4661 8025689
-2599.6558 826.75092 3722.7397 8354907
-2543.7617 815.89935 3673.877 7038533
-2479.7148 802.2229 3612.2935 5854253
-2424.3337 791.13623 3562.3718 5919786
-2498.7812 822.59393 3704.0215 6314286
-2398.5181 796.58521 3586.9077 6445098
-2390.6597 801.07483 3607.124 5918495
-2365.0447 799.64172 3600.6711 6509860
-2374.4749 810.13953 3647.9412 7299377
-2357.2866 811.66498 3654.8101 3352324
-2324.2244 807.70221 3636.9663 4404745
-2284.7292 801.40894 3608.6284 6115369
-2275.709 805.78723 3628.3433 6839348
-2291.4431 819.09766 3688.2786 8353104
-2265.0442 817.45868 3680.8984 6972221
-2230.3831 812.77698 3659.8174 6577976
-2185.7834 804.34601 3621.8538 7631180
-2162.3696 803.62134 3618.5908 7236424
-2144.9856 805.14563 3625.4541 8420187
-2129.0312 807.24268 3634.897 4867878
-2107.8496 807.38037 3635.5168 4801314
-2094.4753 810.54236 3649.7549 5853748
-2053.802 803.09552 3616.2229 5656625
-2012.4578 795.2265 3580.79 7038021
-1995.9381 797.10382 3589.2434 6905920
-1965.5962 793.44208 3572.7551 6050610
-1983.6174 809.43573 3644.772 6380343
-1957.0349 807.38 3635.5154 7696469
-1933.5354 806.56464 3631.844 7104590
-1926.2316 812.56293 3658.8533 9342839
0 0 0 0
0 0 0 0
0 0 0 0
0 0 0 0
0 0 0 0
0 0 0 0
0 0 0 0
0 0 0 0
0 0 0 0
0 0 0 0
0 0 0 0
0 0 0 0
0 0 0 0
0 0 0 0
0 0 0 0
0 0 0 0
0 0 0 0
0 0 0 0
0 0 0 0
-549.15405 298.96262 1346.1854 3624298
-541.9137 299.36996 1348.0197 1976371
-531.91638 298.24371 1342.9484 16
-521.13678 296.63797 1335.7179 15
-511.78732 295.8093 1331.9865 12
-503.49713 295.57651 1330.9382 11
-494.73953 295.05756 1328.6014 592402
-486.03958 294.5567 1326.3463 4935512
0 0 0 0
0 0 0 0
-1316.6195 838.60223 3776.1047 2958870
-1307.2371 847.02271 3814.021 1839364
-1267.3495 835.62604 3762.7031 1642757
-1224.6072 821.90503 3700.9194 3944475
-1212.0392 828.30463 3729.7358 2826761
-1193.4375 830.742 3740.7112 3945752
-1127.9241 799.99878 3602.2788 7630160
-1138.8081 823.30072 3707.2043 7695692
-1146.3999 845.09265 3805.3301 8354135
-1079.9288 812.06653 3656.6182 8814426
-1070.4772 821.44232 3698.8359 8682840
-1054.5509 826.13794 3719.9795 8813656
-1026.2699 821.14868 3697.5137 7432515
-1001.327 818.67078 3686.3562 8090445
-989.35114 826.92053 3723.5037 9076828
-974.88293 833.41614 3752.7522 6971455
-966.33484 845.39404 3806.6873 9208676
-951.37158 852.19824 3837.3254 7893332
-929.06238 852.5943 3839.1086 9011813
-916.90424 862.55969 3883.9814 9341548
-897.04272 865.60492 3897.6936 10854530
-872.15051 863.82837 3889.6941 7170122
-841.83337 856.4364 3856.4092 9669999
-824.52869 862.23932 3882.5391 7498573
-790.65741 850.55389 3829.9211 5985334
-765.91138 848.28448 3819.7021 7498576
-752.35925 858.6521 3866.3862 6511683
-734.4668 864.56201 3892.9976 7235922
-720.53107 875.66376 3942.9873 7828321
-691.59448 868.66815 3911.4871 3289379
-676.77765 879.53729 3960.4292 4210743
-713.98566 961.22754 4328.2686 3618610
-741.57391 1035.5726 4663.0337 5329485
-741.42194 1075.4355 4842.5308 5197641
-719.89917 1086.2621 4891.2812 7105889
-533.77454 839.20782 3778.8315 6512976
-544.49701 893.55432 4023.5459 6907216
-511.70056 878.19061 3954.3652 6380355
-494.18576 888.83752 4002.3069 8354397
-464.80429 878.13879 3954.1321 7630417
-445.14316 885.64319 3987.9233 7169870
-420.68488 883.90979 3980.1182 7630681
-401.40256 893.49176 4023.2642 8157284
-373.91159 884.85828 3984.3887 7039062
-347.87 878.72186 3956.7576 8947054
-323.78006 876.98474 3948.9353 6644298
-308.10406 899.5423 4050.5088 5064757
-278.01141 880.2644 3963.7036 7170907
-255.16595 882.4928 3973.7373 7368806
-227.65828 867.4104 3905.8237 6184281
-264.16074 1120.4052 5045.0225 5986903
-254.17697 1215.6481 5473.8877 5000260
-217.07802 1190.1028 5358.8608 6250067
-179.9761 1155.7833 5204.3252 8750200
0 0 0 0
0 0 0 0
0 0 0 0
-40.759842 832.20148 3747.2827 4012842
-18.341541 822.73212 3704.6436 7433820
3.6507409 831.33392 3743.3765 7631200
25.768099 829.18799 3733.7134 7631204
48.978218 847.94342 3818.1667 6841689
0 0 0 0
0 0 0 0
0 0 0 0
0 0 0 0
0 0 0 0
264.3757 1213.4535 5464.0054 8618878
299.10291 1223.0479 5507.2075 6710886
321.68115 1185.964 5340.2241 6776679
365.05399 1225.3213 5517.4443 7171437
385.22046 1186.7178 5343.6187 7631732
430.65591 1225.91 5520.0957 4670792
471.95129 1248.6152 5622.334 3289139
497.72885 1229.9785 5538.4155 4802634
542.76007 1258.2837 5665.8696 5723734
545.5741 1191.1202 5363.4424 5658199
602.60016 1243.1942 5597.9233 3947583
644.33881 1259.9404 5673.3296 2763051
668.922 1243.1437 5597.6963 6974060
714.6944 1265.4523 5698.1484 6447973
752.36493 1272.0497 5727.8555 8421252
806.50385 1304.719 5874.9609 5855326
841.12274 1304.4128 5873.5825 7434358
871.34113 1297.5781 5842.8066 10066329
908.58069 1301.3219 5859.6641 7434612
951.2854 1312.3292 5909.2285 6250337
1000.4203 1331.1107 5993.7993 5526614
1013.1375 1301.8101 5861.8623 3947580
1062.4155 1319.8728 5943.1963 3486516
1092.1176 1313.2368 5913.3154 5723221
1138.6127 1326.5789 5973.3926 4275261
1177.5897 1330.6211 5991.5942 1841435
1226.5302 1345.3553 6057.9409 3617847
1248.8879 1330.9231 5992.9541 3420467
1289.9863 1336.7081 6019.0034 4604481
1324.0939 1335.1328 6011.9097 3814709
1380.1184 1355.1605 6102.0918 5591378
1415.6119 1354.5206 6099.2104 4209723
1420.7961 1325.6333 5969.1353 5459791
1459.25 1328.4368 5981.7588 4209723
1503.6437 1336.3864 6017.5547 2564642
1541.3307 1338.145 6025.4731 5130825
1574.095 1335.6471 6014.2256 2828841
1611.9098 1337.4503 6022.3452 5986647
1663.141 1350.066 6079.1523 9210503
1724.6414 1370.3064 6170.2915 4605251
1770.5454 1377.5715 6203.0054 4078394
1821.2723 1388.2172 6250.9409 5591117
1851.637 1383.2273 6228.4722 7828079
1906.2479 1396.191 6286.8462 4866623
1956.7581 1405.7117 6329.7163 3747371
1988.425 1401.5923 6311.1675 5259068
2055.1799 1421.9008 6402.6138 4139045
2096.9182 1424.4789 6414.2222 3677979
2140.1677 1427.9734 6429.9575 3350041
2152.8533 1411.3094 6354.9224 5455413
2212.7175 1425.615 6419.3379 7164752
2246.5352 1422.939 6407.2886 8414818
2319.0068 1444.4282 6504.0518 7231832
2389.4448 1463.9688 6592.0396 6378323
2418.6975 1458.0532 6565.4028 5721424
2439.2141 1447.142 6516.271 5722453
2475.6606 1445.8745 6510.564 8419711
2534.698 1457.6372 6563.5293 4735298
2527.3721 1431.4574 6445.646 2035986
2544.2734 1419.5748 6392.1401 4071970
2576.8362 1416.651 6378.9746 8412501
2651.8718 1436.8241 6469.811 8609619
2713.333 1449.1721 6525.4126 8872789
2756.978 1451.7915 6537.207 8411981
2793.1189 1450.4413 6531.1274 11307129
2714.4717 1390.3344 6260.4746 11702658
2739.1309 1384.0476 6232.1665 7952463
2752.9062 1372.502 6180.1782 4070937
2834.2009 1394.4803 6279.1431 1442305
2888.4431 1402.7511 6316.3853 3151120
2921.7878 1400.7914 6307.561 6506560
3085.759 1460.7164 6577.3945 7755594
3159.3687 1476.9052 6650.2905 7820615
3276.5042 1512.7913 6811.8799 8412241
3312.7085 1510.8917 6803.3271 8478291
3370.0042 1518.542 6837.7754 8478291
3368.0354 1499.623 6752.5859 8478292
3442.9966 1514.9991 6821.8218 8346706
3491.0796 1518.3287 6836.8145 8280913
3541.9861 1522.7955 6856.9282 8148811
3513.3369 1493.3459 6724.3213 8083016
3513.4048 1476.6263 6649.0347 8477774
3621.293 1505.0901 6777.2031 8872791
3780.6299 1554.0781 6997.7891 8610389
3860.9272 1569.8652 7068.876 8478803
3936.6938 1583.491 7130.231 8479060
3990.6768 1588.1583 7151.2471 8346960
3953.8203 1556.9562 7010.7485 8543563
4041.6641 1574.9974 7091.9858 10713948
0 0 0 0
0 0 0 0
0 0 0 0
0 0 0 0
0 0 0 0
0 0 0 0
4328.8267 1572.4409 7080.4741 3151378
4449.1807 1600.644 7207.4688 8019286
4494.353 1601.5204 7211.4146 7822418
4810.0688 1697.8777 7645.2979 7888467
5001.459 1748.9614 7875.3208 8414809
5068.9019 1756.1581 7907.7261 8546139
5098.7988 1750.334 7881.5005 8283223
5088.7339 1731.0219 7794.541 8282967
5218.4839 1759.1897 7921.377 8480092
5213.647 1741.8898 7843.478 7230027
5324.3086 1763.1427 7939.1768 4532518
5369.1597 1762.4211 7935.9277 2692115
5296.0649 1723.3328 7759.9185 1707534
5665.9688 1827.8276 8230.4434 458755
5503.8496 1760.3743 7926.7104 524293
4982.7495 1580.2162 7115.4849 458756
5493.2388 1727.4921 7778.647 7102057
0 0 0 0
4828.7671 1493.4661 6724.8618 10257286
5162.5679 1583.6355 7130.8818 6376018
6226.1543 1894.3876 8530.1533 721156
6209.2705 1874.0345 8438.5068 196619
6328.2573 1894.6869 8531.501 12
6383.4233 1896.0554 8537.6631 14
6409.5913 1888.8566 8505.248 13
6581.8403 1924.4832 8665.6689 14
8104.1108 2351.2385 10587.287 14
8218.916 2366.2275 10654.78 14
7544.2852 2155.4417 9705.6426 14
7600.2583 2155.0037 9703.6699 14
7714.5645 2170.988 9775.6455 14
8459.5625 2362.8972 10639.784 14
8048.4585 2231.4368 10047.837 14
8238.9785 2267.4829 10210.147 14
8318.9111 2272.7898 10234.044 15
8461.667 2295.0598 10334.322 13
8767.5879 2360.9468 10631.002 14
8858.1064 2368.3037 10664.129 14
8787.5352 2332.7922 10504.227 14
8784.2744 2315.5239 10426.47 13
8893.041 2327.8206 10481.84 14
7459.6245 1939.0686 8731.3457 15
7361.0703 1900.2688 8556.6357 15
6814.8926 1747.2363 7867.5527 15
6876.9194 1751.1582 7885.2124 16
6943.0005 1756.0529 7907.252 16
7006.2344 1760.1663 7925.7744 16
7007.2026 1748.6864 7874.082 16
7020.4009 1740.3903 7836.7256 16
9224.877 2271.8613 10229.862 16
9311.9502 2278.3323 10259.001 16
9161.2109 2226.9119 10027.462 13
9406.7783 2271.8679 10229.893 14
9457.9365 2269.5964 10219.664 14
9487.9863 2262.3206 10186.902 14
9583.625 2270.677 10224.53 14
9541.251 2246.4341 10115.368 14
9511.4629 2225.4387 10020.828 16
9516.7266 2212.854 9964.1611 16
0 0 0 0
0 0 0 0
0 0 0 0
0 0 0 0
0 0 0 0
0 0 0 0
-3275.8232 830.07855 3640.5754 3485476
-3280.3906 836.74677 3669.821 1840393
-3295.4309 846.19324 3711.2515 3090710
-3266.6155 844.42981 3703.5176 5063725
-3277.1653 852.88739 3740.6108 3221775
-3271.7861 857.28638 3759.9038 4603172
-3260.1763 860.10187 3772.2524 4536613
-3211.7717 853.18213 3741.9033 2629909
-3193.0886 854.11615 3746 1182468
-3139.0801 845.54803 3708.4219 2827026
-3146.6133 853.55304 3743.5303 1774597
-3110.1663 849.65686 3726.4421 4472617
-3004.8767 826.76361 3626.0364 6051650
-2985.2317 827.27448 3628.2771 4538156
-3012.665 840.9339 3688.1851 6577226
-3025.4187 850.66553 3730.866 2038023
-3016.7532 854.47345 3747.5671 3617051
-2931.8418 836.58179 3669.0972 5590583
-2842.011 817.00842 3583.252 7433047
-2843.3792 823.5553 3611.9653 6248773
-2844.968 830.26569 3641.3962 5064242
-2853.356 839.07825 3680.0464 3352854
-2863.3804 848.51154 3721.4189 3221009
-2776.4409 829.13452 3636.4351 1511427
-2755.3135 829.26184 3636.9934 5722429
-2739.8953 831.12286 3645.1558 1643271
-2695.7932 824.24347 3614.9836 1182976
-2702.8306 833.01501 3653.4543 4208677
-2656.1165 825.22815 3619.3025 3748897
-2607.4502 816.70319 3581.9133 1906956
-2618.0852 826.76501 3626.0425 6446407
-2594.5764 826.1217 3623.2214 6841674
-2586.1909 830.3233 3641.6487 7630677
-2555.759 827.45782 3629.0813 7433809
-2543.9075 830.61029 3642.9072 6381373
-2509.3035 826.32434 3624.1099 7565133
-2464.6953 818.64142 3590.4143 5591852
-2432.0107 814.81958 3573.6523 7761994
-2361.1631 798.03223 3500.0259 4668179
-2369.8098 808.05304 3543.9753 4338954
-2349.2544 808.20685 3544.6499 6049313
-2358.1863 818.59943 3590.2297 7562807
-2352.0354 823.89764 3613.467 6115102
-2322.3608 820.97748 3600.6599 6510373
-2310.3599 824.30896 3615.271 4733710
-2309.7603 831.80878 3648.1638 9801319
-2269.5679 825.05701 3618.552 6840897
-2255.0029 827.58167 3629.6248 6972478
-2233.9861 827.7644 3630.426 5591341
-2200.8525 823.41742 3611.3608 3880473
-2185.9785 825.88367 3622.1772 9078894
-2150.5483 820.55542 3598.8086 2894613
-2122.2766 817.87921 3587.0713 13488057
-2124.0654 826.85071 3626.4187 1512457
-2098.1167 825.09766 3618.7302 8617565
-2068.8259 821.98059 3605.0593 5854003
-2033.6603 816.43988 3580.7583 6051121
-1956.7864 793.86133 3481.7332 7235136
-1996.6096 818.64978 3590.4509 7301696
-1971.077 816.88654 3582.7175 5918762
-1958.004 820.30469 3597.709 8748636
-1939.7744 821.61401 3603.4512 7038020
-1927.2061 825.37708 3619.9553 6775362
-1918.5077 830.90082 3644.1816 9143655
-1871.6858 819.85126 3595.7202 5327404
-1837.2919 814.05371 3570.2932 7960158
-1827.296 819.05713 3592.2373 8158305
-1812.6094 822.05115 3605.3684 8486756
-1791.9535 822.3772 3606.7983 9342072
0 0 0 0
0 0 0 0
0 0 0 0
0 0 0 0
0 0 0 0
0 0 0 0
0 0 0 0
0 0 0 0
0 0 0 0
0 0 0 0
0 0 0 0
0 0 0 0
0 0 0 0
0 0 0 0
0 0 0 0
0 0 0 0
0 0 0 0
0 0 0 0
-512.52734 304.14209 1333.9125 5137541
-503.1424 303.25015 1330.0006 2108477
-494.78152 302.95685 1328.7142 1316903
0 0 0 0
0 0 0 0
0 0 0 0
-1299.8486 850.01337 3728.0056 2038026
-1133.0717 753.76379 3305.8726 2366477
-1247.0898 844.21002 3702.5532 2629132
-1186.119 817.31659 3584.6035 5129775
-1160.8778 814.51135 3572.3003 1906184
-1137.5865 812.99542 3565.6519 6774337
-1114.8292 811.8111 3560.4575 4734756
-1100.1934 816.60901 3581.5005 9866861
-1022.6487 773.98376 3394.5537 10985341
0 0 0 0
-1045.9728 824.05688 3614.1655 8419411
-1020.2145 820.56628 3598.8562 8287312
-996.98669 819.00525 3592.0098 7497537
-983.96735 825.94525 3622.4473 8023878
-981.51343 842.26111 3694.0059 5063455
-944.72662 829.1875 3636.6672 10787969
-932.95709 837.97369 3675.2019 8485983
-925.14215 850.81689 3731.53 9143657
-908.40375 855.88147 3753.7424 7893592
-892.84772 862.34235 3782.0786 8880488
-880.96429 872.77441 3827.832 8485730
-855.07526 869.51587 3813.5403 7498836
-830.89526 867.86548 3806.302 8552038
-805.23865 864.53748 3791.7061 9473138
-790.08282 872.61621 3827.1379 6249024
-770.71814 876.38654 3843.6741 6380351
-747.04694 875.34052 3839.0859 2038026
-725.14587 876.36792 3843.5925 8223335
-691.03406 862.22632 3781.5698 5526084
-631.72815 814.64752 3572.8979 7368548
-644.43146 859.84894 3771.1428 4079413
-608.50043 841.07513 3688.8042 3552816
-568.79926 815.49683 3576.6226 8224116
0 0 0 0
0 0 0 0
-511.46066 825.58362 3620.8616 6644300
-531.01233 894.67896 3923.9011 7235660
-505.8606 891.3349 3909.2346 7169863
-480.5621 887.39874 3891.9717 7365956
-462.9718 898.01733 3938.5425 7234880
-434.76984 888.08734 3894.9912 6116657
-410.75351 886.07306 3886.1572 7827284
-392.81299 897.70453 3937.1707 6577733
-365.66864 888.44318 3896.552 8814953
-340.36276 882.70111 3871.3687 8683879
-329.17551 915.39087 4014.74 7170384
-302.00528 905.26526 3970.3308 7565141
-279.80429 909.58246 3989.2651 6709578
-262.47452 931.99323 4087.5549 5854527
-234.17764 916.05975 4017.6736 6579025
0 0 0 0
0 0 0 0
0 0 0 0
0 0 0 0
0 0 0 0
-85.286209 855.53186 3752.209 7696989
-60.171738 816.47876 3580.9292 8025181
-38.910362 815.63983 3577.2495 7301712
-17.891209 823.94733 3613.6851 8815206
3.6154172 845.25958 3707.1565 8288863
25.986977 858.54596 3765.4282 6447180
49.88203 886.63568 3888.6245 7302234
70.864227 861.55853 3778.6409 7499615
90.491135 836.00366 3666.5618 6710096
0 0 0 0
0 0 0 0
0 0 0 0
0 0 0 0
285.89841 1200.25 5264.0811 5987159
319.59943 1209.7316 5305.6655 4605509
351.96042 1212.897 5319.5479 5395025
381.0325 1205.1394 5285.5249 5066575
417.40594 1219.8993 5350.2588 4868683
442.94397 1203.1434 5276.771 3749948
474.54736 1203.9862 5280.4668 2829101
521.27979 1240.7343 5441.6372 6250336
551.11133 1235.317 5417.8784 4276033
572.76642 1213.1777 5320.7793 3157296
602.30927 1209.1842 5303.2646 526088
626.85956 1196.0609 5245.708 460294
639.81372 1163.0974 5101.1362 131587
723.06396 1255.132 5504.7832 2828846
767.66028 1275.0194 5592.0059 6644842
807.30096 1285.3706 5637.4048 4736844
847.0141 1295.0099 5679.6807 6644841
875.29639 1287.1035 5645.0049 6250339
916.36389 1297.8876 5692.3018 8158590
946.06372 1292.377 5668.1333 5329233
998.03906 1316.6305 5774.5049 3618614
1021.5693 1302.9948 5714.7007 4342337
1080.7831 1334.2872 5851.9438 1446932
1094.759 1309.5219 5743.3276 6381410
1126.6115 1306.9884 5732.2163 2302243
1172.6428 1320.5709 5791.7866 1249557
1191.8411 1304.0221 5719.2065 5394517
1235.0396 1313.9219 5762.625 3881788
1285.3035 1330.6031 5835.7861 4474182
1342.0763 1352.9719 5933.8916 4276294
1361.9288 1337.9287 5867.915 2763310
1383.3176 1325.1063 5811.6782 3552313
1433.5643 1339.8789 5876.4678 7434355
1481.7201 1352.0427 5929.8164 3223859
1527.9125 1361.8931 5973.0181 3683896
1578.4662 1375.0967 6030.9268 7763322
1596.606 1360.1029 5965.167 5723739
1641.4105 1367.9819 5999.7227 7105385
1664.423 1357.7498 5954.8462 2565670
1703.1777 1360.5177 5966.9863 5592148
1743.5063 1364.4048 5984.0342 6381917
1800.739 1381.1014 6057.2627 5591631
1833.2526 1378.5576 6046.106 5591887
1894.2755 1397.1384 6127.5981 6775904
1955.3214 1415.037 6206.0981 4933186
1959.8081 1392.0992 6105.4971 3945775
2024.8779 1412.2466 6193.8599 5129792
2026.1581 1387.9788 6087.4253 4865591
2078.7988 1399.1281 6136.3242 4931128
2111.9409 1396.9961 6126.9736 2825240
2148.9934 1397.479 6129.0918 3351069
2176.2878 1391.7059 6103.772 5192248
2240.7922 1409.5276 6181.9346 5257010
2296.2512 1421.1777 6233.0298 7888222
2320.8428 1413.6571 6200.0464 6968404
2414.7427 1447.9297 6350.3594 6377290
2409.2751 1422.4821 6238.7505 9208192
2443.2532 1420.741 6231.1143 11248807
2552.6716 1462.2667 6413.2393 11972027
2541.4973 1434.5076 6291.4927 7957371
2563.8411 1426.1964 6255.0415 4995650
2543.5708 1394.7549 6117.144 4006697
2661.25 1438.778 6310.2212 7952474
2734.4321 1457.8573 6393.9004 8675670
2755.8259 1449.1818 6355.8506 9794406
2766.2566 1435.0529 6293.8843 6636600
2775.741 1420.8153 6231.4409 5123108
2846.4182 1437.8634 6306.2104 5123365
2873.5901 1432.7776 6283.9053 4202519
2943.606 1448.9109 6354.6626 1312517
3072.2405 1493.1252 6548.5791 7558731
3177.6023 1525.0673 6688.6709 9530978
3263.7327 1547.1058 6785.3281 10254186
3236.4729 1515.5116 6646.7617 10122344
3311.1177 1531.8215 6718.2939 10122344
3352.9885 1532.7618 6722.418 9135702
3317.8528 1498.891 6573.8667 9070421
3390.0496 1513.7328 6638.96 10386278
3279.7991 1447.7019 6349.3604 14269604
3221.0913 1405.662 6164.9805 10450534
3258.4006 1405.996 6166.4458 8675156
3385.5107 1444.642 6335.9399 8872791
3682.1704 1553.9954 6815.5439 8478033
3752.1318 1566.3398 6869.6851 8478033
3842.4849 1586.8405 6959.5972 8543826
3936.5515 1608.4232 7054.2549 8741456
3933.21 1590.1708 6974.2031 9135954
3962.4729 1585.3427 6953.0278 9069132
3982.9597 1577.1389 6917.0474 12621684
3842.0044 1505.8267 6604.2852 12358504
0 0 0 0
3919.6799 1505.5958 6603.2725 12488805
4027.4756 1531.7095 6717.8022 10910039
3985.5828 1500.9403 6582.8545 2823182
4245.1919 1583.2107 6943.6772 1835265
4365.3501 1612.3932 7071.667 1967362
4448.5947 1627.5161 7137.9932 5979189
4503.6685 1632.1449 7158.2939 8084560
4677.7305 1679.4066 7365.5757 8084302
4706.9487 1674.2734 7343.062 8084817
4795.936 1690.2992 7413.3481 7952974
4824.853 1685.0551 7390.3481 8084562
4892.9458 1693.4637 7427.228 8151123
4978.0415 1707.5551 7489.0298 8019538
4842.9287 1646.5293 7221.3818 8085588
4852.2051 1635.2332 7171.8389 8479831
4507.0737 1505.7321 6603.8701 8217427
4494.3579 1488.5585 6528.5498 13480096
4627.6162 1519.6128 6664.7485 13609370
4810.5811 1566.3262 6869.6245 10516329
4678.6377 1510.5817 6625.1396 10714483
4772.4585 1528.0502 6701.7534 10912120
4776.2114 1516.6306 6651.6694 9991277
4874.936 1535.3081 6733.5854 10452351
4825.4756 1507.3922 6611.1514 8874093
0 0 0 0
5958.585 1831.6127 8033.124 722442
6155.8232 1877.2437 8233.2529 327687
6219.4355 1881.7275 8252.9189 262155
6347.5293 1905.4987 8357.1748 65549
7057.5083 2102.2285 9219.9961 65549
7155.2476 2114.968 9275.8691 14
7301.3198 2141.6907 9393.0703 14
7379.8643 2148.3511 9422.2812 14
7470.4819 2158.3997 9466.3525 14
7887.3955 2261.8701 9920.1562 14
7732.4209 2201.0227 9653.29 14
7947.478 2245.6245 9848.9053 14
8037.2754 2254.4407 9887.5723 14
8162.2852 2272.9348 9968.6836 15
8459.5449 2338.7847 10257.489 15
8532.0518 2342.0015 10271.598 15
8621.1494 2349.6946 10305.338 15
8641.085 2338.5615 10256.511 15
8814.6758 2368.8777 10389.473 15
7804.8242 2082.9385 9135.3945 16
7838.6909 2077.5659 9111.8311 16
6667.1099 1754.9608 7696.9424 15
6726.02 1758.4369 7712.1885 14
6789.1597 1762.9644 7732.0449 14
6848.5122 1766.4545 7747.3521 16
6854.9292 1756.3352 7702.9707 16
6838.3589 1740.499 7633.5156 16
8784.5625 2221.1533 9741.5791 16
8847.8428 2222.5471 9747.6924 16
8795.8662 2195.1589 9627.5723 16
8919.1172 2211.5728 9699.5605 16
8969.5352 2209.8323 9691.9277 16
9008.4688 2205.3027 9672.0615 16
9115.6357 2217.4287 9725.2432 16
9079.1035 2194.6665 9625.4121 14
9115.9414 2189.8127 9604.125 16
9149.21 2184.1675 9579.3662 16
0 0 0 0
0 0 0 0
0 0 0 0
0 0 0 0
0 0 0 0
0 0 0 0
-3242.9231 843.09998 3604.012 2893855
-3303.3816 864.5119 3695.5417 5920073
-3238.1245 853.08948 3646.7144 4801329
-3258.7346 864.28754 3694.5828 4537901
-3222.7896 860.53589 3678.5454 4077348
-3218.6553 865.28503 3698.8467 3551263
-3275.2617 886.54041 3789.7075 4077353
-3171.3325 864.33588 3694.7893 2630422
-3181.6321 873.17169 3732.5598 3156761
-3154.0066 871.65015 3726.0559 5327675
-3060.9233 851.88953 3641.585 5524797
-3040.4124 852.18939 3642.8667 985602
-2982.1765 841.84412 3598.6438 4143655
-2997.9468 852.3916 3643.7312 5524798
-2981.488 853.86212 3650.0173 2629908
-2991.2458 862.91718 3688.7249 4472108
-2972.6013 863.85162 3692.7195 4932917
-2928.4214 857.32422 3664.8167 4801586
-2956.0085 871.86682 3726.9819 3222819
-2902.9382 862.65948 3687.6235 2168843
-2836.0823 849.18488 3630.0232 1774088
-2830.9368 854.12299 3651.1321 1510657
-2826.0552 859.21722 3672.9087 2299657
-2780.7451 852.0036 3642.0725 2234381
-2692.9075 831.54492 3554.6177 5656131
-2690.7346 837.42474 3579.7522 2039063
-2707.9817 849.49017 3631.3281 1051911
-2695.4165 852.32178 3643.4326 2103568
-2666.2737 849.91479 3633.1433 4274730
-2619.9492 841.94714 3599.0837 4078635
-2614.6687 847.14673 3621.3108 7236435
-2585.0505 844.48175 3609.9189 6117958
-2575.8398 848.49475 3627.0732 7301715
-2554.345 848.49475 3627.0732 7236178
-2518.0312 843.53052 3605.8523 5327664
-2478.2639 837.31439 3579.2803 2827534
-2440.0222 831.51086 3554.4717 5195820
-2419.377 831.65497 3555.0879 2299906
-2415.3145 837.552 3580.2961 4602651
-2374.2722 830.61658 3550.6492 4338706
-2348.167 828.82935 3543.0093 3154434
-2331.2849 830.2948 3549.2734 5654052
-2327.2246 836.3949 3575.3499 5390878
-2294.9338 832.3681 3558.1365 4996631
-2286.0798 836.84595 3577.2776 6378798
-2296.7642 848.62659 3627.6367 6905663
-2257.4771 841.99164 3599.2744 6906178
-2222.8589 836.98828 3577.8862 5919800
-2192.1377 833.36993 3562.4189 5459250
-2192.7217 841.698 3598.019 6578245
-2147.9595 832.61224 3559.1797 6446147
-2084.0208 815.83893 3487.4788 5591351
-2102.167 831.18573 3553.082 6052161
-2060.6218 823.00256 3518.1013 7894108
-2087.5754 842.28992 3600.5491 7301707
-2028.9508 827.09003 3535.574 5657133
-1991.988 820.49554 3507.3843 7301445
-1952.42 812.67743 3473.9644 5721901
-1982.3898 833.94568 3564.8801 4669470
-1972.2002 838.59601 3584.759 4339737
-1948.8063 837.672 3580.8088 7761487
-1954.8723 849.52997 3631.4983 5656627
-1923.1075 845.02875 3612.2568 9933684
-1901.9922 845.15839 3612.811 9408112
-1852.7751 832.66156 3559.3909 7171151
-1831.9653 832.79065 3559.9424 5788218
-1823.7651 838.72168 3585.2959 8946797
-1808.1438 841.33948 3596.4863 5855301
-1782.2196 839.16846 3587.2058 9868673
-1784.4365 850.35547 3635.0271 3881260
-1753.7936 845.96558 3616.2615 6644558
-1727.9067 843.78949 3606.9595 6250055
0 0 0 0
-1689.8429 846.13647 3616.9922 4932400
0 0 0 0
0 0 0 0
0 0 0 0
0 0 0 0
0 0 0 0
0 0 0 0
0 0 0 0
0 0 0 0
0 0 0 0
0 0 0 0
0 0 0 0
0 0 0 0
0 0 0 0
-520.16443 316.6969 1353.7889 2698559
-511.51715 316.31076 1352.1383 8028566
0 0 0 0
0 0 0 0
0 0 0 0
0 0 0 0
-1313.0358 880.95392 3765.8267 4866870
-1200.4434 819.33832 3502.4377 1840386
-1215.5547 844.24963 3608.9265 3879454
-1174.2069 830.138 3548.6035 2629646
-1121.9188 807.63611 3452.4141 4341027
-1107.9764 812.41492 3472.8423 8157014
-1105.1183 825.65588 3529.4434 8485466
-1044.9813 795.7879 3401.7666 10196081
-1042.5609 809.56268 3460.6497 10393202
-1042.0791 825.42584 3528.46 9800808
-1017.2192 822.2334 3514.8132 7234880
-989.96124 816.92847 3492.1365 9405793
-983.59747 829.00739 3543.7705 5852974
-994.05133 856.09717 3659.5713 11248260
-953.03992 839.08362 3586.8435 6972232
-936.76141 843.56647 3606.0059 8025179
-920.22894 848.02423 3625.062 9933178
-901.50452 850.62714 3636.1885 7433811
-886.58014 857.0307 3663.562 6512197
-857.7373 849.96362 3633.3521 6775113
-858.89874 873.0304 3731.9561 7827801
-837.25208 873.52051 3734.051 7893849
-824.12012 883.16187 3775.2654 8552035
-814.73859 897.4726 3836.4395 7104588
-786.26459 890.96997 3808.6426 6907472
-767.64227 895.57648 3828.3342 7500122
-745.94202 896.76337 3833.408 4933172
-719.63995 892.31879 3814.4084 6249544
-683.78882 875.36163 3741.9214 4275758
-643.49683 851.39209 3639.4585 8486767
-611.71454 837.40948 3579.6868 5526855
-595.70569 844.79108 3611.241 3421222
-573.06726 842.97089 3603.46 7565923
-546.16663 834.49738 3567.2383 8092007
-531.27258 844.42529 3609.6772 5920835
-529.04321 876.16046 3745.3362 7959899
-513.50415 887.66736 3794.5251 6643780
-493.89233 892.86548 3816.7454 8353884
-470.63379 891.6535 3811.5645 7629901
-462.84805 921.11169 3937.4897 7497801
-436.60025 915.00592 3911.3894 8551002
-409.69302 906.75598 3876.1233 9142884
-388.84738 911.73871 3897.4231 8485725
-357.72995 891.74548 3811.9575 8156761
-337.03482 896.78857 3833.5156 7367249
-323.59183 923.25214 3946.6396 6578241
-297.39029 914.60126 3909.6597 7959384
-278.07184 927.4455 3964.5652 6117442
-255.21062 929.75385 3974.4329 7499356
-230.29895 924.30225 3951.1284 4407602
-197.7679 883.57513 3777.0317 7301985
0 0 0 0
0 0 0 0
-123.556 835.80743 3572.8386 10526599
-103.41041 844.19812 3608.7063 8749671
-83.115562 855.42798 3656.7104 7959895
-60.316483 839.71527 3589.5432 9538921
-38.457741 827.1048 3535.6375 9670254
-17.746933 838.54565 3584.5437 9012326
3.6004252 863.63287 3691.7842 7696211
25.43108 862.01782 3684.8804 8617059
46.531685 848.58142 3627.4436 8156512
66.459389 829.0061 3543.7646 7828573
87.673157 831.02185 3552.3816 8749420
109.41969 836.32916 3575.0686 8684138
131.92313 844.76135 3611.1138 9671034
151.4227 834.28931 3566.3489 9144954
0 0 0 0
0 0 0 0
313.90674 1219.0665 5211.1616 4604480
343.26862 1213.6902 5188.1792 1907225
373.66592 1212.5577 5183.3389 1775382
409.27188 1227.2158 5245.9976 5328463
438.85837 1223.0287 5228.0991 2302242
475.2074 1236.9974 5287.811 3947067
518.18781 1265.4318 5409.3599 3683895
536.77216 1234.4478 5276.9126 2697257
568.76068 1236.0046 5283.5674 3354930
598.63354 1233.0414 5270.9004 1184531
621.12323 1215.9183 5197.7046 1052690
662.2431 1235.1611 5279.9619 986896
697.42334 1242.0892 5309.5776 2170915
730.38763 1244.6431 5320.4941 855310
755.03046 1233.3917 5272.3979 3092275
780.73676 1224.703 5235.2559 3815998
825.44153 1245.3411 5323.478 2697774
890.18689 1293.582 5529.6943 7698040
899.61694 1260.8695 5389.8574 4736841
960.73169 1300.3557 5558.6499 6908266
1005.1021 1315.3116 5622.582 8355455
1028.9436 1303.3051 5571.2573 7828597
1060.4766 1301.4844 5563.4746 8881542
1076.4579 1281.2631 5477.0342 8157819
1152.9448 1332.135 5694.4971 6578015
1177.5403 1321.8619 5650.583 6710627
1221.7385 1333.554 5700.563 5526355
1241.5798 1318.746 5637.2632 5131598
1313.1831 1358.2526 5806.1426 8289920
1326.8298 1337.3265 5716.6899 5395026
1360.4163 1337.0397 5715.4634 5460819
1397.7321 1340.3429 5729.584 6381921
1431.7651 1340.4164 5729.8979 4539204
1470.4926 1344.7794 5748.5483 5591892
1513.9858 1353.2043 5784.563 4604997
1540.802 1346.6805 5756.6753 4012860
1570.1819 1342.6313 5739.3662 3683638
1597.5188 1337.0439 5715.4819 4143676
1664.5946 1364.2576 5831.8125 2695973
1733.9799 1392.2184 5951.3369 2500132
1746.4454 1374.2747 5874.6323 3026219
1804.6819 1392.3453 5951.8794 6447452
1850.1793 1400.083 5984.9556 6381146
1907.1316 1416.0348 6053.145 7368042
1952.4688 1422.9327 6082.6318 7235944
1961.8557 1403.8556 6001.082 9012353
1964.3585 1380.6194 5901.7539 5590860
2027.8424 1400.3058 5985.9077 6248534
2049.6289 1391.0167 5946.1997 4472379
2082.844 1389.6666 5940.4287 5130308
2108.5669 1383.4459 5913.8364 6708828
2156.7209 1391.905 5949.9971 4865854
2223.7908 1412.1038 6036.3408 3549481
2217.6631 1385.9182 5924.4053 2562588
2246.1099 1381.8195 5906.8843 4204588
2268.9543 1374.4529 5875.394 4139563
2362.0076 1409.1959 6023.9106 3414300
2370.0273 1392.9282 5954.3706 7359819
2407.4097 1394.1416 5959.5581 6832704
2423.2913 1383.049 5912.1401 4662821
2521.2556 1418.4518 6063.4771 7826026
2683.1396 1488.3157 6362.125 2826537
2672.8384 1462.0568 6249.876 853767
2722.9597 1469.1156 6280.0503 1378060
2779.9563 1479.6434 6325.0537 3219234
2767.1255 1453.2196 6212.0996 9729137
2757.4238 1429.1116 6109.0444 12492438
2891.803 1479.3344 6323.7329 9662823
2966.5261 1498.1449 6404.1426 8281169
3026.9646 1509.3573 6452.0723 8083276
3062.22 1507.8894 6445.7974 8345678
3183.1479 1548.1248 6617.792 9069144
3234.9543 1554.1722 6643.6431 8872020
3256.0083 1545.4777 6606.4766 9003607
3258.1721 1528.1301 6532.3203 9793380
3280.8064 1520.678 6500.4648 9200985
3295.0898 1509.573 6452.9941 11899008
3178.6516 1439.5227 6153.5488 11569531
3129.9551 1401.392 5990.5508 6107689
3290.4658 1456.7352 6227.1279 9596001
3417.7563 1496.3074 6396.2871 3413261
3441.5212 1490.1843 6370.1128 8082504
3629.8679 1554.6851 6645.835 9135447
3697.5986 1566.6954 6697.1763 8872788
3824.4861 1603.2496 6853.4351 8543051
3839.9316 1592.8092 6808.8057 8609099
3914.5447 1606.8737 6868.9268 8937549
3951.5183 1605.3571 6862.4438 9002572
3914.9905 1574.3147 6729.7466 9199950
3891.0208 1548.8973 6621.0942 8081723
3959.7104 1560.504 6670.71 9858388
3984.1995 1554.6343 6645.6182 11240298
4093.4832 1581.6425 6761.0703 4925724
4245.0396 1624.3019 6943.4272 3349526
4323.6694 1638.5061 7004.146 1902341
4323.1084 1622.715 6936.644 2363663
4561.3433 1696.0114 7249.9648 4599592
4504.418 1659.2163 7092.6772 8611162
4543.3984 1658.1027 7087.9155 8282449
4599.0303 1663.0303 7108.9805 8150093
4717.3262 1690.3225 7225.6465 8084301
4761.0596 1690.6464 7227.0312 7097405
4779.917 1682.2101 7190.9688 7952715
4786.4526 1669.6246 7137.1694 8150604
4706.4897 1627.3514 6956.4634 7886147
4814.4165 1650.2142 7054.1958 11438454
4731.1763 1607.7224 6872.5547 12292729
4631.5981 1560.451 6670.4834 13278598
4672.8184 1561.0155 6672.896 12027765
4769.5889 1579.9719 6753.9297 12093305
4831.9097 1587.2963 6785.2388 12027512
4854.106 1581.4272 6760.1504 11831161
4829.9814 1560.687 6671.4917 11963005
4820.1763 1544.8728 6603.8906 11766653
4979.3491 1583.0349 6767.0225 9464413
5111.9521 1612.2076 6891.728 7821643
5391.2505 1686.816 7210.6572 8347731
5822.7241 1807.4891 7726.5005 7887695
5996.8687 1847.0223 7895.4937 7624525
6116.5552 1869.3004 7990.7261 7492940
6299.2114 1910.3326 8166.1274 6966856
6425.4448 1933.7585 8266.2666 5718077
6598.1626 1970.7139 8424.2402 2167313
6752.0527 2001.533 8555.9824 524804
7754.0122 2281.4148 9752.3975 262663
7236.9233 2113.5215 9034.7021 6
7370.8447 2136.8237 9134.3125 131081
7685.291 2211.7395 9454.5557 65549
7169.5078 2048.3694 8756.1943 65550
8135.4663 2307.647 9864.5322 14
7952.1616 2239.5591 9573.4766 14
7569.4849 2116.6846 9048.2236 14
8149.8501 2262.9438 9673.4404 14
8138.0332 2243.8794 9591.9443 14
7044.8462 1928.9836 8245.8555 13
7003.2988 1904.3977 8140.7568 13
6528.916 1763.2527 7537.4023 13
6575.1143 1763.6631 7539.1567 16
6634.8037 1767.6624 7556.2529 16
6686.2617 1769.4297 7563.8071 16
6680.8662 1756.2281 7507.374 16
6730.9121 1757.6787 7513.5752 16
8490.9824 2202.7234 9416.0146 16
8540.0098 2200.9775 9408.5518 16
8471.6797 2169.2046 9272.7314 16
8596.9238 2187.0872 9349.1738 16
8645.8779 2185.4568 9342.2041 16
8681.625 2180.5293 9321.1416 16
8771.2832 2189.1196 9357.8623 16
8518.0371 2112.5586 9030.585 16
8759.3447 2158.8416 9228.4316 16
8760.0469 2145.6182 9171.9062 16
0 0 0 0
0 0 0 0
0 0 0 0
0 0 0 0
0 0 0 0
0 0 0 0
0 0 0 0
-3293.1929 883.67841 3684.1433 3027505
-3276.3296 885.02087 3689.7402 723208
-3245.6304 882.61884 3679.7256 2828837
-3203.4768 877.04828 3656.5015 5920596
-3174.0554 874.9115 3647.593 3814448
-3183.0044 883.39429 3682.959 3223080
-3195.533 892.99487 3722.9844 5524804
-3098.9087 872.01385 3635.5125 5392962
-3025.2468 857.24573 3573.9426 3288098
-3010.0762 858.96045 3581.0918 2103825
-3034.2222 871.99884 3635.45 5327423
-3022.1931 874.75299 3646.9321 3682598
-3001.0166 874.88013 3647.4622 2235668
-2970.1611 872.16693 3636.1506 4867126
-2977.314 880.65649 3671.5444 9078903
-2914.083 868.29895 3620.0249 921095
-2917.9531 875.90045 3651.7161 5526081
-2908.2146 879.49988 3666.7227 2827803
-2867.1208 873.59973 3642.1245 1511688
-2845.4231 873.56488 3641.979 1577226
-2857.6973 884.0387 3685.6455 1577224
-2858.8503 891.20709 3715.5312 2826775
-2839.6589 892.0954 3719.2346 4933177
-2731.7312 864.90247 3605.8647 4011300
-2627.0259 838.30914 3494.9944 328704
-2660.6404 855.78308 3567.845 2894366
-2696.4741 874.25647 3644.8621 4407344
-2668.2981 872.10718 3635.9016 5723457
-2616.5081 862.14209 3594.3562 7104597
-2527.3062 839.58508 3500.3137 2696470
-2543.4448 851.93896 3551.8184 5460021
-2515.9727 849.76953 3542.7737 7368022
-2538.6504 864.64417 3604.7874 4670509
-2516.626 864.41681 3603.8398 1512200
-2469.8821 855.62231 3567.1748 3024913
-2446.3677 854.79266 3563.7156 3814172
-2431.3982 856.96027 3572.7524 4866088
-2383.5989 847.49304 3533.283 2036740
-2370.4551 850.28931 3544.9407 3813397
-2354.2634 852.03235 3552.2078 3483918
-2337.4495 853.57965 3558.6584 5522728
-2306.2573 849.85687 3543.1377 3089164
-2306.314 857.68646 3575.7805 5062432
-2293.2021 860.71887 3588.4226 4799774
-2296.3884 869.98248 3627.0435 6247991
-2232.6968 853.84509 3559.7654 6380095
-2180.9504 842.01184 3510.4312 4472612
-2159.9778 841.9458 3510.156 4406560
-2127.3494 837.29114 3490.7502 7038539
-2101.9641 835.42383 3482.9651 5327670
-2065.6877 829.14777 3456.7998 4274472
-2056.7031 833.81049 3476.239 5985601
-2023.9377 828.82898 3455.4707 6577990
-2037.3534 842.85065 3513.9285 8486241
-2001.6941 836.65002 3488.0774 5920828
-1982.6311 837.32922 3490.9089 7433294
-1972.3226 841.75903 3509.3772 6182713
-1959.875 845.36053 3524.3923 4932132
-1949.6395 850.00409 3543.7517 4406302
-1955.0159 861.62939 3592.2185 6906689
-1931.7866 860.7644 3588.6125 5195558
-1919.078 864.62036 3604.6882 7563594
-1890.6429 861.39777 3591.2532 8485470
-1841.3978 848.51263 3537.5337 8288608
-1820.7668 848.66791 3538.1812 3485989
-1798.764 848.18011 3536.1472 11052690
-1790.4246 854.19928 3561.2419 1183749
-1778.1041 858.44012 3578.9226 5854530
-1752.3762 856.23236 3569.718 7828062
-1763.6322 872.26221 3636.5481 4604204
-1736.8164 869.62616 3625.5581 4538153
-1695.3822 859.51288 3583.3948 6051390
-1680.0204 862.52869 3595.968 6644034
-1647.6769 856.79156 3572.0491 6117428
-1633.8834 860.67651 3588.2463 8880474
-1592.1544 849.75452 3542.7112 7695681
0 0 0 0
0 0 0 0
0 0 0 0
0 0 0 0
0 0 0 0
0 0 0 0
0 0 0 0
0 0 0 0
0 0 0 0
0 0 0 0
0 0 0 0
0 0 0 0
0 0 0 0
0 0 0 0
-1292.8379 860.13751 3585.999 3947045
-1310.6514 886.56213 3696.1658 5459514
-1303.3668 896.61938 3738.0957 2761746
-1248.5488 873.7597 3642.791 2498317
-1208.5005 860.61346 3587.9832 3880224
-1154.3911 836.80353 3488.7173 7630425
-1116.8635 824.3645 3436.8577 4866597
-1103.897 829.92865 3460.0552 8287828
-1092.8872 837.20251 3490.3809 7958348
-1086.5833 848.43134 3537.1948 10327151
-1039.0447 827.27167 3448.978 10853495
-1019.5754 828.05951 3452.2627 8945754
-997.51648 826.7334 3446.7339 8485461
-987.52148 835.55933 3483.53 11248254
-966.40704 835.15289 3481.8357 6182194
-976.53735 862.31903 3595.094 5063979
-963.61536 869.8869 3626.645 11972236
-939.14832 867.1402 3615.1938 7762002
-916.17987 865.68134 3609.1116 8025177
-894.77698 865.66724 3609.053 9735798
-878.06384 870.30078 3628.3708 7235411
-860.44702 874.24878 3644.8303 3288345
-855.03485 891.11987 3715.1675 5722681
-827.3277 885.03271 3689.7896 8814954
-811.11481 891.24469 3715.688 8090975
-802.77765 906.69879 3780.1174 7170129
-784.33478 911.29852 3799.2944 5130548
-766.24084 916.58765 3821.3452 6183750
-732.44391 902.84259 3764.0408 7368025
-649.61316 825.89441 3443.2358 4538926
-669.51483 878.80115 3663.8093 7302748
-633.08264 858.83258 3580.5586 7434330
-619.46283 869.49921 3625.0288 7434586
-591.49268 860.06604 3585.7012 7368536
-567.112 855.34369 3566.0132 7236949
-543.90247 852.09045 3552.4502 8684137
-533.71405 869.79596 3626.2659 7894615
-523.49066 888.92743 3706.0271 5985847
-516.73682 915.88422 3818.4126 6314808
-496.52356 920.36163 3837.0793 8813659
-466.31418 905.85046 3776.5808 5918251
-443.19449 904.34283 3770.2954 6642489
-421.71655 906.203 3778.0505 7629386
-403.66525 916.04785 3819.0947 6313527
-385.59521 927.01715 3864.8269 7629389
-362.00693 925.26764 3857.533 8090196
-334.05267 911.37085 3799.5959 7169094
-311.25549 910.55182 3796.1814 5985335
-293.07529 924.16406 3852.9319 6116923
-275.4375 941.93152 3927.0063 7104339
-245.62126 917.48737 3825.0962 6709582
-221.52696 911.61938 3800.6318 8223337
-196.24736 898.99323 3747.9922 6578768
-168.04713 868.05756 3619.0183 7959646
-145.47186 861.3772 3591.1675 7301968
-123.07003 853.61017 3558.7859 9604465
-101.88647 852.82812 3555.5254 6577730
-81.176712 856.63812 3571.4097 9077602
-59.214024 845.25061 3523.9338 9471589
-38.321266 845.04828 3523.0906 8418385
-17.567562 851.09851 3548.3145 7760200
3.5170434 865.00372 3606.2864 7497287
25.091543 872.05469 3635.6829 7102274
45.976433 859.69604 3584.1582 8418649
65.910591 842.98828 3514.502 7893333
86.269798 838.43518 3495.5198 7762261
107.75628 844.47961 3520.7197 8814951
127.12772 834.67657 3479.8496 10460809
148.90776 841.2168 3507.1165 7106142
0 0 0 0
0 0 0 0
300.22678 1195.4764 4984.0605 5263692
328.1366 1189.579 4959.4731 5658194
357.55185 1189.66 4959.811 1513237
368.57623 1133.1862 4724.3657 591878
442.40924 1264.1581 5270.4009 1710615
496.58157 1325.382 5525.6494 4605249
505.04926 1264.5912 5272.2065 3026476
528.37903 1245.9287 5194.4009 4211005
555.51855 1237.8101 5160.5532 7566197
590.03101 1246.1097 5195.1558 4013378
617.7226 1239.8954 5169.2476 3750462
638.57159 1221.1829 5091.2329 3355192
689.27625 1258.6777 5247.5527 4407876
715.77277 1250.6375 5214.0322 3882045
739.44409 1238.5308 5163.5581 5987422
773.58972 1244.2329 5187.3311 6119010
804.33563 1244.2402 5187.3613 4144965
843.67291 1257.0479 5240.7578 4737101
878.776 1262.8611 5264.9937 5526361
911.15253 1264.4918 5271.792 8618883
964.55566 1294.2275 5395.7637 5131595
1010.455 1312.3097 5471.1499 1907996
1024.7074 1289.4445 5375.8223 6710629
1074.0396 1310.7699 5464.73 4737096
1098.6942 1301.6115 5426.5479 6973802
1122.9492 1292.5142 5388.6201 8684420
1153.4093 1290.8645 5381.7427 7105901
1209.6936 1317.4276 5492.4868 9868951
1245.509 1320.8911 5506.9268 7829626
1266.3518 1308.7042 5456.1187 6251107
1314.7299 1324.8719 5523.5229 5197134
1368.8873 1345.9368 5611.3442 3815480
1388.6813 1333.0161 5557.4771 5197134
1428.1527 1339.1455 5583.0308 4999755
1488.7786 1364.3839 5688.2524 4539204
1519.8571 1362.0259 5678.4214 5131598
1544.2461 1353.905 5644.5649 7368303
1617.1403 1387.7534 5785.6821 2565670
1631.3004 1370.8398 5715.168 5328720
1662.8759 1368.9514 5707.2949 3881530
1688.6306 1362.442 5680.1567 2434082
1706.6791 1350.0909 5628.6636 6578785
1769.2354 1372.7469 5723.1187 6249053
1804.2535 1373.5858 5726.6157 2498850
1806.6246 1349.9979 5628.2759 2827299
1842.4412 1351.8046 5635.8076 2629920
1884.7145 1358.1996 5662.4697 393472
1890.2931 1338.39 5579.8813 2168597
1967.7632 1369.288 5708.6978 2367003
2046.1138 1399.7438 5835.6714 6117460
2074.3264 1395.4579 5817.8032 7301991
2104.666 1392.7198 5806.3877 8947587
2233.6975 1454.3264 6063.2319 6118488
2258.0916 1446.9332 6032.4087 6248790
2245.8315 1416.6494 5906.1523 4800317
2257.7283 1402.299 5846.3237 4800061
2263.2278 1384.4691 5771.9897 4075054
2280.9043 1374.5081 5730.4609 2956317
2292.0181 1360.9426 5673.9053 3942697
2312.4883 1353.2446 5641.812 4270891
2462.2249 1420.3334 5921.5112 3875617
2570.561 1461.9906 6095.1846 8415845
2645.4851 1483.7535 6185.9165 8152677
2661.3921 1472.2736 6138.0552 6049872
2674.0745 1459.3434 6084.1479 3418924
2729.9849 1470.0345 6128.7207 4734273
2797.2729 1486.4911 6197.3296 4337974
2792.1008 1464.5143 6105.7061 2560786
2840.6873 1470.9366 6132.481 6373437
2922.7515 1494.3129 6229.939 11372930
2996.5557 1512.9354 6307.5781 13083287
3094.5771 1543.1754 6433.6523 12819860
3146.5115 1549.9768 6462.0078 11964034
3162.1292 1538.9402 6415.9946 11437431
3156.0916 1517.7517 6327.6582 10778986
3233.1802 1536.5668 6406.0996 9989985
3276.7136 1539.1829 6417.0068 8213315
3199.7861 1485.8038 6194.4639 7160631
3232.4907 1483.965 6186.7979 8543054
3253.7166 1476.957 6157.5811 8279627
3271.167 1468.4098 6121.9468 8148297
3404.6135 1511.5491 6301.7983 8279882
3530.0334 1550.2271 6463.0508 9266520
3690.6697 1603.3743 6684.6265 10187621
3731.8364 1604.0413 6687.4082 10714478
3844.8911 1635.269 6817.5996 10516842
3832.9321 1613.2308 6725.7197 10253670
3897.9834 1623.7252 6769.4722 10056805
3888.5471 1603.2937 6684.291 10122344
3850.9607 1571.7847 6552.9268 12821655
3797.9456 1534.6703 6398.1934 10650744
3898.3452 1559.6686 6502.4136 14204337
3975.053 1574.7915 6565.4629 12295314
4142.5586 1625.244 6775.8037 13282979
3983.4211 1547.8065 6452.9595 13019545
3825.1526 1472.1761 6137.6489 11967372
4016.0425 1531.0845 6383.2437 7823184
4138.6299 1563.0967 6516.7056 9465452
4219.3672 1578.8569 6582.4116 6966076
4494.1323 1666.2671 6946.8335 8479059
4492.0298 1650.3693 6880.5542 8018508
4594.4893 1672.8281 6974.187 8018507
4611.5967 1664.0873 6937.7456 8150093
4655.064 1664.9287 6941.2534 8214855
4466.7476 1583.5819 6602.1108 11701623
4551.6553 1599.672 6669.1919 12159859
4593.73 1600.5609 6672.8979 12620920
4628.2153 1598.8132 6665.6113 12752506
4632.6172 1586.7904 6615.4878 13873045
4664.1367 1584.1803 6604.6055 13279882
4685.4292 1578.1687 6579.5425 12686721
4710.1553 1573.4033 6559.6753 12817280
4720.4136 1563.9225 6520.1489 12685949
4739.0991 1557.3651 6492.8105 12816252
4789.1309 1561.1316 6508.5132 12552570
4905.3945 1586.2549 6613.2549 7749948
5151.6714 1652.6892 6890.2261 7951687
5351.9663 1703.4435 7101.8257 8083790
5562.2798 1756.5695 7323.313 8413268
5621.4561 1761.5132 7343.9238 8216659
5676.0229 1764.9476 7358.2427 8150864
5850.4404 1805.3129 7526.5293 8019535
5952.4868 1822.9042 7599.8691 7163968
6106.7524 1856.1029 7738.2783 7756104
6133.063 1850.2058 7713.6924 8151119
6457.3784 1933.6321 8061.5044 8217168
6734.9717 2001.9448 8346.3076 8085327
6849.4883 2021.1411 8426.3389 6966847
7021.2412 2056.8264 8575.1143 7229250
7047.6187 2049.7183 8545.4795 6309436
7151.5244 2065.0989 8609.6025 4402987
7264.1226 2082.7537 8683.208 2429716
7215.5859 2054.2849 8564.5186 262662
7436.2441 2102.3188 8764.7764 8
7037.5278 1975.7958 8237.2891 65544
7091.2822 1977.1727 8243.0303 10
7050.5605 1952.3695 8139.6226 12
7051.2441 1939.2909 8085.0967 12
7095.3242 1938.2437 8080.7305 12
7130.5122 1934.7975 8066.3638 14
6629.9453 1786.9933 7450.1528 15
7223.4443 1934.0815 8063.3784 15
7980.6841 2122.79 8850.123 16
8034.0752 2123.0393 8851.1631 16
7973.9102 2093.4722 8727.8945 16
8122.6309 2118.7739 8833.3799 16
8173.8823 2118.4895 8832.1943 16
8208.8516 2114.0156 8813.542 16
8303.9932 2124.9966 8859.3223 16
8134.6284 2068.5774 8624.1055 16
8331.6504 2105.4507 8777.833 16
8347.6592 2096.407 8740.1299 16
0 0 0 0
0 0 0 0
0 0 0 0
0 0 0 0
0 0 0 0
0 0 0 0
0 0 0 0
