# .PCD v0.7 - Point Cloud Data file format
VERSION 0.7
FIELDS x y z rgb
SIZE 4 4 4 4
TYPE F F F U
COUNT 1 1 1 1
WIDTH 1395
HEIGHT 1
VIEWPOINT 0 0 0 1 0 0 0
POINTS 1395
DATA ascii
1322.62 1796.2932 6005.2178 3815224
1366.6948 1807.5171 6042.7402 5262412
1398.9968 1802.9952 6027.6235 4472896
1461.3933 1836.5181 6139.6943 6643808
1530.1771 1876.2443 6272.5034 6643296
1575.8553 1886.4265 6306.5439 3945527
1569.3464 1835.1121 6134.9941 5523530
1638.9528 1873.1117 6262.0308 5127232
1656.437 1851.1782 6188.7051 2365464
0 0 0 0
1673.3008 1790.7268 5986.6089 6573647
1816.7046 1903.8286 6364.7212 4668731
1848.4996 1897.7472 6344.3901 6249304
1975.4484 1987.6495 6644.9443 12697024
1983.7843 1957.0249 6542.5625 3025454
2000.467 1935.6506 6471.106 4339006
2044.2667 1940.8254 6488.4058 1445905
2072.8396 1931.6196 6457.6299 5979714
2125.1118 1944.432 6500.4634 8872802
2198.6396 1975.8903 6605.6318 8609111
2293.4578 2025.0465 6769.9668 8411472
2349.0757 2038.4954 6814.9277 9464414
2415.0791 2060.3494 6887.9883 10056295
2428.5884 2037.4376 6811.3921 10188138
2433.9675 2008.5657 6714.8696 10911605
2489.4043 2021.2671 6757.3315 10385261
2480.3772 1982.0537 6626.2368 11371899
2487.5393 1956.7975 6541.8022 10056296
2515.1069 1948.1218 6512.7988 10055782
2570.6631 1961.0601 6556.0527 10516589
2662.123 2000.5947 6688.2217 10450541
2743.7842 2031.7135 6792.2554 9792866
2817.5061 2056.1387 6873.9111 10056037
2945.7234 2119.0701 7084.2983 10977138
3000.9592 2128.4697 7115.7227 11766140
3089.7878 2161.105 7224.8262 11700601
3097.0725 2136.5928 7142.8794 10844778
3121.6531 2124.5129 7102.4946 12751991
3145.3677 2112.1729 7061.2402 12027751
3235.1379 2143.9324 7167.4155 11237727
3240.4697 2119.636 7086.1899 9855568
3262.0867 2106.4771 7042.1987 9066055
3289.8357 2097.5608 7012.3906 8147011
3424.2048 2155.9988 7207.7554 6635318
3674.71 2285.219 7639.7534 2492679
3420.4814 2101.2312 7024.6616 8281685
3668.2126 2226.3188 7442.8438 9860458
3825.2654 2294.053 7669.2871 8873568
3925.6038 2326.584 7778.0415 9729900
3976.9094 2329.6367 7788.2471 7361611
3944.7146 2284.2666 7636.5698 6176566
4054.5933 2321.2634 7760.2544 6900031
4008.7258 2269.2651 7586.4185 8413525
4244.5562 2376.1155 7943.6318 8479061
4299.9575 2380.7253 7959.042 8413524
4383.3545 2400.5669 8025.3755 8347475
4571.3628 2476.6584 8279.7578 8281940
4455.7578 2388.3901 7984.667 8281939
4594.2666 2436.7563 8146.3608 8019022
0 0 0 0
0 0 0 0
0 0 0 0
0 0 0 0
0 0 0 0
0 0 0 0
0 0 0 0
0 0 0 0
0 0 0 0
0 0 0 0
0 0 0 0
0 0 0 0
0 0 0 0
0 0 0 0
0 0 0 0
0 0 0 0
0 0 0 0
0 0 0 0
0 0 0 0
0 0 0 0
0 0 0 0
0 0 0 0
10713.591 4576.3477 15299.264 196614
10898.278 4616.1714 15432.4 262156
11663.506 4899.1851 16378.548 131086
11073.398 4612.9258 15421.55 131087
11149.45 4606.5884 15400.361 17
11303.881 4632.4741 15486.901 17
11592.142 4712.3462 15753.923 16
11623.829 4687.4756 15670.777 16
11661.241 4665.2891 15596.605 16
11885.812 4717.7388 15771.951 16
12163.468 4790.2773 16014.456 16
12460.238 4869.1606 16278.173 16
12785.056 4957.709 16574.199 15
12833.611 4938.5967 16510.305 14
12905.614 4928.728 16477.312 8
0 0 0 0
0 0 0 0
0 0 0 0
0 0 0 0
0 0 0 0
0 0 0 0
0 0 0 0
0 0 0 0
0 0 0 0
0 0 0 0
0 0 0 0
0 0 0 0
0 0 0 0
0 0 0 0
0 0 0 0
0 0 0 0
0 0 0 0
0 0 0 0
0 0 0 0
0 0 0 0
0 0 0 0
0 0 0 0
0 0 0 0
0 0 0 0
0 0 0 0
9335.6494 2979.2473 9959.9707 9796992
8919.2998 2828.4961 9455.9922 9534333
8820.9922 2779.8552 9293.3809 9403004
8889.8672 2784.1775 9307.8301 9600127
0 0 0 0
0 0 0 0
0 0 0 0
0 0 0 0
0 0 0 0
0 0 0 0
0 0 0 0
0 0 0 0
-2724.437 935.95197 3068.209 2303266
-2763.3018 955.6817 3132.8867 1118476
-2694.0054 938.01819 3074.9824 7040099
-2687.0298 941.96106 3087.908 1907990
-2669.0286 942.06635 3088.2532 658182
-2644.2405 939.76105 3080.696 5855052
-2618.4639 937.06989 3071.874 6052939
-2665.1816 960.46637 3148.5715 8487024
-2660.3662 965.49054 3165.0415 6710611
-2627.1052 960.18933 3147.6633 6117961
-2599.7124 956.97229 3137.1174 1446918
-2581.6794 957.17938 3137.7961 5261881
-2573.7524 961.16345 3150.8567 5789767
-2562.0964 963.80292 3159.5093 2565400
-2541.658 963.15308 3157.3792 2894108
-2529.2161 965.54663 3165.2253 788739
-2520.3147 969.33746 3177.6526 2301203
-2495.4858 967.01337 3170.0337 1183239
-2436.3577 951.26215 3118.3984 2959393
-2457.8159 966.9751 3169.9082 3682092
-2444.9348 969.31598 3177.582 328705
-2428.468 970.26056 3180.6785 262144
-2382.3774 959.2915 3144.7202 2564639
-2389.9258 969.91821 3179.5564 0
-2370.1152 969.5224 3178.2588 5657675
-2362.1011 973.98425 3192.8855 5066052
-2335.1995 970.66724 3182.0117 2565666
-2315.0974 970.14563 3180.3018 8947322
-2308.5691 975.35022 3197.3633 723718
-2315.4041 986.33356 3233.3687 7105371
-2283.5891 980.89838 3215.5513 3749158
-2232.9939 967.23706 3170.7671 6841681
-2211.0701 965.86829 3166.28 5656889
-2221.2427 978.61707 3208.0725 7565141
-2177.3279 967.55072 3171.7952 4604456
-2164.9055 970.40796 3181.1619 6775620
-2147.8054 971.20026 3183.759 8617570
-2121.9385 968.0072 3173.2917 1512712
-2105.1882 968.95319 3176.3928 1380613
-2071.9548 962.26117 3154.4553 6446402
-2048.9478 960.23999 3147.8293 7433038
-2034.3218 962.14532 3154.0754 3814166
-2036.9766 972.3349 3187.4785 3682589
-2024.2239 975.29175 3197.1716 5986109
-1993.568 969.59698 3178.5034 5460281
-1969.2336 966.89752 3169.6541 2696980
-1990.3138 986.65961 3234.4373 7235667
-1969.3545 985.76282 3231.4976 1248769
-1983.811 1002.75 3287.1846 4012067
-1900.02 969.9209 3179.5652 9407087
-1892.896 975.96307 3199.3723 4209694
-1878.8274 978.51056 3207.7236 7894103
-1878.3734 988.27338 3239.7275 6644296
-1901.0018 1010.5075 3312.6147 3815719
-1869.7961 1004.2908 3292.2356 6447693
-1866.3583 1013.0146 3320.8335 9868410
-1831.0214 1004.4258 3292.678 6446918
-1798.7401 997.34631 3269.4702 4604973
-1797.3923 1007.451 3302.595 6513230
-1761.7191 998.32672 3272.6843 6842195
-1767.076 1012.509 3319.176 2170384
-1737.3744 1006.6965 3300.1216 5065273
-1733.9906 1016.1744 3331.1921 5065273
-1741.1416 1032.1158 3383.4507 8222565
-1706.3585 1023.2812 3354.4893 3617058
-1734.1478 1052.2045 3449.3044 9801581
0 0 0 0
0 0 0 0
-1600.7065 1006.8427 3300.6011 7235398
-1581.0015 1006.7505 3300.2986 6775618
-1568.4313 1011.256 3315.0686 5262635
-1541.886 1006.7511 3300.3008 9013615
-1514.6683 1001.6858 3283.6958 3881506
-1456.6385 975.84668 3198.9907 196864
-1419.3374 963.39587 3158.175 3420712
-1455.5262 1001.1613 3281.9766 3420190
-1489.9648 1038.7295 3405.1316 4867120
-1469.618 1038.6113 3404.7441 7696476
-1470.7073 1053.8501 3454.6992 2433299
-1443.4194 1048.8982 3438.4658 4077606
-1455.3707 1072.7268 3516.5803 1577731
-1458.509 1090.6575 3575.3601 2301453
-1403.0266 1064.6346 3490.053 5788735
-1376.7284 1060.3099 3475.8757 4472619
-1342.1595 1049.3872 3440.0693 5591869
-1331.6552 1057.2329 3465.7886 1052160
-1342.043 1082.171 3547.5403 2367500
-1296.1223 1061.7755 3480.6799 6775623
-1237.8353 1030.426 3377.9109 7959894
-1232.0089 1042.434 3417.2751 9998702
-1208.5669 1039.6893 3408.2778 7038012
-1172.0502 1025.4124 3361.4756 8221771
-1150.4805 1023.9448 3356.6648 7826494
-1120.4781 1014.7886 3326.6489 7563833
-1117.5107 1030.2274 3377.2603 6906164
-1113.446 1045.1996 3426.3413 7498306
-1095.8053 1047.7471 3434.6926 5787952
-1085.554 1057.5902 3466.9602 10919297
-1059.7692 1052.3879 3449.906 7564368
-1051.7998 1065.0203 3491.3169 7103561
-1042.703 1076.995 3530.5723 4472860
-1027.5826 1083.1111 3550.6218 7697496
-991.11621 1066.5131 3496.2104 7368020
-982.67523 1080.0076 3540.4478 8683623
-969.74524 1089.0496 3570.0891 7039055
-962.66077 1105.2059 3623.0525 5130288
-955.31537 1121.7932 3677.4282 3945764
-918.90826 1104.2319 3619.8596 4077865
-894.34991 1100.4099 3607.3303 7433822
-873.72986 1101.3651 3610.4617 4867640
-845.22253 1092.1765 3580.3398 10328962
-805.21661 1067.2739 3498.7046 10000507
-794.24103 1080.55 3542.2263 7169080
-753.98627 1053.632 3453.9844 8682574
-727.80042 1045.4204 3427.0652 8616012
-709.31451 1048.115 3435.8987 8944468
-688.5271 1047.4677 3433.7764 8681554
-675.73242 1059.3107 3472.5999 8220747
-670.9776 1084.8971 3556.4766 7432002
-637.62238 1064.3999 3489.2832 8879449
-614.89783 1060.8694 3477.7097 9406049
-594.12671 1060.5812 3476.7649 9077086
-571.57153 1056.9731 3464.937 9537895
-552.08008 1058.9728 3471.4919 8550483
-534.95758 1065.847 3494.0273 4537874
-510.09061 1057.2238 3465.7585 5064491
-497.14716 1073.6265 3519.5295 5459757
-480.50037 1083.118 3550.6445 5064236
-461.90182 1088.8779 3569.5264 3879968
-453.21753 1119.684 3670.5139 5064502
-436.94498 1133.9042 3717.1301 5788742
-413.15323 1129.0856 3701.3337 7039324
-392.30374 1132.218 3711.6028 4210486
-382.82657 1170.4937 3837.0767 4538937
-350.37531 1138.9242 3733.5867 5986126
-323.66153 1123.0062 3681.4045 7302233
-294.46991 1095.5682 3591.4585 4999477
-285.6846 1145.6912 3755.77 6973268
-327.50952 1424.3971 4669.415 6249292
-234.87764 1115.8009 3657.7842 7301721
-226.24208 1184.0531 3881.5269 8091751
-205.98915 1200.0734 3934.0439 8091752
0 0 0 0
-150.54414 1133.6763 3716.3831 9079938
0 0 0 0
0 0 0 0
0 0 0 0
-78.810249 1430.7196 4690.1411 6776677
-53.097588 1489.1118 4881.561 8816263
-24.222429 1492.4399 4892.4712 3421496
4.7799544 1495.1158 4901.2432 2697773
34.096661 1507.0896 4940.4951 10921642
63.368286 1506.9279 4939.9648 6184288
93.461372 1520.2301 4983.5718 7434357
123.34653 1524.574 4997.812 6250084
154.25578 1537.4426 5039.9976 5921119
185.22214 1546.6132 5070.0601 7039855
216.30081 1554.0308 5094.376 2500137
239.67688 1511.0692 4953.541 4474176
271.52155 1525.0487 4999.3682 1118226
308.25031 1561.0112 5117.2593 1117710
336.30725 1550.5497 5082.9648 5592150
377.55444 1597.623 5237.2788 4144706
409.98843 1603.0844 5255.1826 4802891
456.23016 1657.9524 5435.0488 4210754
497.51453 1688.7567 5536.0308 4145217
516.82825 1645.7866 5395.1675 5000271
555.01166 1664.4109 5456.2212 2960687
578.37592 1638.9906 5372.8892 5658457
641.61304 1723.3184 5649.3296 3289907
657.4978 1678.4049 5502.0957 526602
682.17615 1659.1227 5438.8853 12632508
711.41138 1652.1631 5416.0703 4276545
764.9931 1699.9052 5572.5771 3487030
803.36469 1711.2958 5609.9175 5460821
826.40009 1690.4106 5541.4526 3684410
856.90137 1685.8101 5526.3711 5197651
923.9762 1750.8516 5739.5884 7697528
946.12335 1729.1635 5668.4907 6513765
986.56897 1741.2583 5708.1401 6908268
1041.3853 1777.0747 5825.5522 8092285
1055.9261 1744.0696 5717.3555 8487301
1089.1735 1743.0533 5714.0244 5263188
1134.1243 1760.2633 5770.4414 6842218
1175.7104 1771.3965 5806.938 3815996
1230.8458 1801.7301 5906.3765 4539205
1267.8269 1804.5464 5915.6089 4078140
1305.2534 1807.8279 5926.3662 3222829
1344.9768 1814.0355 5946.7158 3353903
1378.8199 1812.1976 5940.6914 2630436
1403.7522 1799.0312 5897.5293 3617331
1447.8757 1810.5022 5935.1333 5656914
1501.9974 1833.635 6010.9663 6051928
1533.4189 1828.6255 5994.5444 3880246
1578.4543 1839.7101 6030.8813 3287596
1578.7051 1799.2622 5898.2866 2694943
1614.0901 1799.7423 5899.8604 3549482
1641.2131 1791.1849 5871.8081 6113353
1711.2432 1828.8386 5995.2432 1445904
1741.9517 1823.7916 5978.6978 4800576
1847.6166 1895.8594 6214.9482 4670279
1890.89 1902.3407 6236.1953 5130574
1973.7318 1947.6183 6384.623 4209725
2030.3143 1965.7683 6444.1216 6775911
1977.6218 1879.4004 6160.9927 9340813
2095.4019 1955.2325 6409.584 4405311
2113.4326 1936.9452 6349.6348 393988
2134.2915 1921.8441 6300.1309 4140078
2255.95 1996.4678 6544.7593 9332839
2308.9507 2008.835 6585.3018 9464162
2338.1458 2000.4244 6557.73 8872281
2380.1545 2003.0721 6566.4097 8543058
2420.7441 2004.4596 6570.958 8806230
2425.4475 1976.5586 6479.4941 8410960
2474.9458 1985.4629 6508.6841 8411217
2458.28 1941.8298 6365.6475 8543060
2586.1765 2011.9816 6595.6167 9003353
2628.5283 2014.4838 6603.8193 9923686
2691.6887 2032.6261 6663.293 8148815
2835.2319 2110.0669 6917.1572 12622481
2870.5752 2105.9226 6903.5713 11701122
2924.1968 2115.1157 6933.7075 9595230
2937.585 2095.3557 6868.9312 9068626
2904.9241 2043.7385 6699.7212 9397332
3034.5532 2106.1516 6904.3218 9725270
3111.0859 2130.5425 6984.2793 11633768
3103.7371 2097.603 6876.2979 11501922
3063.7805 2043.7654 6699.8096 10975831
3103.0298 2043.4656 6698.8267 12621181
3215.6504 2090.8811 6854.2622 10647142
3283.2136 2108.1816 6910.9766 10713453
3386.686 2147.8296 7040.9492 11240056
3407.2473 2134.5701 6997.4829 10977655
3516.739 2176.6729 7135.502 10648691
3603.8369 2204.0791 7225.3447 8874076
3633.0703 2195.8677 7198.4263 8742233
3667.4556 2190.9248 7182.2227 10254187
3708.665 2190.1252 7179.6016 5189161
3800.7468 2219.0457 7274.4072 8545368
3844.6689 2219.5144 7275.9448 7164226
4010.3589 2289.4895 7505.3345 8019269
4042.9016 2282.7502 7483.2427 9927008
4013.9695 2241.8235 7349.0771 11373685
4063.0654 2244.8865 7359.1182 10584684
4172.1436 2280.6731 7476.4331 9728606
4302.2793 2327.0979 7628.6216 8017477
4464.4966 2389.7297 7833.939 6702389
4436.3926 2350.2463 7704.5059 8676179
4482.0142 2350.2268 7704.4419 9201752
4482.313 2326.6816 7627.2568 8609358
4438.2554 2280.8118 7476.8882 5122072
4485.8223 2282.4695 7482.3218 2820102
4555.2456 2295.1064 7523.748 4203549
4662.4014 2326.325 7626.0879 6571064
0 0 0 0
0 0 0 0
0 0 0 0
0 0 0 0
5148.9395 2450.3274 8032.5884 8018252
5309.3188 2503.5049 8206.9131 7821128
0 0 0 0
0 0 0 0
0 0 0 0
0 0 0 0
0 0 0 0
0 0 0 0
0 0 0 0
0 0 0 0
0 0 0 0
0 0 0 0
0 0 0 0
0 0 0 0
0 0 0 0
0 0 0 0
0 0 0 0
0 0 0 0
9581.8223 3909.3274 12815.438 1180681
0 0 0 0
0 0 0 0
0 0 0 0
0 0 0 0
0 0 0 0
0 0 0 0
0 0 0 0
0 0 0 0
0 0 0 0
0 0 0 0
0 0 0 0
0 0 0 0
0 0 0 0
0 0 0 0
0 0 0 0
0 0 0 0
8012.4116 2880.8391 9443.8789 10191747
7874.8433 2811.7371 9217.3506 10520970
0 0 0 0
0 0 0 0
0 0 0 0
0 0 0 0
7738.9448 2670.5911 8754.6504 9138800
7968.9014 2731.6326 8954.7549 9007471
8048.8999 2740.8032 8984.8174 8941420
8083.4028 2734.4626 8964.0322 9073005
8234.2041 2767.2898 9071.6455 8809834
8562.2119 2858.8589 9371.8242 9073006
8541.5098 2833.5664 9288.9111 9006700
8315.1523 2740.8105 8984.8418 8743786
8886.2783 2910.426 9540.8701 8348257
8687.3145 2827.2725 9268.2783 8479843
8933.2744 2889.0535 9470.8076 8545637
8956.6055 2878.5137 9436.2559 8348259
8956.8672 2860.7366 9377.9795 8348258
0 0 0 0
0 0 0 0
0 0 0 0
0 0 0 0
0 0 0 0
0 0 0 0
0 0 0 0
0 0 0 0
0 0 0 0
-2776.2212 978.80292 3147.5342 2501670
-2734.6553 970.66986 3121.3809 1514260
-2675.363 956.09125 3074.5005 1711127
-2678.781 963.87708 3099.5374 3750964
-2642.145 957.25873 3078.2546 6710876
-2653.0884 967.90637 3112.4944 8026733
-2660.0583 977.24341 3142.5193 9211007
-2663.6233 985.45221 3168.9165 3486510
-2583.0674 962.43481 3094.8994 3157028
-2642.6836 991.68884 3188.9714 722690
-2589.7415 978.82172 3147.5947 1907478
-2579.7212 982.10834 3158.1636 3419945
-2566.8303 984.34216 3165.3469 1841172
-2504.4443 967.48846 3111.1506 65536
-2535.3252 986.68182 3172.8706 853765
-2516.9365 986.8443 3173.3931 262144
-2475.6885 977.97919 3144.8853 197121
-2449.9446 975.15045 3135.7891 4538940
-2493.1287 999.92365 3215.4521 788997
-2476.2021 1000.7841 3218.219 1315082
-2436.4731 992.37042 3191.1633 2828580
-2396.6157 983.7724 3163.5146 1644563
-2365.7317 978.7514 3147.3687 2105115
-2338.7065 975.2597 3136.1404 5855311
-2365.8918 994.49933 3198.0093 2039323
-2367.4424 1003.1871 3225.9468 3092775
-2302.8843 983.77539 3163.5242 5000771
-2288.5042 985.65649 3169.5732 4605751
-2316.5735 1006.0029 3235.0015 4934972
-2309.6204 1011.3532 3252.2061 4539185
-2243.0947 990.48792 3185.1096 4868154
-2187.6968 974.22382 3132.8093 7236947
-2176.936 977.72925 3144.0818 4407593
-2173.2627 984.50586 3165.8733 7039311
-2144.9883 980.15894 3151.8948 7434067
-2136.5496 984.87921 3167.074 4276261
-2112.9868 982.64984 3159.9048 2631183
-2098.6763 984.72174 3166.5674 4408101
-2080.8479 985.16553 3167.9946 8288864
-2068.6702 988.31702 3178.1287 986372
-2054.6587 990.64227 3185.6062 920579
-2036.9247 991.19928 3187.3972 2893593
-2027.1251 995.66394 3201.7542 7038035
-1972.4938 977.98462 3144.9031 2762260
-1968.3397 985.23413 3168.2151 4143653
-1954.5592 987.75842 3176.3325 4538672
-1947.965 993.99884 3196.3997 1512198
-1955.3057 1007.5423 3239.9514 7368272
-1904.4937 991.09174 3187.0515 8288862
-1899.1526 998.21173 3209.9473 4539433
-1868.6324 992.10742 3190.3176 9539704
-1848.8607 991.64343 3188.8254 7500125
-1827.667 990.39911 3184.8242 4077348
-1807.8663 989.89178 3183.1929 3485722
-1818.3733 1006.1435 3235.4534 3288090
-1813.0953 1013.9144 3260.4421 6644300
-1776.6716 1004.2479 3229.3577 3025692
-1769.8176 1011.2668 3251.9285 7039574
-1775.9474 1025.9408 3299.1157 6644559
-1735.7412 1013.8759 3260.3184 1249029
-1742.0004 1028.9862 3308.9084 5525054
-1729.4122 1033.1807 3322.3967 3945509
-1702.7964 1028.995 3308.9368 4998448
-1673.7778 1023.2427 3290.4395 4670249
0 0 0 0
0 0 0 0
0 0 0 0
-1612.1713 1033.7543 3324.2412 8551516
-1584.4263 1028.5319 3307.4475 4209950
-1569.1699 1031.3875 3316.6301 328704
-1537.4066 1023.3279 3290.7129 9671288
-1509.4366 1017.6187 3272.354 1908250
-1482.5365 1012.4915 3255.8665 196864
-1383.8754 957.57391 3079.2683 3880233
-1479.87 1037.6809 3336.8679 4011814
-1485.5696 1055.7854 3395.0867 2038285
-1474.1779 1062.0737 3415.3081 3946280
-1466.2681 1071.0807 3444.2717 5919813
-1442.2407 1068.4021 3435.658 1906183
-1455.8301 1093.9119 3517.6902 1643268
-1461.4757 1114.1074 3582.6328 2695955
-1415.2958 1094.8085 3520.573 3419937
-1368.2289 1074.2354 3454.4165 1051648
-1348.4154 1074.76 3456.1035 1249287
-1292.5323 1046.1079 3363.967 7236693
-1283.0458 1054.6973 3391.5876 6578501
-1248.9371 1042.9979 3353.9663 7696719
-1224.824 1039.4026 3342.4045 8880990
-1216.9592 1049.7042 3375.5315 10656632
-1199.5114 1051.946 3382.7402 6708790
-1192.1444 1063.255 3419.1067 8155975
-1158.7708 1051.359 3380.8528 7366456
-1129.5922 1042.9176 3353.7078 6379560
-1105.813 1039.2483 3341.9082 6971448
-1107.1011 1059.433 3406.8164 8156494
-1085.7162 1058.2678 3403.0696 7827025
-1078.1139 1070.7469 3443.1987 7958869
-1054.5787 1067.5784 3433.0095 5656625
-1029.278 1062.4626 3416.5586 5525037
-1020.7068 1074.757 3456.0935 6775878
-1000.2402 1074.7729 3456.145 5591348
-991.05035 1087.1602 3495.9783 6972490
-969.18567 1085.8754 3491.8467 7498579
-959.88794 1098.9216 3533.7996 4011298
-944.43433 1105.3452 3554.4558 4011045
-940.74915 1126.1494 3621.3562 5458750
-925.00806 1133.1564 3643.8884 262912
-884.92047 1109.9603 3569.2971 5394484
-870.33246 1118.3958 3596.4229 10657413
-856.00153 1127.5933 3625.999 9933172
-799.76477 1080.6415 3475.0164 9011810
-777.69458 1078.5936 3468.4312 9011292
-748.54352 1066.3475 3429.0513 9273945
-714.6767 1046.5126 3365.2681 9142102
-710.57684 1070.3784 3442.0134 7563843
-692.62848 1074.1776 3454.2305 8879959
-668.54907 1068.4103 3435.6843 6707761
-655.1391 1079.8669 3472.5259 7498303
-634.39618 1079.5878 3471.6282 7169088
-621.77368 1093.5723 3516.5979 7564099
-594.14697 1081.2222 3476.8835 10261615
-571.99323 1078.302 3467.4932 9011806
-551.6145 1078.635 3468.5645 6446132
-530.77094 1078.0499 3466.6826 5261093
-514.95905 1088.049 3498.8367 5986107
-487.96353 1074.2659 3454.5144 9143917
-468.86029 1077.4116 3464.6301 4471850
-447.0177 1074.2625 3454.5034 3682592
-435.99692 1098.0658 3531.0479 3682598
-413.64923 1094.3041 3518.9512 3880491
-400.61206 1116.0815 3588.9807 3748904
-391.31348 1151.3003 3702.2339 4603955
-361.81824 1127.7521 3626.5098 6643534
-343.00726 1136.6345 3655.073 5854268
-316.06873 1117.9666 3595.0422 7762518
-293.79922 1114.3082 3583.2786 6117949
-271.44135 1109.7188 3568.52 7367758
-250.26053 1109.5725 3568.0498 8880742
-229.11974 1109.593 3568.1157 7959899
-205.51027 1096.4465 3525.8408 9605495
-188.36821 1118.7351 3597.5137 7630934
-167.79277 1123.719 3613.5405 8420194
-147.49603 1132.3008 3641.1367 9143661
-124.88425 1123.0059 3611.2473 8814955
-104.52325 1134.2922 3647.541 6841170
0 0 0 0
-78.419464 1451.2822 4666.8848 3289905
-51.807655 1481.1625 4762.9707 2170913
-23.132521 1452.9757 4672.3306 4474184
4.6334171 1477.4359 4750.9873 5329493
33.096645 1491.308 4795.5957 6908525
61.347206 1487.207 4782.4082 6250337
91.036819 1509.5602 4854.2891 5000269
122.15031 1539.1194 4949.3428 8355713
152.2317 1546.7452 4973.8652 8289921
180.20932 1533.9891 4932.8452 7763319
0 0 0 0
0 0 0 0
0 0 0 0
295.03812 1523.1294 4897.9238 6381663
329.38559 1548.1401 4978.3506 6250334
362.01331 1561.6201 5021.6982 4342339
409.42725 1631.9908 5247.9893 5000270
434.65436 1610.2312 5178.0171 6842474
469.55365 1624.8104 5224.8994 4144449
494.24994 1604.4645 5159.4727 4934477
534.30554 1633.4443 5252.6636 3815995
572.1402 1652.8177 5314.9619 4539461
599.18097 1640.6144 5275.7197 4078655
633.27832 1647.9851 5299.4219 2039073
662.23181 1641.9055 5279.8721 1315604
701.02484 1659.6697 5336.9961 3881279
752.34894 1704.2867 5480.4707 4342341
789.77197 1715.0243 5514.9995 4802890
817.38702 1704.4562 5481.0156 10592676
826.55176 1657.6927 5330.6387 5328981
883.29883 1706.2883 5486.9072 4342087
924.53271 1722.5297 5539.1348 3026737
937.23767 1686.3268 5422.7168 5855323
989.47192 1721.2894 5535.1465 6315873
1022.3176 1721.3622 5535.3804 3157552
1071.7885 1748.5533 5622.8188 4473670
1119.7291 1771.6835 5697.1987 8881803
1127.0702 1731.1017 5566.6997 5657947
1192.0731 1778.8738 5720.3203 6052445
1216.1945 1764.6852 5674.6943 4867658
1260.8242 1780.2173 5724.6406 1051920
1297.787 1784.3933 5738.0698 1183250
1322.2134 1771.5594 5696.7998 854540
1352.3165 1766.7812 5681.4346 1905944
1417.8005 1807.3369 5811.8491 4340542
1462.1025 1819.6074 5851.3076 2827815
1458.877 1773.531 5703.1396 7367274
1498.297 1780.2109 5724.6201 4340539
1538.5679 1787.5835 5748.3281 4011059
1582.3922 1798.6757 5783.9976 4207925
1635.4487 1819.5693 5851.1851 6247763
1685.3915 1836.2029 5904.6733 721669
1695.6541 1809.8083 5819.7964 4867143
1766.5264 1847.8666 5942.1802 5262416
1784.0802 1829.7535 5883.9341 3748663
1836.0803 1846.9858 5939.3481 3879477
1886.264 1861.7771 5986.9126 4734786
1918.4191 1858.5563 5976.5552 5393742
2005.8531 1908.0355 6135.6655 6643554
2025.7233 1892.6277 6086.1187 8157302
2067.0642 1897.4685 6101.6851 8749186
2199.3784 1984.2162 6380.6396 4275007
2222.2407 1970.9559 6337.9985 1971994
2266.855 1977.1083 6357.7827 1378057
2267.6028 1945.4254 6255.9004 6374469
2350.3271 1983.9598 6379.8154 11108733
2415.4182 2006.6256 6452.7012 11832967
2438.5413 1994.2626 6412.9458 10450799
2477.8689 1995.3282 6416.3726 9924711
2531.5596 2007.7526 6456.3252 9727332
2536.8977 1982.0302 6373.6099 8674389
2541.7161 1956.6622 6292.0347 7358271
2682.3081 2035.038 6544.0669 8081993
2832.938 2118.6868 6813.0562 8015684
2876.2717 2120.8679 6820.0703 9068370
2862.6772 2081.5933 6693.7749 11568759
2941.9084 2109.9678 6785.019 12884106
2985.0454 2112.0393 6791.6802 13213324
2992.0454 2088.8271 6717.0371 11962484
3037.1746 2092.4944 6728.8296 10515036
3053.5769 2076.5312 6677.4966 9725520
3087.3091 2072.6106 6664.8892 9922898
3130.957 2075.3616 6673.7354 10186585
3191.8613 2089.3398 6718.6851 8212542
3316.6033 2144.2458 6895.2461 11436913
3401.9688 2172.6675 6986.6416 12029054
3385.6208 2136.2275 6869.4619 12884619
3380.4795 2107.6406 6777.5347 13410710
3451.5315 2126.6714 6838.7324 13739676
3402.6528 2072.2227 6663.6416 12292744
3737.2683 2249.8928 7234.9751 5319718
3684.3564 2192.8811 7051.6426 5450788
3874.1174 2279.9641 7331.6753 9399131
3918.9692 2280.7803 7334.3003 11308913
3928.9502 2261.5071 7272.3232 13875599
3970.3003 2260.5122 7269.124 13216388
3899.9766 2196.6392 7063.7275 5781300
3914.3923 2181.345 7014.5464 2823958
4045.1987 2230.5508 7172.7769 5126967
4096.1865 2235.1785 7187.6577 6441800
4083.7339 2205.4492 7092.0576 12493447
4290.478 2293.4983 7375.1978 10124134
4385.3237 2320.5591 7462.2168 7754814
4428.5835 2320.0547 7460.5947 6504496
4580.3818 2375.8599 7640.0469 2692364
4639.7041 2383.074 7663.2451 1312259
4596.1274 2337.8091 7517.6875 10913634
4572.4448 2303.4353 7407.1514 12097658
4617.5195 2304.0229 7409.0415 10979181
4557.4829 2252.646 7243.8286 10058091
4625.0073 2264.6897 7282.5576 6703163
4998.3096 2424.8542 7797.5981 8479317
5160.0342 2480.3811 7976.1558 8281938
5288.2686 2518.9473 8100.1733 8018509
5537.4917 2613.9316 8405.6143 7886921
5509.7349 2577.6416 8288.916 8347472
5656.3071 2622.8293 8434.2266 8742230
5777.7227 2655.6624 8539.8076 8939609
5824.1685 2653.7656 8533.708 8939354
0 0 0 0
0 0 0 0
0 0 0 0
0 0 0 0
0 0 0 0
0 0 0 0
0 0 0 0
0 0 0 0
0 0 0 0
0 0 0 0
0 0 0 0
0 0 0 0
0 0 0 0
0 0 0 0
0 0 0 0
0 0 0 0
0 0 0 0
0 0 0 0
0 0 0 0
0 0 0 0
0 0 0 0
0 0 0 0
7468.6245 2836.5566 9121.5088 8742498
7415.7217 2796.2258 8991.8174 9532014
0 0 0 0
0 0 0 0
7878.5322 2908.0474 9351.4014 8282206
7866.4097 2883.2913 9271.793 8808807
7972.6968 2901.9788 9331.8867 9466480
7957.1621 2876.3723 9249.5439 9203564
7766.959 2788.4084 8966.6787 9335152
7725.9346 2754.833 8858.71 9400946
7817.7695 2768.7646 8903.5098 8743015
7946.6787 2795.5515 8989.6484 9072751
7731.519 2701.7483 8688.0059 9467509
7791.8555 2704.8201 8697.8838 9468022
7820.4185 2696.8945 8672.3975 9665658
7903.8979 2707.887 8707.7461 10191488
8045.4136 2738.491 8806.1592 9467763
8176.3262 2765.1147 8891.7734 8085852
8180.9321 2748.9561 8839.8115 8085599
8307.4873 2773.7195 8919.4434 9203823
8557.6465 2839.1785 9129.9395 8348514
8502.3281 2803.1023 9013.9297 8151135
8359.3447 2738.7556 8807.0107 7690583
8568.2188 2789.7708 8971.0596 7690327
0 0 0 0
0 0 0 0
0 0 0 0
0 0 0 0
0 0 0 0
0 0 0 0
0 0 0 0
0 0 0 0
0 0 0 0
-2826.6162 1015.5619 3204.6692 10070180
-2749.6152 994.57916 3138.4565 9674652
-2717.7473 989.74695 3123.2083 9148049
-2665.4497 977.35736 3084.1123 10200222
-2644.0168 976.19226 3080.4355 9081996
-2694.2522 1001.6553 3160.7859 4541772
-2652.7476 993.12964 3133.8826 3817532
-2632.1497 992.36578 3131.4722 6316380
-2621.364 995.31683 3140.7844 921613
-2628.2429 1005.0652 3171.5459 328961
-2537.9089 977.51111 3084.5972 5132104
-2562.9636 994.32312 3137.6487 4276798
-2574.5513 1006.118 3174.8682 460549
-2532.04 996.78943 3145.4314 1250321
-2522.3186 1000.3267 3156.5933 2237215
-2513.1975 1004.1566 3168.679 789513
-2473.9729 995.92566 3142.7058 3289902
-2452.0244 994.57739 3138.4512 4342847
-2505.2852 1023.9476 3231.1306 5527121
-2462.481 1014.2047 3200.386 3026988
-2442.3538 1013.7228 3198.8655 1776408
-2413.8313 1009.7216 3186.2393 4868934
-2353.4597 992.22949 3131.042 3223852
-2352.4336 999.67847 3154.5479 5592652
-2359.0725 1010.5304 3188.7917 3750193
-2403.3608 1037.8152 3274.8906 5460807
-2322.2837 1010.9684 3190.1738 8750968
-2300.5413 1009.7233 3186.2449 4474167
-2300.7156 1018.1566 3212.8567 4934974
-2276.4038 1015.8043 3205.4336 1841423
-2244.3203 1009.915 3186.8499 4013347
-2200.4663 998.58441 3151.0955 6250054
-2179.0664 997.33679 3147.1584 5131577
-2175.7893 1004.4339 3169.554 7171411
-2149.175 1000.7873 3158.0469 3684131
-2122.2849 996.9472 3145.9292 2039307
-2123.7681 1006.4855 3176.0278 5788222
-2100.6223 1004.418 3169.5037 6446155
-2076.9043 1002.037 3161.9905 4011817
-2065.2646 1005.4933 3172.897 196608
-2046.0088 1005.2709 3172.1953 2827286
-2021.4673 1002.4233 3163.2095 2695962
-2013.486 1007.8113 3180.2114 1972239
-1981.1526 1000.9969 3158.7085 3287581
-1968.2231 1003.9503 3168.0278 3682849
-1946.2988 1002.3281 3162.9087 1446666
-1938.3329 1007.9327 3180.5945 2499602
-1933.2023 1015.1362 3203.3257 7960675
-1919.9399 1018.1703 3212.8999 5855039
-1898.2747 1016.7643 3208.4631 4078888
-1871.2386 1012.4241 3194.7673 4736560
-1857.8344 1015.4458 3204.3027 3091486
-1834.6815 1013.1467 3197.0476 6314831
-1865.8262 1041.0964 3285.2451 656896
-1859.2225 1048.351 3308.1367 591616
-1791.7391 1021.0661 3222.0378 2828312
-1790.9994 1031.6387 3255.4004 7631204
-1772.327 1031.9995 3256.5391 5197116
-1761.3065 1036.873 3271.9177 2368026
-1743.7075 1037.9392 3275.282 4341039
-1733.6063 1043.5426 3292.9639 2038285
-1724.339 1049.7812 3312.6504 5459777
-1706.4781 1050.8717 3316.0913 3880226
-1615.682 1006.5497 3176.2305 7433297
0 0 0 0
0 0 0 0
0 0 0 0
-1618.5736 1057.6379 3337.4426 6380093
-1602.1957 1059.8875 3344.5408 3683096
-1563.7706 1047.4259 3305.218 2894359
-1535.3232 1041.4161 3286.2537 7434585
-1503.4626 1032.9071 3259.4028 526083
-1462.3318 1017.7246 3211.4937 65536
-1433.3217 1010.6887 3189.2915 2235927
-1483.0396 1059.7206 3344.0146 1248515
-1482.7123 1073.8362 3388.5569 1971978
-1491.0503 1094.701 3454.3975 4406573
-1469.7373 1094.0746 3452.4209 6511950
-1439.7123 1086.8538 3429.6348 3353886
-1442.2107 1104.33 3484.782 1577477
-1425.8589 1107.67 3495.3223 1249028
-1390.6033 1096.207 3459.1497 1380617
-1372.1257 1097.8248 3464.2549 262400
-1384.7319 1124.7395 3549.1858 2236430
-1287.2329 1061.6727 3350.1746 5657401
-1278.9773 1071.3885 3380.8333 9473133
-1261.2826 1073.3806 3387.1194 10262902
-1258.4308 1088.2731 3434.1135 9604714
-1234.7513 1085.3477 3424.8821 7827791
-1192.7081 1065.9128 3363.5544 5853987
-1183.2902 1075.4698 3393.7122 10130276
-1154.8397 1067.76 3369.3833 5260823
-1138.3636 1071.0452 3379.7498 5457689
-1104.2994 1057.6036 3337.3342 8945749
-1092.644 1065.5243 3362.3284 8222799
-1073.1522 1065.9554 3363.689 7103295
-1066.6959 1079.5961 3406.7327 8747872
-1043.4475 1076.4401 3396.7737 4011032
-1021.1453 1074.1549 3389.563 4208672
-1011.7554 1085.6334 3425.7842 7893590
-995.14178 1089.6721 3438.5286 5262128
-984.2265 1100.2499 3471.907 6117183
-966.90094 1103.9602 3483.6152 7696218
-945.89642 1103.5403 3482.2903 4735279
-932.94977 1112.7122 3511.2327 3287581
-924.73419 1128.074 3559.7078 657155
-913.60541 1140.5161 3598.9697 1906437
-880.29724 1125.2032 3550.6492 9538415
-856.18872 1121.1876 3537.9775 9670504
-836.17102 1122.4617 3541.9978 9867371
-815.38678 1122.7457 3542.8943 9274721
-773.46008 1093.1636 3449.5459 7431484
-734.31274 1066.0099 3363.8606 8813140
-711.57086 1061.8214 3350.6436 6181417
-710.70166 1090.968 3442.6179 9405792
-684.33667 1081.5436 3412.8782 9669477
-667.78046 1087.5192 3431.7344 6971448
-647.10333 1086.9481 3429.9326 5918507
-629.44336 1091.5725 3444.5249 6905657
-614.15521 1100.7577 3473.5098 9603686
-594.96619 1103.3459 3481.6772 9998443
-570.2691 1095.5388 3457.0413 9669992
-549.10413 1094.1881 3452.7791 5590828
-526.55103 1089.8599 3439.1208 6183218
-508.94827 1095.8418 3457.9971 4011286
-486.29266 1090.9895 3442.6858 8551782
-465.00143 1088.9075 3436.1155 3222045
-441.76035 1081.8594 3413.875 6380624
-434.48315 1115.1064 3518.7881 4143920
-422.05328 1137.8147 3590.4453 4604984
-396.44247 1125.5129 3551.6262 6841687
-376.74411 1129.5586 3564.3926 5459774
-359.48315 1141.8267 3603.1052 6973007
-335.50266 1132.9531 3575.1042 8025433
-312.34497 1125.8492 3552.6875 5064493
-292.75726 1131.5164 3570.5703 7301454
-271.07831 1129.3542 3563.7476 6446146
-251.18552 1134.8967 3581.2375 8683621
-229.12157 1130.7476 3568.1443 8090971
-202.53551 1101.168 3474.8044 9801844
-184.32365 1115.5758 3520.2693 7170122
-166.4521 1135.9839 3584.668 6512195
-143.25081 1120.668 3536.3376 7828318
-123.5634 1132.303 3573.0527 7434076
-102.86494 1137.5693 3589.6709 7960681
0 0 0 0
-76.825661 1448.8809 4572.0342 5526351
-50.360718 1467.233 4629.9453 2302497
-22.936609 1468.1251 4632.7603 2960174
4.5362382 1474.0139 4651.3428 2367780
32.12104 1474.9301 4654.2339 1907230
60.121246 1485.2621 4686.8374 2236708
90.300346 1525.8828 4815.0186 10329758
120.12873 1542.4926 4867.4316 4868938
0 0 0 0
0 0 0 0
0 0 0 0
0 0 0 0
0 0 0 0
0 0 0 0
327.00787 1566.2544 4942.4136 7171178
358.34866 1575.2704 4970.8643 7171435
387.04501 1572.1749 4961.0962 6710885
418.88406 1581.381 4990.1465 9079691
441.771 1557.8053 4915.752 11382193
489.41461 1619.0446 5108.9966 8355715
525.758 1637.9437 5168.6338 2500136
548.56586 1614.9152 5095.9653 3815739
585.75623 1634.4208 5157.5166 3684153
619.2384 1642.158 5181.9321 3749946
650.52606 1643.6195 5186.5439 4933964
673.20428 1624.178 5125.1948 3289139
725.52246 1674.8375 5285.0542 1907743
756.41174 1673.8835 5282.0439 2829104
803.67303 1707.7955 5389.0557 4671052
811.7804 1659.094 5235.3745 6644841
846.46185 1666.29 5258.082 3815996
881.24475 1673.1676 5279.7847 4539459
906.33783 1661.8069 5243.9351 4276537
951.42804 1686.6494 5322.3276 1907738
985.15814 1690.4053 5334.1792 657160
1019.5568 1695.0391 5348.8013 2038558
1094.5309 1764.817 5568.9902 3551798
1121.2738 1755.0186 5538.0708 2301730
1167.4292 1775.298 5602.0635 5065037
1218.9623 1802.4073 5687.6089 7828857
1238.0934 1781.4362 5621.4331 7368562
1268.2273 1776.9808 5607.3735 5723478
1306.6566 1784.0791 5629.7729 7565427
1333.558 1775.4758 5602.625 2170142
1380.8798 1793.8175 5660.5034 2301729
1394.9414 1769.1077 5582.5298 3288368
1440.8867 1785.0419 5632.811 2432800
1477.0948 1788.4647 5643.6118 1840920
1521.1991 1801.0847 5683.4355 4275001
1562.9008 1810.3751 5712.752 4208951
1596.9089 1810.5488 5713.2998 4603964
1651.0426 1833.0596 5784.334 6709598
1658.2878 1803.6558 5691.5483 5196361
1709.7587 1822.5677 5751.2266 4472896
1735.9332 1814.3024 5725.1445 4867658
1801.6373 1846.876 5827.9326 4276034
1829.27 1839.9309 5806.0166 4735813
1897.1423 1872.9691 5910.271 4867654
1967.1754 1906.9039 6017.3545 4275004
1972.1714 1877.7086 5925.2266 4932677
2033.4403 1902.1748 6002.4316 4801091
2109.4443 1939.3469 6119.7305 2762022
2130.4243 1925.5304 6076.1313 5524815
2172.7251 1931.123 6093.7793 5392971
2277.8342 1991.4441 6284.1265 6509912
2270.78 1953.3412 6163.8901 4798007
2371.8357 2007.9692 6336.272 7823457
2390.376 1992.1263 6286.2793 4599083
2463.5342 2021.5897 6379.2524 6966601
2451.9993 1981.7133 6253.4199 10846070
2511.7791 1999.8027 6310.5024 11042678
2590.9429 2032.5681 6413.8955 10581868
2657.812 2054.8804 6484.3032 10384490
2724.5703 2076.4722 6552.4375 9924194
2766.1772 2078.5581 6559.0195 9661023
2806.7253 2079.8013 6562.9429 9199956
2894.687 2115.6643 6676.1108 8739913
2861.7454 2063.3862 6511.1436 9398609
2795.2986 1988.6621 6275.3477 14337708
2889.0896 2028.4019 6400.7485 14076849
2989.0449 2071.3833 6536.3794 13215633
3037.8745 2078.2886 6558.1694 13676185
3041.9033 2054.7573 6483.915 13346201
3065.9612 2045.1736 6453.6729 11701123
3198.855 2107.5315 6650.4468 11898754
3260.8032 2122.1985 6696.7295 9990498
3267.4163 2100.9324 6629.6235 9858396
3250.8599 2065.4512 6517.6597 10056031
3261.1138 2047.6368 6461.4458 10647912
3324.5491 2063.2412 6510.686 6700848
3457.2817 2121.0005 6692.9492 9398620
3737.7893 2267.0791 7153.9102 11043191
3716.1013 2228.6465 7032.6333 9991529
3727.0815 2210.4412 6975.1846 9202014
3790.6812 2223.5 7016.3931 8346962
3786.2896 2196.8267 6932.2236 8741465
3932.7209 2257.2952 7123.0356 8281428
3970.8872 2254.9973 7115.7847 7425861
4021.5842 2259.7886 7130.9043 6176823
4056.9985 2255.9824 7118.8936 3414034
4068.7759 2239.2458 7066.0801 13282181
4094.9263 2230.6799 7039.0503 14207652
4181.7012 2254.9788 7115.7261 13613726
4304.4009 2297.9709 7251.3911 9991260
4460.3086 2357.6667 7439.7646 9793878
4470.917 2340.1421 7384.4648 10517601
4308.4893 2233.2656 7047.2095 10254427
4429.5488 2273.9739 7175.666 9990489
4470.8521 2273.3525 7173.7061 7621432
4448.5503 2240.7058 7070.6875 6502457
4721.6372 2356.0654 7434.7119 3413272
4897.876 2421.4121 7640.917 1639942
5021.6055 2459.8401 7762.1787 3284507
5101.0415 2476.0696 7813.3926 7162944
5181.3467 2492.4255 7865.0049 6900281
5301.4668 2527.4717 7975.5947 8808022
5405.6768 2554.3804 8060.5068 8873814
5439.1494 2547.6843 8039.377 10387565
5510.5122 2558.698 8074.1318 10518640
5459.8901 2513.3687 7931.0918 10847604
5538.2808 2527.6946 7976.2983 8873816
5810.8452 2629.6501 8298.0254 8808025
6025.0186 2703.6919 8531.6689 8544596
6133.4683 2729.4534 8612.96 8479060
6286.4419 2774.4392 8754.916 8479059
6379.647 2792.5266 8811.9922 8610387
6447.6245 2799.3672 8833.5781 8346963
0 0 0 0
6685.4546 2856.2449 9013.0596 8741465
6820.3931 2890.7993 9122.0977 9136223
6837.104 2875.0938 9072.5381 9004893
6747.877 2815.4326 8884.2734 8807260
6689.25 2769.3638 8738.9004 8610395
0 0 0 0
0 0 0 0
6839.6909 2767.3711 8732.6123 9202275
6944.3579 2788.6201 8799.665 9268070
7005.0068 2792.0083 8810.3564 9202534
7024.0508 2778.886 8768.9482 9399913
7236.8892 2842.0632 8968.3086 8742241
7345.6997 2863.7637 9036.7852 8609886
7450.4434 2883.5759 9099.3037 8544349
7517.7993 2888.7368 9115.5898 8544350
7612.5625 2904.2805 9164.6387 8676193
7672.7275 2906.498 9171.6357 8610913
7923.1812 2980.26 9404.3965 8479585
7956.7349 2971.9758 9378.2559 8742757
7868.3369 2918.5718 9209.7354 9334637
7860.8062 2895.6924 9137.5381 9268844
7807.7334 2856.4644 9013.752 8676707
7821.7163 2842.1353 8968.5352 8676450
7922.8184 2859.4419 9023.1475 8676707
7923.9136 2840.665 8963.8955 8676450
7951.7432 2831.6584 8935.4746 8676450
7791.8555 2756.3657 8697.8838 9005929
7873.687 2767.009 8731.4697 8809065
7861.082 2744.5425 8660.5752 8480100
7928.2622 2750.0425 8677.9307 7887962
7931.0244 2733.2708 8625.0068 8216926
8068.3706 2762.7988 8718.1846 8085339
8093.9717 2753.9307 8690.2002 8545634
8037.2402 2717.3381 8574.7305 9269616
8250.2422 2771.8279 8746.6758 8743785
8323.8584 2779.1001 8769.624 8480614
8482.21 2814.3972 8881.0059 9138287
0 0 0 0
0 0 0 0
0 0 0 0
0 0 0 0
0 0 0 0
0 0 0 0
0 0 0 0
0 0 0 0
0 0 0 0
-2712.5964 992.82184 3075.3997 10200994
-2696.7996 993.7168 3078.1719 9674651
-2684.855 996.05304 3085.4087 9937823
-2657.6782 992.73157 3075.1199 10398118
-2635.9548 991.41528 3071.0427 9674395
-2652.8596 1004.7104 3112.2261 7898237
-2605.9041 993.83649 3078.5427 8687498
-2652.46 1018.7241 3155.6355 9411478
-2626.4749 1015.9067 3146.908 10529959
-2579.1948 1004.7532 3112.3586 9016721
-2575.1938 1010.4203 3129.9133 8226947
-2562.7021 1012.8141 3137.3284 7832703
-2553.8506 1016.6921 3149.3408 7437432
-2505.6143 1004.8324 3112.604 6713197
-2548.9021 1029.7733 3189.8616 9542295
-2524.7148 1027.6228 3183.2002 6120290
-2487.6133 1020.1439 3160.0334 3027506
-2507.5168 1036.106 3209.478 2501163
-2478.7488 1032.0474 3196.906 1578775
-2419.6296 1015.1919 3144.6941 1710878
-2381.1323 1006.7942 3118.6809 3355186
-2381.0435 1014.632 3142.9595 2828835
-2359.6062 1013.4246 3139.2195 1381389
-2333.8354 1010.3218 3129.6084 5263430
-2339.1489 1020.7338 3161.8606 3618350
-2329.8728 1024.8959 3174.7534 7106663
-2300.6418 1020.2764 3160.4438 6579801
-2285.7959 1022.0127 3165.8223 1250829
-2270.8572 1023.736 3171.1606 3026717
-2253.7729 1024.5128 3173.5667 6118988
-2231.7688 1023.0473 3169.0271 5592645
-2207.8877 1020.6893 3161.7229 3025949
-2193.2517 1022.6014 3167.646 4802359
-2159.4275 1015.5228 3145.719 4341807
-2140.7581 1015.5099 3145.679 2828311
-2124.2017 1016.5079 3148.7705 4078634
-2106.124 1016.7892 3149.6418 7499100
-2099.2939 1022.5541 3167.4995 1973002
-2072.981 1018.8475 3156.0178 393472
-2048.9543 1016.2072 3147.8391 2630170
-2029.7499 1015.9321 3146.9868 196608
-2002.1722 1011.4221 3133.0164 3156257
-2001.5272 1020.5603 3161.3232 1248261
-1983.4425 1020.8948 3162.3596 1840141
-1964.4253 1020.7512 3161.9146 5920333
-1957.7092 1027.0583 3181.4517 328960
-1942.8798 1029.1902 3188.0554 4210226
-1917.7231 1025.8396 3177.6768 9144956
-1878.4001 1014.7695 3143.3855 2433815
-1892.0286 1032.3702 3197.9062 5723458
-1875.2804 1033.5846 3201.6677 6775890
-1892.3708 1053.6649 3263.8696 1709578
-1882.2924 1058.8765 3280.0127 1183495
-1847.7661 1050.3 3253.446 262912
-1840.0303 1056.9315 3273.988 2959647
-1799.9817 1044.9457 3236.8604 5130813
-1776.4989 1042.4222 3229.0435 263171
-1773.2692 1051.8573 3258.27 4604723
-1762.8777 1057.2054 3274.8364 1051911
-1736.9012 1053.222 3262.4976 2498838
-1754.1986 1075.6847 3332.0789 2959645
-1717.4497 1065.1401 3299.4155 4407346
-1672.5695 1049.2517 3250.1987 5261627
-1687.152 1070.7303 3316.7317 3288091
0 0 0 0
0 0 0 0
-1621.8519 1066.5656 3303.8306 8024663
-1623.2822 1080.5507 3347.1514 1643273
-1581.4646 1065.7374 3301.2654 2564621
-1558.915 1063.7002 3294.9548 4407084
-1498.6031 1035.5181 3207.657 4670773
0 0 0 0
-1493.9662 1059.1848 3280.9678 460037
-1454.1324 1044.5381 3235.5977 1512719
-1469.7294 1069.8492 3314.0024 919552
-1508.8955 1113.2349 3448.3955 1840649
-1480.8081 1107.5122 3430.6687 1446409
-1472.7604 1116.8268 3459.522 5722437
-1437.3672 1105.375 3424.0483 4603956
-1435.2657 1119.564 3468.0007 1249029
-1410.7821 1116.4529 3458.3633 1183492
-1391.5936 1117.502 3461.6133 722688
-1386.7203 1130.2502 3501.1028 327936
-1376.817 1139.2236 3528.8992 3353885
-1272.5123 1069.1584 3311.8625 6446407
-1287.2415 1098.4763 3402.6787 10591618
-1263.7263 1095.572 3393.6821 8683874
-1247.2446 1098.7699 3403.5879 10986114
-1211.9043 1085.186 3361.5103 9670507
-1175.4688 1070.1511 3314.9377 8485458
-1159.0969 1073.1818 3324.3254 9144158
-1145.1475 1078.5988 3341.1052 5721642
-1130.3477 1083.3914 3355.9509 6445364
-1100.6741 1073.8444 3326.3779 8419667
-1087.6885 1080.5273 3347.0791 3617045
-1067.4077 1080.0767 3345.6833 6709309
-1058.6093 1091.4475 3380.9062 9011813
-1033.1432 1085.7411 3363.2295 2761991
-1027.491 1101.0421 3410.6267 6775107
-1003.3542 1096.7522 3397.3379 9012071
-988.02863 1102.1151 3413.9504 4604199
-975.0553 1110.3811 3439.5552 5656373
-956.33765 1112.3186 3445.5569 5788216
-934.18243 1110.2552 3439.1653 4011815
-921.8573 1120.0432 3469.4851 2037517
-922.38306 1146.2478 3550.6572 5393725
-895.88013 1139.303 3529.1445 6511940
-856.30548 1115.0052 3453.8794 10262389
-839.42773 1119.7953 3468.717 9077598
-818.22626 1118.9131 3465.9844 9011291
-789.578 1107.5399 3430.7544 7235399
-767.49957 1105.0245 3422.9626 7432002
-736.27118 1088.8411 3372.8323 10458480
-720.73303 1095.6056 3393.7864 8682069
-694.93317 1086.7115 3366.2358 7629631
-686.43475 1105.1469 3423.3416 9602663
-657.87921 1091.4301 3380.8518 6182193
-650.90417 1113.7782 3450.0786 5590824
-625.26117 1104.597 3421.6387 3813907
-610.47406 1114.6213 3452.6902 8419669
-587.86304 1110.5603 3440.1106 9537894
-554.84265 1085.8362 3363.5242 10196083
-545.45245 1107.2374 3429.8176 4406041
-518.67542 1093.635 3387.6819 3154446
-504.73499 1107.093 3429.3701 6447426
-484.46863 1107.2229 3429.7725 9737597
-470.00995 1121.2185 3473.1257 2170385
-440.38217 1098.6526 3403.2249 3551783
-424.32565 1109.4027 3436.5249 1446928
-418.90744 1150.453 3563.6833 11447458
-397.41821 1149.3826 3560.3677 6776149
-380.45828 1162.026 3599.5325 8025690
-356.62964 1153.9463 3574.5046 8485470
-328.06027 1128.538 3495.7986 7761234
-311.53314 1143.9222 3543.4534 7038279
-291.7963 1148.8927 3558.8503 6314555
-268.21542 1138.3235 3526.1106 10393206
-248.65285 1144.4629 3545.1284 9932140
-227.72345 1144.8641 3546.3711 9866858
-205.46587 1137.9905 3525.0791 10063981
-184.7076 1138.8051 3527.6023 9735532
-163.33704 1135.5706 3517.583 5722934
-143.35098 1142.4232 3538.8103 7170646
-120.12715 1121.3998 3473.6875 7105369
-100.11935 1127.9116 3493.8586 6710616
-88.60923 1258.5109 3898.4072 6841691
-74.644325 1434.068 4442.2192 3946804
-49.012985 1454.6713 4506.0405 3552308
-22.174328 1445.8752 4478.7939 1710362
4.3534679 1441.0785 4463.9351 4670789
30.257803 1415.3562 4384.2568 2697253
0 0 0 0
89.298607 1537.1738 4761.6035 3814958
0 0 0 0
0 0 0 0
0 0 0 0
153.99739 1170.8895 3626.9885 8223079
172.03307 1147.8135 3555.5071 7630689
193.57631 1150.6223 3564.2078 5854794
221.37057 1186.3792 3674.9697 7104867
322.03021 1571.2571 4867.1812 7895153
350.14877 1568.0088 4857.1187 12171188
383.62241 1587.4128 4917.2256 5066059
408.63333 1571.5311 4868.0298 8355455
446.23923 1602.9879 4965.4712 12237246
471.87296 1590.2065 4925.8794 5723741
500.30804 1587.8049 4918.4399 5987426
537.59784 1612.2227 4994.0771 10395299
563.38177 1601.3871 4960.5127 8553093
597.83911 1615.0571 5002.8579 6118752
625.60846 1610.2218 4987.8794 5592408
679.42157 1669.8313 5172.5278 5789786
699.81201 1645.6963 5097.7666 5723993
738.15002 1664.0183 5154.5215 3487287
761.99097 1649.502 5109.5552 5658200
803.81525 1673.5365 5184.0054 3486776
831.48596 1667.4186 5165.0542 2565929
854.07446 1651.9054 5117 3552312
891.86206 1665.8452 5160.1802 5131341
927.6236 1675.2021 5189.1646 3947067
971.92389 1698.8837 5262.5215 1973277
1002.3978 1697.6764 5258.7817 3354930
1065.9727 1750.9115 5423.6851 1907483
1109.7281 1769.4293 5481.0459 1578007
1116.7236 1729.9474 5358.7456 1841436
1178.9178 1775.7946 5500.7637 3091758
1223.5188 1793.3873 5555.2593 3157294
1235.4154 1763.377 5462.2983 4670020
1243.4596 1729.541 5357.4868 4143674
1282.1262 1738.9225 5386.5469 7433842
1326.8964 1755.9249 5439.2144 4407107
1370.9078 1771.1409 5486.3481 5657682
1399.3477 1766 5470.4238 6446942
1456.5671 1796.5902 5565.1807 7960183
1489.4017 1796.4143 5564.6357 5525584
1523.8075 1798.1 5569.8574 6184026
1569.9412 1813.2595 5616.8164 6051923
1578.7129 1785.5334 5530.9307 6116948
1597.8051 1770.3701 5483.9604 3681583
1655.1031 1797.2997 5567.3784 6645093
1684.3055 1793.2632 5554.875 4539975
1723.9258 1800.261 5576.5513 5065550
1793.6398 1837.8304 5692.9277 5723481
1822.8811 1833.3085 5678.9209 7236719
1872.6993 1849.27 5728.3638 4999499
1928.8625 1870.8171 5795.1089 3946810
1967.0759 1874.5055 5806.5337 5197132
2005.958 1878.6931 5819.5054 3157035
2038.2581 1876.679 5813.2661 3353643
2071.5928 1875.6686 5810.1362 1905426
2212.6819 1970.6593 6104.3833 2957086
2138.3289 1873.8036 5804.3599 3681580
2224.3796 1918.3502 5942.3486 1774354
2235.6721 1898.0398 5879.4346 3353131
2197.418 1836.9344 5690.1523 4537405
2256.6497 1857.9379 5755.2134 4011057
2456.7849 1992.5966 6172.3369 3615529
2516.2285 2010.8694 6228.9395 4796205
2642.0671 2080.907 6445.8906 9596004
2670.3108 2073.1772 6421.9468 11832194
2698.7927 2065.8472 6399.2407 11371642
2664.0813 2011.0178 6229.3994 10911087
2677.21 1993.3066 6174.5366 10714988
2675.2363 1964.9802 6086.7915 13281680
2678.8206 1941.4354 6013.8584 13480596
2691.6589 1925.1278 5963.3433 13946019
2731.2185 1928.1066 5972.5703 13281664
2795.6895 1948.3702 6035.3398 12755062
2807.8279 1932.1111 5984.9751 13478285
2736.2827 1859.3922 5759.7183 9595219
2903.3831 1948.6345 6036.1582 8609107
3121.6785 2069.646 6411.0083 9662810
3160.907 2070.4551 6413.5146 10122590
3101.5796 2007.4564 6218.3672 10385507
3127.4172 2000.4116 6196.5449 6437932
3147.2036 1989.7046 6163.3789 4924699
3180.0391 1987.3984 6156.2349 4859677
3315.6453 2048.6438 6345.9507 3807250
3403.3135 2079.2283 6440.6899 8873051
3514.6062 2123.4072 6577.5405 7952204
3538.3689 2114.3142 6549.3735 8545112
3355.1997 1983.1102 6142.9517 8150611
3519.2566 2057.7502 6374.1587 10978426
3750.5303 2169.6897 6720.9072 10451824
3832.0176 2193.5356 6794.7729 11767935
3832.5732 2171.0403 6725.0903 11768441
3949.9507 2214.5029 6859.7217 12953985
4041.8257 2242.9277 6947.772 13678479
4123.0283 2264.917 7015.8862 13810069
4217.8975 2293.8997 7105.6636 13281167
4248.3979 2287.6482 7086.2993 12951435
4209.7354 2244.6416 6953.0806 12030078
4292.623 2266.6511 7021.2578 11634807
4452.1465 2328.3159 7212.2734 10254439
4478.7295 2319.946 7186.3457 8281164
4519.4756 2319.001 7183.4185 7360064
4539.9995 2307.7942 7148.7036 9399652
4605.2427 2319.3164 7184.3955 12097682
4441.603 2216.4124 6865.6362 11439241
4662.3677 2305.457 7141.4648 11966355
4930.6699 2416.1953 7484.4912 13085860
4948.0967 2403.1174 7443.9805 9268574
5203.085 2504.6262 7758.418 9070165
5372.334 2563.446 7940.6201 8675921
5344.2773 2527.9158 7830.5601 8412749
5452.04 2556.6885 7919.688 9465436
5511.5537 2562.5376 7937.8062 10254952
5535.4258 2551.8564 7904.7202 7294526
5649.9912 2582.8142 8000.6152 8017994
5826.2944 2641.2437 8181.6089 8544339
5931.3545 2666.6792 8260.3984 8478548
6142.165 2738.853 8483.9668 8215890
6180.729 2733.6719 8467.918 8412755
6304.877 2766.1223 8568.4375 8412499
6390.894 2781.4595 8615.9463 8412499
6432.083 2777.1973 8602.7432 8544342
6487.2485 2778.9893 8608.2949 8215377
6534.7524 2777.4973 8603.6729 8479062
6504.3374 2743.1663 8497.3281 8873564
6620.9766 2770.9058 8583.2549 9794666
6673.9355 2771.7749 8585.9473 9268066
6655.4873 2743.1987 8497.4287 9070432
6742.5728 2758.2236 8543.9697 9135714
6851.623 2781.9424 8617.4424 9200994
6978.1855 2812.3679 8711.6895 9200994
7049.6855 2820.3181 8736.3164 8938592
7191.9731 2856.2659 8847.6689 8938848
7281.2051 2870.7744 8892.6113 8675677
7377.8794 2887.9875 8945.9316 8675679
7443.4429 2892.8647 8961.0391 8610143
7518.9136 2901.4954 8987.7734 8610143
7571.853 2901.3711 8987.3887 8544093
7743.731 2946.5051 9127.1973 8478557
7728.2207 2920.2056 9045.7314 8544349
7753.8594 2909.7107 9013.2217 8609886
7775.0098 2897.686 8975.9736 8741472
7807.2554 2889.9319 8951.9541 9267816
7779.4658 2860.21 8859.8867 9070437
7841.8633 2863.8223 8871.0762 8479071
7814.4277 2834.7983 8781.1709 8347485
7825.3765 2819.991 8735.3027 8479327
