# .PCD v0.7 - Point Cloud Data file format
VERSION 0.7
FIELDS x y z rgb
SIZE 4 4 4 4
TYPE F F F U
COUNT 1 1 1 1
WIDTH 1339
HEIGHT 1
VIEWPOINT 0 0 0 1 0 0 0
POINTS 1339
DATA ascii
-1343.7285 829.12628 1957.4598 4934963
-1326.1302 825.39301 1948.6461 4408105
-1349.1635 847.10577 1999.9071 5658169
-1341.2074 849.57361 2005.7333 5066542
-1328.5459 849.07819 2004.5637 8553314
-1326.4631 855.39581 2019.4789 6447937
-1323.0822 860.9837 2032.671 6907456
-1310.6317 860.71802 2032.0438 6183739
-1279.0883 847.79248 2001.5283 6052668
-1267.7965 848.17365 2002.4282 5986878
-1257.6025 849.30341 2005.0955 7763037
-1241.9233 846.71497 1998.9845 5526332
-1239.5135 853.21063 2014.3198 6184007
-1222.767 849.86798 2006.4283 6381385
-1222.5068 858.03094 2025.7 8881519
-1210.6929 858.16614 2026.0192 5328439
-1198.5526 858.0705 2025.7933 5854785
-1200.0682 867.84827 2048.8774 4801840
-1176.1101 859.21594 2028.4977 8485993
-1166.6935 861.13849 2033.0366 6183751
-1161.3917 866.17004 2044.9154 6578763
-1138.2137 857.8349 2025.2372 7039316
-1142.5267 870.26208 2054.5762 4802604
-1128.4675 868.81201 2051.1528 4802091
-1117.9646 870.09827 2054.1895 5196861
-1124.6838 884.96417 2089.2859 4867642
-1109.8611 883.02191 2084.7004 9144440
-1080.1095 869.02466 2051.6548 6775889
-1069.834 870.55695 2055.2722 5526075
-1076.553 886.11267 2091.9973 7697244
-1061.359 883.78412 2086.5 2498837
-1060.4323 893.42102 2109.2515 2367253
-1060.16 903.84583 2133.863 2104595
-1044.6735 901.39465 2128.0762 1577996
-1048.1462 915.44232 2161.241 2038802
-1046.1681 925.01801 2183.8479 3157280
-1048.4341 938.63336 2215.9919 3551524
-1037.0024 940.17529 2219.6323 5525569
-1022.6874 939.10925 2217.1155 4276017
-1000.8834 931.04883 2198.0859 6184267
-982.68634 926.17554 2186.5806 3947304
-975.78119 931.95667 2200.229 5724227
-976.86987 945.63251 2232.5161 7763554
-952.52747 934.72821 2206.7722 7565919
-941.02496 936.29559 2210.4727 7630941
-927.10419 935.4671 2208.5168 8420456
-919.60748 941.1897 2222.0271 6906702
-908.39404 943.21942 2226.8191 6775115
-892.73883 940.62903 2220.7034 5261876
-884.76227 946.17255 2233.791 6117183
-862.284 936.14087 2210.1074 6051644
-847.53394 934.31909 2205.8064 5656373
0 0 0 0
0 0 0 0
0 0 0 0
0 0 0 0
-577.30829 689.60419 1628.0663 256
-570.13019 692.60498 1635.1508 1250317
0 0 0 0
0 0 0 0
0 0 0 0
-611.73401 797.35522 1882.4526 5258539
0 0 0 0
0 0 0 0
0 0 0 0
-531.51324 747.3053 1764.2911 1971211
0 0 0 0
-542.02063 793.28876 1872.8522 8419941
-549.1875 820.58099 1937.2856 7104338
-602.35107 919.23315 2170.1907 6972752
-578.69617 902.40143 2130.4531 8090717
-591.66565 943.20367 2226.782 8880234
-580.85535 947.09424 2235.967 5919806
-570.0202 951.125 2245.4832 4604202
-560.96106 958.38275 2262.6177 7104077
-539.92157 945.02655 2231.0854 6051393
-528.1322 947.59686 2237.1536 5393461
-513.40942 944.90082 2230.7886 5656635
-507.68216 959.05548 2264.2058 7367768
-495.30624 961.07782 2268.9802 6380363
-485.91809 969.17218 2288.0901 7696227
-475.47818 975.5733 2303.2024 2762015
-465.49255 983.31238 2321.4734 2761501
-455.54755 991.61139 2341.0662 1973014
-444.23529 997.36194 2354.6426 2959647
-435.08026 1008.4859 2380.9048 6841684
-424.87537 1017.8406 2402.9897 3354915
-411.59735 1020.2265 2408.6228 6381385
-394.12079 1012.0031 2389.2085 8750187
-372.73611 992.75806 2343.7732 8289378
-357.71387 989.62476 2336.376 5131573
-346.07278 995.96997 2351.3562 5065790
-331.96164 995.44055 2350.1064 1315335
-321.93604 1007.6527 2378.9377 1183490
-309.30853 1012.4664 2390.3022 3683620
-294.21893 1009.2961 2382.8176 7170901
-281.582 1014.6441 2395.4434 5986371
-268.44205 1018.6511 2404.9033 3881259
-249.74806 1000.8499 2362.8772 3684395
-240.29529 1020.1674 2408.4834 3486755
-227.53319 1026.9878 2424.5854 5329215
-209.50354 1009.3497 2382.9441 4144683
-195.31541 1009.0073 2382.1355 5131321
-186.2032 1036.8767 2447.9316 8552300
-170.5385 1029.8851 2431.4255 8420713
-155.48988 1025.667 2421.467 8223335
-139.27626 1012.125 2389.4961 8947315
-126.56235 1023.8284 2417.1265 9210488
-113.37868 1034.2343 2441.6931 4868154
-99.518227 1040.6079 2456.7405 6512717
-85.944496 1052.6777 2485.2361 6184007
-67.988045 1004.9574 2372.5745 7894880
-54.962074 1024.2339 2418.0837 8947569
-40.801182 1028.4987 2428.1523 5657408
-26.642345 1037.4907 2449.3813 8617836
-12.055533 1031.3947 2434.9893 7236181
2.3763676 1032.1051 2436.6667 4407344
16.839638 1033.5206 2440.0085 8947313
31.443583 1038.2733 2451.229 8092260
46.762939 1056.1807 2493.5059 9802361
61.562042 1056.5591 2494.3994 7763548
75.533226 1045.3331 2467.8965 5855814
89.81916 1041.3987 2458.6077 5921861
105.74727 1054.9449 2490.5886 6052676
122.24561 1070.1648 2526.5208 8486763
135.81914 1059.2527 2500.7585 10789774
150.28741 1056.7793 2494.9192 8618606
165.5047 1059.5442 2501.4465 5789250
178.49466 1048.7673 2476.0039 6841425
198.27536 1076.4967 2541.4695 9276021
213.93538 1079.5179 2548.6021 9276018
226.76222 1068.7872 2523.2683 6973519
241.44156 1067.5753 2520.4072 10459782
255.62973 1064.4594 2513.0508 9012079
270.32263 1063.6724 2511.1929 10196610
288.86737 1077.3331 2543.4441 8880495
304.60721 1079.6968 2549.0244 6709582
315.24783 1064.6167 2513.4224 7893087
332.23804 1071.3729 2529.3728 8353896
346.51682 1069.1796 2524.1948 9275255
361.70016 1069.8434 2525.762 7433050
378.06049 1073.7975 2535.0969 9012336
390.63715 1067.1133 2519.3164 7432792
412.68585 1085.8438 2563.5366 6906702
429.75842 1090.616 2574.8032 5919553
442.17642 1083.6539 2558.3667 5458997
460.61304 1091.4144 2576.6882 6511946
486.00369 1114.6256 2631.4868 6775629
507.73059 1128.2522 2663.6575 7827803
521.79779 1124.5492 2654.9153 6775370
530.4292 1109.6909 2619.8367 6315330
550.11267 1118.1418 2639.7883 8420705
569.1947 1124.9368 2655.8301 5394228
583.81818 1122.7914 2650.7651 10262916
601.8894 1127.2153 2661.2097 7367765
615.36249 1123.022 2651.3096 9012078
629.2049 1119.6945 2643.4539 8354406
646.24536 1122.0815 2649.0894 8749677
675.04108 1144.2821 2701.5022 7828574
686.89667 1137.4036 2685.2627 9144690
702.48969 1136.8849 2684.0383 10197123
720.00842 1139.4368 2690.063 8025441
743.28265 1150.7892 2716.8645 9275253
752.29742 1140.051 2691.5129 8025187
761.39679 1129.8843 2667.5105 5262653
792.4162 1151.9978 2719.7178 8157546
805.89093 1148.2323 2710.8279 6249807
831.28296 1161.2617 2741.5889 7698022
852.18604 1167.641 2756.6494 8421232
869.24115 1168.6072 2758.9302 9276282
880.49304 1161.8798 2743.0479 8486510
894.3877 1158.8204 2735.8252 9144187
912.17804 1160.8276 2740.564 8552563
936.52106 1170.9576 2764.4795 8157805
961.36658 1181.3568 2789.0305 10065548
956.91766 1156.0149 2729.2017 9473667
980.74341 1165.1052 2750.6626 11052698
993.9516 1161.4911 2742.1301 9934211
1018.8246 1171.4049 2765.5354 9408122
1031.7852 1167.5253 2756.3762 9868675
1045.2236 1164.2988 2748.759 9670783
1050.9307 1152.6915 2721.3555 9211001
1077.8577 1164.3578 2748.8982 7434075
1104.5663 1175.4445 2775.0723 8090978
1114.5729 1168.6927 2759.1323 6906960
1128.5155 1166.2037 2753.2561 6906960
1138.1997 1159.4478 2737.3062 9472887
1147.8386 1152.8361 2721.6968 9933438
1169.7527 1158.5654 2735.2231 5196344
1196.2788 1168.6438 2759.0168 8551531
1209.4604 1165.5897 2751.8066 8419690
1224.7275 1164.6002 2749.4705 8946033
1260.4738 1182.8546 2792.5669 7762015
1277.3315 1183.1404 2793.2412 8419689
1307.8958 1195.9519 2823.4878 6183494
1350.1862 1219.0271 2877.9653 8354144
1340.829 1195.4777 2822.3682 8024921
1339.6207 1179.6846 2785.0828 8090456
1369.3062 1191.1501 2812.1514 6051387
1375.2119 1181.9031 2790.3201 8814699
1390.7375 1181.045 2788.2944 9407095
1425.1417 1196.0509 2823.7214 8880496
1446.4821 1199.8719 2832.7424 8946547
1464.0648 1200.524 2834.282 8289388
1480.2924 1200.0629 2833.1931 10526096
1485.8933 1191.0936 2812.0178 8091754
1535.6951 1217.3617 2874.0334 9736836
1562.9376 1225.3669 2892.9326 9078394
1586.6288 1230.4442 2904.9194 10131339
1590.4268 1220.1506 2880.6177 6380881
1637.391 1242.8407 2934.186 10855061
1661.1626 1247.6346 2945.5039 8749428
1682.1409 1250.2527 2951.6848 9144443
1684.4845 1239.1094 2925.3767 9012600
1708.8007 1244.1913 2937.3748 10065546
1708.8369 1231.6708 2907.8154 9342079
1732.802 1236.4751 2919.1577 9868423
1756.4855 1240.9855 2929.8062 9605251
1777.2213 1243.3453 2935.3774 9934217
1795.1989 1243.7484 2936.3291 8618358
1857.0778 1274.2676 3008.3809 9802631
1864.3715 1267.1078 2991.4775 10395024
1874.5603 1262.032 2979.4944 10592146
1898.2465 1266.0531 2988.9875 9934216
1921.2207 1269.5295 2997.1948 9736838
1931.8816 1264.8801 2986.2183 9144956
1963.5841 1273.9668 3007.6709 9539714
1987.0197 1277.5748 3016.1887 12369327
1978.2555 1260.5999 2976.113 11776420
2018.0006 1274.5632 3009.0789 10460303
2047.9526 1282.1508 3026.9922 10526353
2070.3472 1284.9164 3033.5212 10328974
2104.5977 1294.9291 3057.1599 9407870
2119.021 1292.6755 3051.8396 10065796
2114.5039 1279.0035 3019.562 8749165
2123.6311 1273.7449 3007.147 8288613
2153.4001 1280.8517 3023.9253 6578765
2164.1956 1276.6488 3014.0027 7302233
2213.7407 1295.1857 3057.7659 10460299
2193.5752 1272.9674 3005.3115 10526350
0 0 0 0
2199.4846 1256.0012 2965.2563 11579042
2221.4434 1258.4861 2971.1228 11447456
2277.5784 1280.1407 3022.2468 11250077
2318.0955 1292.7482 3052.011 8355184
2356.937 1304.2329 3079.125 9473665
2376.425 1304.9141 3080.7332 11052954
2377.366 1295.478 3058.4561 10460561
2392.0903 1293.6389 3054.114 9144700
2431.1877 1304.9094 3080.7222 9144700
2452.3569 1306.4607 3084.3848 9736835
2435.8474 1288.0649 3040.9546 9802629
2465.6284 1294.2378 3055.5278 9078905
2478.8115 1291.6716 3049.4695 11776417
2493.5012 1289.922 3045.3389 11381916
2520.543 1294.5415 3056.2449 10461069
2534.7124 1292.5311 3051.4988 8815475
2561.6926 1297.0354 3062.1328 9276027
2597.3218 1305.8248 3082.8833 8091751
2618.3467 1307.2002 3086.1306 9671296
2657.8828 1317.7344 3111.0002 10789777
2625.9023 1292.9105 3052.3945 9013623
2686.6104 1313.7511 3101.5964 9737089
2762.7314 1341.7944 3167.803 9013366
2776.7871 1339.5187 3162.4304 10394508
2809.0789 1346.0116 3177.7593 9605249
2862.5491 1362.4984 3216.6826 7236701
2873.8074 1358.8083 3207.9707 8289389
2920.4648 1371.7943 3238.6289 8289390
2955.5825 1379.2257 3256.1733 8026217
2953.9304 1369.5133 3233.2437 8552561
2875.012 1324.3344 3126.582 10460558
2942.7932 1346.8766 3179.8013 9473919
2944.7927 1339.2161 3161.7158 11842210
3100.7327 1401.2179 3308.0942 8420974
3126.0903 1403.8015 3314.1936 8553077
3150.2297 1405.809 3318.9331 7895147
3164.8494 1403.5698 3313.6467 8947579
0 0 0 0
0 0 0 0
0 0 0 0
0 0 0 0
0 0 0 0
0 0 0 0
0 0 0 0
0 0 0 0
0 0 0 0
0 0 0 0
0 0 0 0
0 0 0 0
0 0 0 0
0 0 0 0
0 0 0 0
0 0 0 0
-1580.2133 807.44995 1879.9821 6051900
-1563.1156 804.38477 1872.8452 4209440
-1548.9447 802.79254 1869.1382 2301699
-1524.2113 795.66357 1852.5399 3946265
-1541.6311 810.59558 1887.306 5130543
-1516.9113 803.42664 1870.6146 5327925
-1512.6041 807.04327 1879.0352 3025172
-1503.7731 808.28204 1881.9193 2499598
-1504.2745 814.5929 1896.6129 4210477
-1509.1503 823.3855 1917.0846 6250831
-1492.7933 820.63904 1910.6901 9211260
-1445.9229 800.94818 1864.8439 4934971
0 0 0 0
-1463.0731 823.02942 1916.2556 2433812
-1463.8229 829.89276 1932.2354 5656888
-1452.5253 829.98022 1932.4391 3946272
-1442.8152 830.98352 1934.775 3551256
-1419.0946 823.8689 1918.2102 3090707
-1407.1327 823.52112 1917.4005 3221781
-1391.322 820.89691 1911.2905 3946014
-1373.3799 816.96173 1902.1282 4077343
-1352.9926 811.49481 1889.3997 4406564
-1359.262 822.05817 1913.9943 4538918
-1346.3665 821.11121 1911.7894 5327921
-1307.194 803.98657 1871.9182 4999472
-1339.4312 830.86499 1934.4991 5460021
-1322.8259 827.64844 1927.0101 4012576
-1330.543 839.72607 1955.1304 4144159
-1328.7214 845.94305 1969.6053 5065517
-1319.2225 847.33893 1972.8555 6973771
-1307.5892 847.37671 1972.9434 6513732
-1310.0784 856.64978 1994.5337 7565908
-1302.6938 859.5766 2001.3481 4933420
-1292.734 860.8421 2004.2947 6249283
-1280.7244 860.7536 2004.0886 3552286
-1264.8097 858.01428 1997.7107 7565916
-1247.1304 854.01483 1988.3988 6973522
-1235.101 853.84491 1988.0032 6907730
-1223.7876 854.17151 1988.7637 7565660
-1218.2241 858.55688 1998.974 7565404
-1208.9388 860.37952 2003.2175 6052421
-1190.9985 856.01764 1993.0619 5789249
-1181.7458 857.875 1997.3865 8157541
-1165.5676 854.69165 1989.9746 5722943
-1158.7428 858.37189 1998.5433 4801843
-1152.4762 862.54614 2008.2622 6512716
-1143.1475 864.49164 2012.7919 6381387
-1129.1448 862.90637 2009.101 6775890
-1117.8715 863.39526 2010.2393 6117961
-1118.5396 873.21716 2033.1074 4999480
-1113.9799 879.12714 2046.8677 6710352
-1096.7247 875.03815 2037.3473 5986629
-1094.0105 882.58893 2054.9277 9605240
-1081.2151 882.08514 2053.7549 6775637
-1068.5962 881.7157 2052.8945 4802613
-1059.7106 884.45337 2059.2686 5394496
-1057.1549 892.59967 2078.2356 2499349
-1057.0367 903.02008 2102.4976 1117702
-1051.8678 909.32306 2117.1726 788994
-1040.7931 910.61102 2120.1714 1249288
-1040.0304 921.06287 2144.5066 3749161
-1039.755 932.21027 2170.4609 3881006
-1043.0645 946.8913 2204.6426 5394750
-1024.3428 941.6911 2192.5352 6710864
-984.34497 916.54663 2133.9915 8027496
-974.7392 919.41486 2140.6694 5921865
-968.70428 925.77124 2155.469 6974038
-933.45477 904.00464 2104.7898 8487537
-899.89374 883.30579 2056.5967 6645077
-930.07684 925.46661 2154.7598 6578770
-901.95056 909.97339 2118.6868 7630683
-916.06915 937.26489 2182.2295 8287838
-902.27386 936.36926 2180.1443 6774345
-885.26123 932.06036 2170.1118 5786165
-877.62378 937.64056 2183.1042 5127207
-874.68298 948.48077 2208.3435 5586217
-856.60236 942.98376 2195.5447 7031867
0 0 0 0
0 0 0 0
0 0 0 0
0 0 0 0
0 0 0 0
-580.03516 702.55536 1635.7563 458752
-567.5351 699.09857 1627.708 524288
-556.14435 696.91241 1622.6179 1314059
-548.70575 699.6889 1629.0825 786945
0 0 0 0
-555.84448 734.64355 1710.4672 2956822
-543.99646 732.3396 1705.1029 4469800
0 0 0 0
-536.77875 750.50439 1747.3959 8156256
0 0 0 0
0 0 0 0
-521.63855 774.13965 1802.4258 5854014
-617.96753 936.26892 2179.9106 7301203
-606.32391 938.24188 2184.5042 5788220
-598.32312 946.06085 2202.7092 7893339
-587.06042 948.95599 2209.45 5327668
-571.86298 945.47778 2201.3516 5393458
-563.86743 954.02228 2221.2456 6313789
-552.03748 956.33258 2226.6248 5129769
-538.11145 955.03595 2223.6057 6577472
-526.00793 956.98999 2228.1555 5064751
-510.25711 952.2381 2217.0916 6643531
-496.47137 950.99915 2214.207 6051396
-486.82587 957.83893 2230.1321 5130044
-474.22064 959.07465 2233.009 5393476
-467.22552 972.05316 2263.2268 3815219
-458.6077 982.32281 2287.1377 5657677
-447.11441 986.87134 2297.728 3157284
-431.50262 982.32983 2287.1541 3091232
-426.66721 1002.822 2334.866 5328191
-419.38153 1018.7358 2371.918 4341548
-405.50333 1019.184 2372.9612 4801586
-388.60532 1011.8016 2355.7732 8288614
-368.71725 995.79395 2318.5024 8288871
-358.26627 1005.0202 2339.9839 6907475
-347.38867 1013.7446 2360.2969 7894628
-334.61148 1017.425 2368.866 2105363
-320.19519 1016.2256 2366.0735 2565139
-306.28128 1016.584 2366.908 4539440
-290.92444 1011.9576 2356.1362 6973773
-280.10675 1023.4497 2382.8933 7171153
-263.35315 1013.3223 2359.3135 5526335
-251.4722 1021.859 2379.1895 4144688
-238.87193 1028.3132 2394.217 8223851
-223.36188 1022.2656 2380.1362 8881780
-206.15121 1007.0947 2344.814 6907732
-190.48859 997.83984 2323.2659 8881520
-178.26302 1006.55 2343.5457 8486249
-166.45648 1019.298 2373.2268 7828062
-151.65227 1014.3487 2361.7034 6380616
-137.36487 1012.2011 2356.7031 10131075
-123.57788 1013.6721 2360.1282 6315082
-110.64981 1023.4633 2382.9248 6249034
-97.2929 1031.5723 2401.8052 6051652
-82.899826 1029.5919 2397.1941 4802100
-69.051292 1034.954 2409.6785 8749422
-54.740974 1034.3861 2408.3564 8947313
-40.079754 1024.4486 2385.2188 8947313
-26.350149 1040.4685 2422.5181 9078899
-11.938254 1035.6509 2411.301 8092261
2.3509681 1035.3595 2410.6228 7763039
16.733454 1041.3726 2424.6228 10000002
30.597748 1024.4795 2385.2908 8025956
44.355488 1015.8226 2365.135 8815472
60.567417 1054.0323 2454.0986 5788997
75.027107 1052.8561 2451.3599 5065277
88.810318 1044.1084 2430.9927 8223598
102.82584 1040.1526 2421.7825 9539969
118.74894 1054.0988 2454.2532 6315341
132.9725 1051.5614 2448.3455 8946798
148.1785 1056.528 2459.9092 7170901
162.17632 1052.7621 2451.1411 7565663
178.10147 1061.0981 2470.5498 6644562
195.07497 1073.9391 2500.4475 9408124
207.83545 1063.4106 2475.9341 9012594
223.58751 1068.5681 2487.9421 8683629
235.07095 1053.949 2453.9045 9078644
248.77946 1050.4281 2445.707 10197127
266.42087 1062.9868 2474.9473 10065541
278.11279 1051.7357 2448.7515 9538427
298.01703 1071.1168 2493.8765 7564890
312.74841 1070.9529 2493.4949 8025183
329.23764 1076.5518 2506.5305 7366997
338.93524 1060.4182 2468.967 4537900
358.10144 1074.0183 2500.6321 8157284
373.53983 1075.8014 2504.7834 6381129
389.87396 1079.9292 2514.3943 6577995
405.8461 1082.7876 2521.0493 6249286
424.46555 1092.2549 2543.092 6907215
438.2674 1089.1014 2535.7498 5064501
456.10254 1095.8473 2551.4563 6117444
471.46252 1096.4043 2552.7532 5064753
493.48572 1111.9406 2588.926 5985856
513.92255 1123.073 2614.8457 6051646
525.89893 1115.6064 2597.4614 8683623
535.90924 1104.5126 2571.6313 6709834
552.80646 1107.8335 2579.3638 6775627
570.25244 1112.046 2589.1716 7038798
587.31427 1115.3081 2596.7668 6775625
601.79578 1113.6287 2592.8567 9078895
623.01379 1124.1887 2617.4436 9342078
633.06177 1114.5695 2595.0471 8223848
657.93445 1130.8881 2633.0415 8420459
681.6745 1144.5488 2664.8477 9670781
697.34778 1144.3533 2664.3923 10131074
712.66626 1143.597 2662.6316 10131074
728.71783 1144.0243 2663.6267 9933439
744.09882 1143.4032 2662.1804 6512200
755.09192 1136.2053 2645.4216 3223070
782.84418 1154.0051 2686.8647 5196863
781.38696 1128.8955 2628.4021 7895147
807.92688 1144.4252 2664.5598 9934474
828.14709 1150.5792 2678.8882 7960940
864.88788 1179.0226 2745.113 11447712
873.05438 1168.1825 2719.8738 9342078
885.30634 1163.1025 2708.0464 5855048
903.70435 1166.1345 2715.1055 7960425
910.26459 1154.052 2686.9739 7828839
930.1236 1158.9557 2698.3911 11249563
939.04498 1150.2953 2678.2273 10131082
953.22906 1148.2625 2673.4941 9802631
983.61334 1165.4917 2713.6089 9342335
1010.7786 1178.4138 2743.6953 9407872
1015.3808 1165.038 2712.5525 9342079
1033.5518 1167.4052 2718.0642 10000006
1049.8856 1167.6566 2718.6494 9144181
1059.9449 1161.0275 2703.2148 9078130
1099.1846 1186.083 2761.5515 10262660
1106.184 1176.1246 2738.3655 9998976
1120.4519 1174.0707 2733.5833 9867903
1118.5012 1155.3225 2689.9321 9802368
1140.6111 1161.605 2704.5593 9539195
1161.0667 1166.0518 2714.9128 11381144
1178.4072 1167.2913 2717.7988 8552303
1194.9933 1167.7601 2718.8906 8815476
1217.3848 1173.8141 2732.9861 7828581
1237.4246 1177.4716 2741.5015 8289132
1256.8323 1180.4404 2748.4141 8749940
1273.575 1180.8622 2749.396 9013110
1316.1666 1204.938 2805.4517 9341045
1347.9985 1218.6854 2837.4597 7170132
1337.8553 1194.6133 2781.4126 8683111
1361.061 1200.543 2795.2185 7301713
1368.1123 1192.252 2775.9148 6841162
1373.2114 1182.4772 2753.1562 9407095
1398.5248 1190.134 2770.9836 9472890
1423.0516 1196.9517 2786.8569 8683118
1436.7294 1194.592 2781.3633 8946290
1448.8788 1191.0298 2773.0691 7761760
1475.8191 1199.5696 2792.9524 6577742
1507.0164 1211.3418 2820.3616 9012342
1523.2554 1210.9641 2819.4822 7565155
1542.6953 1213.1117 2824.4824 6380882
1555.2417 1209.8508 2816.8899 7368031
1591.4025 1224.8339 2851.7749 9604993
1614.3099 1229.4088 2862.4268 6183245
1630.4968 1228.8236 2861.0642 8815222
1657.7517 1236.5059 2878.9509 8157292
1670.6628 1233.4419 2871.8171 9078395
1698.3834 1241.2632 2890.0273 9933703
1705.2317 1233.8262 2872.7117 10328974
1712.6095 1226.9153 2856.6213 9276287
1740.7061 1234.8374 2875.0664 8684150
1751.1851 1230.2295 2864.3376 8815222
1802.9448 1254.4319 2920.688 6907995
1803.9791 1243.2164 2894.575 9342080
1822.8795 1244.4086 2897.3508 9539457
1872.9709 1266.6729 2949.1887 8091754
1889.6886 1266.1638 2948.0034 8026219
1905.9813 1265.3818 2946.1826 9079420
1957.5743 1287.8373 2998.4656 10855575
1974.1398 1287.0522 2996.6377 9144700
1966.4761 1270.6257 2958.3918 9276030
1990.004 1274.4657 2967.3325 10131339
2010.9833 1276.6204 2972.3494 9999495
2024.4059 1273.9822 2966.207 7960166
2032.4467 1268.0317 2952.3525 7433823
2041.8318 1263.0144 2940.6707 9341821
2111.2585 1294.9077 3014.9275 9604990
2118.5698 1288.4878 2999.9802 9407611
2140.9797 1291.281 3006.4836 8092006
2120.2791 1268.2417 2952.8413 8684144
2170.2358 1287.4972 2997.6738 9539710
2177.7151 1281.4448 2983.582 10460813
2192.5601 1279.7893 2979.7275 11381659
2169.7307 1256.3456 2925.1436 10921111
2210.8008 1269.9801 2956.8887 9802630
2218.5247 1264.3951 2943.8853 9934216
2266.2178 1281.4991 2983.7085 10526353
2297.957 1289.3867 3002.073 10131596
2336.717 1301.062 3029.2566 7236959
2318.0393 1280.8225 2982.1331 8420975
2330.6907 1278.0688 2975.7217 9407614
2375.0264 1292.6006 3009.5562 9605251
2400.0779 1296.4989 3018.6323 7236703
2390.0593 1281.535 2983.7922 10131593
2411.3984 1283.4811 2988.3232 11052438
2420.2239 1278.7871 2977.394 9604994
2439.0105 1279.3861 2978.7888 11908005
2474.9565 1288.9127 3000.9697 9407870
2513.3608 1299.5747 3025.7937 10526094
2502.123 1284.599 2990.926 9406843
2573.4211 1311.9103 3054.5146 7762787
2599.835 1316.1182 3064.3118 8025959
2620.1985 1317.2261 3066.8914 10723727
2652.2388 1324.1483 3083.0085 10263434
2644.269 1311.1372 3052.7148 10000261
2654.1511 1307.0946 3043.3025 9408124
2702.5767 1321.9601 3077.9136 11250585
2742.2642 1332.3806 3102.1755 8026471
2780.8101 1342.1112 3124.8313 10658192
2825.606 1354.7097 3154.1646 9671298
2840.2283 1352.7714 3149.6511 9868422
2887.8269 1366.4618 3181.5266 9276799
2910.2676 1368.1478 3185.4521 9672069
2790.5798 1303.4264 3034.7617 11513761
2830.0493 1313.3975 3057.9773 7763815
2890.4985 1332.916 3103.4221 11842983
2904.3662 1330.843 3098.5957 10461586
2994.925 1363.7168 3175.1357 10066571
3044.9153 1377.823 3207.979 10790037
3075.5615 1383.0551 3220.1609 9144954
0 0 0 0
0 0 0 0
0 0 0 0
0 0 0 0
0 0 0 0
0 0 0 0
0 0 0 0
0 0 0 0
0 0 0 0
0 0 0 0
0 0 0 0
0 0 0 0
0 0 0 0
0 0 0 0
0 0 0 0
0 0 0 0
0 0 0 0
-1537.2498 801.98932 1841.8541 3482898
-1512.4052 794.67029 1825.0453 2496519
-1503.7847 795.83203 1827.7133 5326126
-1526.5173 813.72363 1868.8033 5194795
-1510.3054 810.96533 1862.4685 5392692
-1501.4116 812.12476 1865.1313 3946534
-1482.6647 807.93231 1855.5028 5986120
-1495.6202 821.08148 1885.7014 5986378
-1497.386 828.23944 1902.1404 3946797
-1486.7063 828.56982 1902.8992 2301974
-1492.4082 838.10468 1924.7971 3288347
-1459.3568 825.85608 1896.6666 3683616
-1457.2172 831.04584 1908.5857 6381385
-1456.9948 837.41901 1923.2223 4012067
-1430.8768 828.8916 1903.6381 2959633
-1440.5247 841.112 1931.7035 3485976
-1417.23 834.13922 1915.6898 4867115
-1403.8296 832.92426 1912.8995 4472356
-1377.9524 824.22662 1892.9246 6972746
-1368.0934 825.04602 1894.8064 6775622
-1347.3933 819.28711 1881.5804 6249279
-1349.4015 827.35522 1900.1096 4736297
-1333.9746 824.77917 1894.1935 5328178
-1335.5939 832.78827 1912.5872 4538410
-1317.3579 828.44806 1902.6195 65536
-1319.5062 836.96259 1922.1741 5459511
-1315.7852 841.87024 1933.4449 2103814
-1305.3265 842.5152 1934.9263 5261871
-1310.0397 853.05096 1959.1228 7565137
-1307.4585 858.98291 1972.7461 4933420
-1290.9651 855.79926 1965.4346 4867886
-1281.6942 857.38922 1969.0859 5065006
-1276.7159 861.90625 1979.4598 6184513
-1280.6531 872.58167 2003.9771 7039311
-1247.5675 857.99512 1970.4774 5526332
-1230.2981 854.11298 1961.5618 7763293
-1183.9917 829.80609 1905.7383 5592382
-1181.1978 835.82062 1919.5514 6118214
-1206.0571 861.71008 1979.0093 5394749
-1185.6427 855.44275 1964.6157 6776145
-1173.6018 855.15277 1963.9496 5657404
-1172.1218 862.62903 1981.1199 4604971
-1160.0659 862.39459 1980.5814 6447694
-1147.5454 861.80658 1979.2308 4934195
-1143.8182 867.87817 1993.175 5723203
-1134.4261 869.73346 1997.4359 5460289
-1115.7953 864.47003 1985.3479 7499870
-1117.0765 874.68591 2008.8097 6315594
-1108.6006 877.3996 2015.0419 7105366
-1094.0137 875.28308 2010.1812 4802353
-1094.9695 885.69208 2034.0865 5525303
-1070.1974 875.29059 2010.1984 10393988
-1053.4332 871.27826 2000.9835 1709832
-1043.7502 873.09778 2005.1624 4209446
-1058.7887 895.87701 2057.4773 3288347
-1045.2302 894.70819 2054.793 3551781
-1041.6932 902.19135 2071.9788 1577736
-1041.8839 913.11993 2097.0774 1906956
-1016.5746 901.69391 2070.8364 4802361
-1038.7333 932.60718 2141.832 5460801
-1026.2957 932.83923 2142.365 3486752
-1023.1042 941.58655 2162.4541 4867892
-1008.1024 939.54858 2157.7737 4736048
-974.38855 919.79468 2112.4067 7959390
-963.56665 921.41705 2116.1328 9668981
-951.21094 921.59637 2116.5444 7561042
-937.29968 920.25305 2113.4595 5257517
-876.4198 872.1344 2002.95 1903111
-876.84576 884.53809 2031.4363 1966337
-870.02393 889.87408 2043.6909 917504
-867.23175 899.54034 2065.8906 786432
-853.43488 897.90558 2062.136 786432
0 0 0 0
0 0 0 0
0 0 0 0
0 0 0 0
0 0 0 0
0 0 0 0
0 0 0 0
-601.05536 714.1889 1640.2112 2301201
-589.63617 712.13702 1635.4988 262400
-580.52551 712.85126 1637.1392 131072
-575.64783 718.87598 1650.9755 7104856
-563.12891 715.40155 1642.9962 5393979
-552.68408 714.48621 1640.8939 9736317
0 0 0 0
-575.01263 770.46375 1769.4523 6643785
-657.82092 897.79156 2061.8743 8485988
-652.16602 906.91998 2082.8386 7301459
-645.61487 915.13013 2101.6941 8419685
-626.53894 905.56073 2079.717 7498839
-618.02765 911.18323 2092.6296 7695962
-609.15936 916.4989 2104.8376 6972497
-612.55359 940.8717 2160.8125 7696220
-600.85687 942.61108 2164.8071 5919549
-594.35376 952.75177 2188.0962 4275233
-586.82697 961.66711 2208.5713 6314558
-572.49487 959.58252 2203.7839 3748384
-555.55432 952.92645 2188.4976 2235144
-543.74066 954.95648 2193.1597 4012322
-534.58099 961.86127 2209.0171 5393978
-521.80939 962.45044 2210.3704 4144174
-510.55215 965.93524 2218.3735 2235925
-496.11691 963.43274 2212.6262 3024673
-481.55603 960.5437 2205.9912 2170135
-460.68332 944.552 2169.2646 3749677
-458.65247 967.38318 2221.699 6250838
-448.59415 974.1322 2237.1987 5000772
-441.72021 988.41791 2270.0073 2632481
-433.21976 999.84698 2296.2554 5790282
-424.20187 1010.7845 2321.3745 2697501
-408.47287 1005.928 2310.2212 7105365
-395.5545 1007.8965 2314.7419 7565658
-385.22852 1016.849 2335.3025 9012848
-371.30188 1016.6105 2334.7546 5591101
-357.43793 1016.5317 2334.5737 5985858
-342.47372 1013.1916 2326.9028 7631454
-332.59674 1025.2528 2354.6028 5591610
-315.58466 1015.4128 2332.0042 3947043
-302.01453 1016.2535 2333.9348 6644555
-288.22049 1016.3852 2334.2373 6447686
-275.8674 1021.8679 2346.8289 5658166
-260.74109 1017.1147 2335.9126 8157800
-241.65311 995.508 2286.2905 6250570
-230.19841 1004.6483 2307.2822 7434074
-216.74603 1005.6741 2309.6382 8947314
-202.1577 1001.2122 2299.3906 7368283
-187.63574 996.45764 2288.4714 9473916
-175.56462 1004.9918 2308.071 6315596
-162.90215 1011.297 2322.5515 7038801
-147.20386 998.18018 2292.4275 6973007
-136.61646 1020.5765 2343.863 7499356
-120.98071 1006.0609 2310.5264 7630427
-106.85435 1001.9943 2301.187 8288616
-92.979263 999.43854 2295.3174 5788987
-81.278023 1023.3779 2350.2966 5327927
-66.832565 1015.5205 2332.2515 7762271
-53.825035 1031.1121 2368.0591 6578250
-39.438599 1021.9697 2347.0625 7302229
-25.664324 1027.3706 2359.4663 8223334
-11.707387 1029.6365 2364.6702 7828579
2.3402119 1044.843 2399.5935 7170906
16.391787 1034.1851 2375.1165 10526353
30.405968 1032.1053 2370.3403 6973787
45.240959 1050.3976 2412.3503 7565664
59.436245 1048.6189 2408.2654 6644564
73.411232 1044.3949 2398.5645 6842459
87.433716 1042.1074 2393.311 5461063
101.46235 1040.5216 2389.6689 9605251
115.55216 1039.8748 2388.1836 6710357
130.37982 1045.2845 2400.6077 7696992
145.35352 1050.6855 2413.0117 6578253
159.50095 1049.6814 2410.7053 6775375
175.9369 1062.6652 2440.5239 6709580
189.97351 1060.2849 2435.0576 9801853
205.11333 1063.9634 2443.5056 8551788
217.85202 1055.5228 2424.1211 8288360
231.93893 1054.255 2421.2092 9603963
244.99512 1048.7227 2408.5037 8814703
260.75134 1054.7211 2422.2795 7827809
276.22772 1059.0204 2432.1536 6841168
291.77432 1063.1493 2441.636 7433050
305.55417 1060.7545 2436.1362 7695960
324.92468 1077.1086 2473.6953 9011819
338.96408 1075.1415 2469.1772 4537382
352.74509 1072.5513 2463.2285 6511426
370.21118 1080.9265 2482.4631 7959384
387.82092 1089.0649 2501.1541 7564886
403.29651 1090.8317 2505.2114 7631196
414.14249 1080.3956 2481.2439 7696730
436.14859 1098.7908 2523.4905 6709837
447.52017 1090.063 2503.446 5985859
462.22455 1089.7527 2502.7336 6710351
475.89133 1087.0916 2496.6221 8288612
498.25443 1103.8573 2535.1262 8617831
517.59058 1113.1316 2556.4255 6973003
530.64441 1108.752 2546.3672 6446147
538.33173 1093.7114 2511.8252 8222817
0 0 0 0
570.35175 1098.0409 2521.7683 8091233
595.08044 1116.3964 2563.9236 7498841
607.54346 1111.3999 2552.4487 8881010
625.61304 1116.6532 2564.5134 9473144
625.51117 1089.9924 2503.2842 3420191
674.59003 1148.2821 2637.1526 7959648
689.1557 1146.5143 2633.0925 8486249
711.76221 1157.9056 2659.2539 10920590
724.86237 1153.6733 2649.5342 9670781
737.40906 1148.7584 2638.2463 9473405
745.08868 1136.6228 2610.3757 7828839
754.41595 1127.4432 2589.2939 8815736
772.67096 1131.7059 2599.0837 9342079
803.29846 1153.5695 2649.2954 8881527
823.70477 1160.1979 2664.5183 8815733
839.84064 1160.6752 2665.6145 9605506
855.54388 1160.548 2665.3225 10855832
876.45276 1167.3588 2680.9644 8289900
881.35437 1152.9866 2647.9568 9210746
895.10925 1150.4962 2642.2375 7697251
915.05206 1155.9083 2654.667 8486513
919.32141 1141.673 2621.9741 7697252
944.20337 1153.0836 2648.1799 8618358
965.61768 1159.9556 2663.9619 8092271
961.89941 1136.9014 2611.0156 8486260
990.84479 1152.5723 2647.0054 7763049
980.39233 1122.6405 2578.2639 10394253
1010.7844 1139.6804 2617.3979 9144441
1041.429 1156.4857 2655.9929 9078389
1079.079 1180.454 2711.0388 8749425
1089.7148 1174.6007 2697.5962 7828064
1106.1503 1175.0776 2698.6914 9801596
1122.4928 1175.4436 2699.5317 9669753
1138.0924 1175.0322 2698.5872 9209714
1152.5975 1173.5179 2695.1094 10460039
1160.326 1165.2397 2676.0977 8947060
1177.1985 1166.2435 2678.4031 8157544
1194.7008 1167.8367 2682.0615 8618096
1207.3566 1164.7123 2674.8862 9210234
1222.498 1164.0358 2673.3325 8486514
1255.3998 1180.071 2710.1594 8946808
1269.0806 1177.8621 2705.0859 8552050
1292.8645 1184.9681 2721.4058 8486255
1309.0179 1184.9915 2721.4595 8815219
1345.1367 1202.8678 2762.5146 9670528
1350.4679 1193.1143 2740.1143 7894114
1358.5021 1185.9519 2723.6653 10920336
1389.4999 1198.7694 2753.1021 7565408
1411.1934 1203.3552 2763.634 8947318
1409.6698 1188.2656 2728.9788 8552304
1430.8331 1192.4247 2738.5308 6578515
1448.7289 1193.7981 2741.6848 7894119
1475.3862 1202.2808 2761.1663 7170908
1496.5675 1206.1638 2770.0842 3290154
1515.179 1207.9141 2774.1038 8092527
1524.4711 1202.2769 2761.1575 9013629
1562.2783 1219.0092 2799.5847 9671047
1593.4849 1230.2936 2825.5005 7104606
1614.6827 1233.696 2833.3149 8420465
1636.1635 1237.2426 2841.4597 8025707
1655.2854 1238.9512 2845.3838 8288622
1683.0459 1247.026 2863.9285 7828327
1700.1837 1247.1475 2864.2073 9144188
1724.4523 1252.4456 2876.375 8420462
1716.3734 1234.3762 2834.877 6973274
1733.0448 1234.2847 2834.6665 8881272
1738.2465 1226.1044 2815.8796 8749942
1738.2614 1214.4557 2789.1274 11381664
1816.1134 1256.8964 2886.5967 10197389
1836.5248 1259.1621 2891.8003 9671044
1822.803 1238.2 2843.6584 9934730
1866.6294 1256.3553 2885.3542 6973532
1870.7935 1247.7281 2865.541 9736837
1912.1653 1263.8488 2902.5637 9736837
1949.3931 1276.9673 2932.6919 9605251
1976.9708 1283.5886 2947.8984 8157805
1950.1829 1255.1051 2882.4829 7828840
1963.5613 1252.7421 2877.0559 7828837
2007.8859 1269.9933 2916.6753 9539457
2032.5785 1274.6388 2927.344 11250075
2048.2493 1273.5958 2924.949 9473922
2084.5142 1285.2682 2951.7559 8815736
2093.8799 1280.2991 2940.3435 9276285
2112.7717 1281.1885 2942.3862 8026216
2124.3281 1277.6515 2934.2632 8618355
2141.0798 1277.2714 2933.3901 10394765
2169.0925 1283.5608 2947.8347 11118487
2168.3582 1272.8748 2923.293 11052697
2193.6741 1277.5291 2933.9819 8946551
2190.2041 1265.4778 2906.3052 8288878
2193.7349 1257.6281 2888.2773 11250334
2233.9392 1270.7615 2918.4395 10460818
2307.9109 1302.7538 2991.9133 9934730
2300.3787 1288.6022 2959.4126 10329488
2293.4954 1275.0256 2928.2327 9934986
2271.8103 1253.486 2878.7644 9671814
2339.0652 1280.9747 2941.8953 9934985
2307.9163 1254.5653 2881.2434 10855831
2390.4626 1289.8937 2962.3787 11776677
2377.5281 1273.561 2924.8691 9671301
2418.6663 1286.2203 2953.9424 11052697
2468.0845 1303.069 2992.6372 11381662
2468.176 1293.8202 2971.3965 10592146
2476.2175 1288.8405 2959.9597 8947061
2523.4702 1304.196 2995.2256 9407869
2568.5706 1318.2324 3027.4617 10000261
2603.0076 1326.6396 3046.7698 10460556
2609.0703 1320.5693 3032.8286 9671296
2605.6958 1309.8383 3008.1836 10329225
2598.4363 1297.3134 2979.4187 9605503
2616.3975 1297.4642 2979.7654 9144952
2622.1628 1291.6061 2966.3113 8947572
2665.2681 1304.0958 2994.9954 8947571
2697.7263 1311.2454 3011.415 8881779
2702.2349 1304.8051 2996.6243 9868417
2719.3474 1304.4951 2995.9124 11316119
2770.0305 1320.189 3031.9548 11776930
2767.2954 1310.3855 3009.4402 11448222
2799.1348 1316.9745 3024.5728 11580065
2804.0388 1310.8876 3010.5935 11514015
2857.7405 1327.5463 3048.8518 11842468
2834.1895 1308.3337 3004.7283 11250331
2898.4324 1329.6361 3053.6514 11514017
2895.0037 1319.8228 3031.114 11776933
0 0 0 0
0 0 0 0
0 0 0 0
0 0 0 0
0 0 0 0
0 0 0 0
0 0 0 0
0 0 0 0
0 0 0 0
0 0 0 0
0 0 0 0
0 0 0 0
0 0 0 0
0 0 0 0
0 0 0 0
0 0 0 0
0 0 0 0
-1476.6401 780.85388 1769.2347 1114112
-1475.3799 785.76678 1780.3662 1114112
-1470.1436 788.61755 1786.8256 1245184
-1466.6018 792.42535 1795.453 1573120
-1478.0239 804.43304 1822.6598 851968
-1467.0033 804.31299 1822.3876 918017
-1485.8158 820.66888 1859.4463 1048833
-1481.725 824.52441 1868.1821 2758675
-1448.3662 812.02893 1839.8701 1247749
-1467.3306 828.90137 1878.0992 4405293
-1476.3855 840.39099 1904.1322 7038547
-1480.5562 849.2561 1924.2184 6380358
-1453.6049 840.26849 1903.8546 5723198
-1445.1652 841.92468 1907.6072 5064499
-1435.0403 842.61761 1909.1771 3880222
-1419.8435 840.3197 1903.9707 3879962
-1411.1841 841.88507 1907.5175 6511939
-1387.6327 834.51971 1890.8292 5459763
-1360.3292 824.7597 1868.7152 6840904
-1363.0032 833.16364 1887.7566 5591349
-1347.2491 830.34894 1881.3792 4801321
-1337.8628 831.44476 1883.8619 4538151
-1319.8989 827.18323 1874.2064 3551257
-1302.4003 823.14362 1865.0535 3288093
-1303.8988 831.14417 1883.181 2761488
-1305.587 839.40479 1901.8976 1116928
-1293.4431 838.83875 1900.615 1577473
-1289.0212 843.3147 1910.7565 1709316
-1308.6499 863.7439 1957.0446 5130548
-1300.8098 866.24634 1962.7144 3815203
-1300.2321 873.67377 1979.5431 3420444
-1269.0101 860.45795 1949.5992 6973776
-1264.0828 864.99219 1959.8729 6710861
-1241.1705 857.18982 1942.1943 6645067
-1234.8729 860.82324 1950.4269 5394743
-1200.8647 845.02594 1914.6339 5525560
-1173.85 833.89532 1889.4144 6644554
-1179.9069 846.27045 1917.4536 6051650
-1186.7239 859.43677 1947.2855 7696215
-1175.8225 859.90381 1948.3438 6115902
-1171.2177 865.03064 1959.96 6181184
-1164.6013 868.75964 1968.4089 4009250
-1146.4991 863.90918 1957.4189 6047800
-1136.7815 865.34216 1960.6656 4403490
-1133.8083 871.9917 1975.7321 4995117
-1126.0934 875.09521 1982.7639 5456181
-1100.9246 864.55768 1958.8882 6705477
-1091.1482 866.01196 1962.1833 7297612
-1088.9814 873.60223 1979.3812 5653813
-1090.1534 884.06543 2003.0884 4667432
-1076.9177 882.94635 2000.5526 7496789
-1063.4385 881.60034 1997.5029 7035980
-1049.8796 880.15741 1994.2335 2627337
-1031.4926 874.58777 1981.6141 3680796
-1032.2577 885.3158 2005.9214 5719865
-1022.9207 887.52869 2010.9353 3022356
-1022.6348 897.73956 2034.0707 3745566
-1018.732 904.98083 2050.4778 5257267
-1016.8967 914.2558 2071.4927 4532513
-1023.2715 931.22906 2109.9502 4794657
-1014.9022 935.03839 2118.5813 3674892
-996.40625 929.49664 2106.0249 2097922
-955.73486 902.86536 2045.6846 1179648
-932.25067 891.99493 2021.0547 983040
-939.74933 910.87238 2063.8267 1312774
-918.724 902.23547 2044.2574 1905166
-905.20502 900.83801 2041.0911 3811359
-892.96082 900.68848 2040.7523 4141348
-884.33618 904.23578 2048.7898 5787201
-870.04895 902.01129 2043.7495 9208695
-865.26984 909.72058 2061.217 6973274
-855.29779 912.11285 2066.6372 7368031
-838.62463 907.32446 2055.7878 7302238
-822.37756 902.86255 2045.6783 6512464
0 0 0 0
0 0 0 0
0 0 0 0
0 0 0 0
0 0 0 0
0 0 0 0
-588.06262 719.90302 1631.1342 0
-577.98157 719.38702 1629.965 256
-558.98413 707.56702 1603.1836 6184017
-558.64264 719.36139 1629.907 4999486
-561.15204 735.30658 1666.035 6249550
-542.13019 723.104 1638.3868 5393984
-674.00714 915.39856 2074.082 5525051
-668.73273 925.10565 2096.0762 6708809
-654.37933 922.38306 2089.9072 7432535
-638.5025 917.36658 2078.541 8156514
-627.94348 919.94324 2084.3792 8749677
-615.55701 919.89246 2084.2642 8025956
-608.8125 928.4436 2103.6392 7235925
-596.78729 929.13086 2105.1963 5262135
-586.44385 932.52161 2112.8789 5722686
-587.7149 954.93182 2163.6553 4933167
-577.99127 960.07898 2175.3174 5327669
-562.33124 955.37512 2164.6597 8157284
-554.74219 964.48419 2185.2986 1249543
-539.17407 959.8244 2174.7407 6512202
-530.01318 966.6217 2190.1418 3749161
-518.45734 969.28271 2196.1711 854532
-502.14352 962.95667 2181.8376 1446154
-487.98306 960.53473 2176.3501 1644304
-476.02887 962.44196 2180.6714 1973266
-458.88992 953.68048 2160.8201 5723980
-447.69174 957.1167 2168.6057 11316388
-446.41473 982.59338 2226.3298 6118998
-443.49573 1005.8975 2279.1316 7040354
-421.02496 984.92712 2231.6177 7105631
-412.43231 996.11542 2256.9678 4144949
-397.89673 993.21906 2250.4053 5788999
-389.74365 1006.6062 2280.7375 5394489
-377.21289 1009.2426 2286.7109 6381128
-368.4657 1022.5757 2316.9207 5855041
-355.77982 1025.5872 2323.7439 6184006
-339.36591 1017.6619 2305.7871 6250056
-323.48206 1010.7276 2290.0757 7171159
-308.86951 1007.3323 2282.3828 6644555
-296.44867 1011.1014 2290.9226 8025951
-288.54877 1031.392 2336.8962 5723962
-271.2424 1018.4106 2307.4834 4934191
-255.98854 1012.1665 2293.3357 6315847
-242.16922 1011.2122 2291.1736 6447180
-229.21342 1013.9645 2297.4097 5262648
-215.01024 1011.198 2291.1414 6512972
-201.12271 1009.6431 2287.6184 9144437
-186.34111 1003.0508 2272.6816 8158569
-173.356 1005.855 2279.0354 7894625
-158.85342 999.58429 2264.8274 6316101
-146.52058 1007.0694 2281.7869 8026211
-132.91345 1006.4274 2280.3323 8420458
-119.55404 1007.7281 2283.2795 9078390
-104.71745 995.32068 2255.167 7959654
-91.555252 997.52588 2260.1636 7630947
-80.051842 1021.6572 2314.8396 6446926
-65.494217 1008.7291 2285.5474 8552555
-52.69241 1023.153 2318.2288 5723713
-38.425335 1009.265 2286.7615 10329223
-24.778608 1005.4146 2278.0376 6513230
-11.367338 1013.3365 2295.9868 8223849
2.2675986 1026.2024 2325.1379 8947572
16.250299 1039.2123 2354.6152 11118741
30.459717 1048.002 2374.5305 7170904
44.06216 1036.952 2349.4941 6315599
59.039124 1055.7891 2392.1746 7500129
72.449257 1044.7374 2367.134 7829607
87.774109 1060.4031 2402.6287 7763813
101.44229 1054.4747 2389.1965 5591875
114.88151 1047.9102 2374.3228 6907477
130.00226 1056.4427 2393.6558 7762271
143.4238 1050.8468 2380.9763 6381386
157.11012 1048.0194 2374.5703 7762786
173.26508 1060.7706 2403.4614 8157545
185.52054 1049.5243 2377.98 9078649
200.90012 1056.2919 2393.3137 7236189
212.71307 1044.651 2366.9382 7499364
230.68251 1062.8149 2408.0935 9604997
244.48958 1060.8025 2403.5339 6578262
258.72592 1060.7719 2403.4641 7894374
274.8215 1067.9694 2419.7722 6381391
285.51144 1054.4879 2389.2266 6710612
302.99341 1066.1808 2415.7197 7236952
318.60223 1070.5245 2425.5615 5263161
332.68976 1069.6022 2423.4719 2893588
344.65527 1062.2163 2406.7371 6314818
360.37149 1066.5176 2416.4827 7038538
381.95029 1087.1771 2463.2927 4209960
392.29346 1075.5122 2436.8625 8749678
414.55273 1096.1848 2483.7019 7631708
430.32666 1098.8788 2489.8057 7960672
446.34177 1101.9896 2496.8542 5394490
456.58209 1091.1007 2472.1824 8948078
471.54031 1091.8127 2473.7959 7039570
485.39603 1090.0061 2469.7024 10328708
491.36768 1071.119 2426.9084 6709579
520.68353 1102.7463 2498.5688 8946541
536.78986 1105.4219 2504.6311 8880747
546.68097 1095.4989 2482.1477 7499097
563.77197 1100.1456 2492.6763 6314826
586.06537 1114.4479 2525.0818 6973268
598.87561 1110.454 2516.0327 10262403
608.37872 1100.6709 2493.8665 8485993
625.34045 1104.526 2502.6011 9078131
649.98315 1121.4547 2540.9578 3814436
679.01294 1145.0148 2594.3394 11776412
700.46106 1155.0298 2617.031 10197380
714.3866 1152.4752 2611.2429 9933953
734.61432 1159.9802 2628.2476 9407613
734.9563 1136.4254 2574.8777 9539456
746.5108 1130.8134 2562.1621 8684147
764.93152 1135.6188 2573.05 8618356
761.42609 1108.3208 2511.1992 10394767
799.83667 1141.9124 2587.3098 9671042
796.11005 1115.2131 2526.8157 9144698
835.47235 1148.7456 2602.7925 10526350
861.82281 1163.4956 2636.2129 9078904
881.20844 1168.4854 2647.5183 10328972
894.65839 1165.5673 2640.9065 8355184
893.20294 1143.6646 2591.2803 7829098
918.1485 1155.735 2618.6289 8684409
941.89899 1165.9248 2641.7168 8881274
946.54181 1152.5159 2611.3352 8947067
961.7655 1152.2146 2610.6523 8947323
983.43103 1159.5178 2627.2 8025963
983.08386 1141.0439 2585.3423 9275773
999.17749 1141.9265 2587.3423 8223597
1030.1315 1159.5092 2627.1804 10525837
1056.4521 1171.4309 2654.1921 8223076
1071.4788 1170.6631 2652.4524 9077615
1097.0758 1181.2994 2676.552 8024928
1092.2289 1159.3187 2626.7488 8946283
1118.3011 1170.313 2651.6592 8090719
1122.3417 1158.2655 2624.3625 9669495
1128.6808 1148.8872 2603.1133 7761758
1144.4292 1149.2103 2603.8455 7301208
1172.0188 1161.2573 2631.1411 8552303
1199.7054 1173.0829 2657.9353 8815476
1208.7083 1166.5695 2643.1772 9605251
1234.5179 1176.2362 2665.0798 7960426
1243.6934 1170.0099 2650.9724 8881271
1276.0269 1185.4531 2685.9634 8552818
1306.6107 1198.9104 2716.4546 6973529
1304.0182 1181.9691 2678.0693 10592141
1325.4786 1186.9746 2689.4106 5526080
1341.4348 1186.9908 2689.4473 7105632
1348.5197 1179.2485 2671.9053 6907220
1394.394 1205.213 2730.7349 8486509
1412.5928 1206.9355 2734.6375 7828583
1422.8121 1201.8784 2723.1792 7566181
1456.4414 1216.4877 2756.2805 7105629
1461.4938 1207.1691 2735.1667 10395533
1471.4919 1202.0952 2723.6704 9474177
1480.9148 1196.6664 2711.3701 10131592
1510.7802 1207.6957 2736.3599 6578255
1529.2463 1209.4752 2740.3918 9144445
1550.5962 1213.474 2749.4521 6710617
1579.6692 1223.3708 2771.876 9013372
1621.8995 1243.1487 2816.6882 8026734
1616.1532 1226.1251 2778.1167 9078907
1665.3685 1250.7223 2833.8481 7434082
1684.287 1252.3019 2837.427 9736837
1694.7468 1247.6232 2826.8264 7763048
1698.411 1238.0824 2805.209 5986637
1693.8895 1222.8173 2770.6218 8749686
1708.9745 1221.8632 2768.4602 9473663
1720.5199 1218.4208 2760.6604 9934469
1750.8103 1228.1927 2782.8015 8289138
1784.6224 1240.2299 2810.0747 9671045
1802.3857 1240.9943 2811.8066 8947322
1844.012 1258.0245 2850.3933 8355184
1844.2769 1246.7839 2824.9248 8947320
1874.026 1255.4987 2844.6704 9078649
1897.4729 1259.8735 2854.5828 9473662
1924.4659 1266.5046 2869.6074 6973529
1929.2697 1258.5447 2851.5718 7960425
1945.0706 1257.8345 2849.9629 8552560
1965.5281 1260.1221 2855.1458 8223339
1979.9525 1258.5355 2851.5513 11052438
2010.0995 1266.8853 2870.47 9802369
2056.1824 1285.0543 2911.6367 11710110
2047.173 1268.7765 2874.7549 9539453
2065.0322 1269.2823 2875.9011 8289641
2109.9856 1286.2971 2914.4524 9276537
2095.5432 1267.1204 2871.0024 9013623
2104.0081 1261.9924 2859.3838 9276283
2135.1316 1270.4286 2878.498 12105385
2155.5229 1272.3959 2882.9556 10723733
2176.2913 1274.5531 2887.8433 7369058
2179.3225 1266.3699 2869.302 11118490
2238.1343 1290.4755 2923.9199 10131593
2226.4451 1273.8733 2886.303 10131595
2247.3833 1276.0498 2891.2346 8091756
2302.1909 1297.2788 2939.3345 10460303
2267.7847 1268.2947 2873.6633 10066572
2285.8401 1268.8639 2874.9529 11316640
2289.4392 1261.4595 2858.1763 11250846
2346.9146 1283.631 2908.4119 10658709
2341.0757 1271.1024 2880.0249 10330000
2343.7727 1263.3562 2862.4739 9868936
2422.6899 1296.5109 2937.5947 11250076
2437.1453 1294.9417 2934.0391 10000007
2452.5701 1293.906 2931.6926 8749683
2473.6794 1295.8629 2936.1265 9868675
2439.6892 1269.1296 2875.5552 9802627
2507.5317 1295.3733 2935.0171 10527120
2545.9446 1306.1569 2959.4502 10855827
2577.0906 1313.0905 2975.1599 10855827
2565.6848 1298.3958 2941.8652 10789520
2559.3901 1286.4686 2914.8411 10921106
2578.054 1287.1625 2916.4133 7302748
2612.1741 1295.5127 2935.333 9605503
2644.2673 1302.7539 2951.7397 9408124
2663.4885 1303.6 2953.6567 10197383
2684.1602 1305.1401 2957.1465 10131847
2709.6694 1308.9973 2965.886 10921363
2737.4871 1313.9128 2977.0234 10855825
2755.8918 1314.2764 2977.8472 11250074
2751.6794 1303.9178 2954.377 11250074
2756.332 1297.8645 2940.6616 11118488
2785.1968 1303.2163 2952.7876 10921109
2792.1638 1298.3192 2941.6919 10657937
2855.5229 1319.5416 2989.7771 11250074
0 0 0 0
0 0 0 0
0 0 0 0
0 0 0 0
0 0 0 0
0 0 0 0
0 0 0 0
0 0 0 0
0 0 0 0
0 0 0 0
0 0 0 0
0 0 0 0
0 0 0 0
0 0 0 0
0 0 0 0
0 0 0 0
0 0 0 0
0 0 0 0
-1450.4393 782.85626 1750.2701 787972
-1447.9572 787.14557 1759.86 1050115
-1444.7058 791.07605 1768.6473 852225
-1434.6941 791.33502 1769.2266 655360
-1433.8621 796.69843 1781.2178 393216
-1437.1288 804.43567 1798.5162 458752
-1430.0066 806.42993 1802.9749 458752
-1402.1608 796.67938 1781.175 655360
-1415.5729 810.4007 1811.8524 655360
-1431.5322 825.80103 1846.2839 589824
-1428.1738 830.20917 1856.1392 589824
-1417.1219 830.17865 1856.0712 524544
-1405.9152 830.05634 1855.7976 589824
-1408.307 838.02386 1873.6111 1115905
-1422.7313 853.33514 1907.8431 1839627
-1376.6262 832.29608 1860.8052 2629912
-1361.6221 829.87238 1855.3864 6246463
-1347.7711 828.11792 1851.4637 7496010
-1345.7013 833.63275 1863.7936 4404255
-1327.7122 829.29547 1854.0966 2892561
-1327.4232 836.03387 1869.1617 1445381
-1310.2236 832.14526 1860.4679 7234644
-1293.8695 828.73224 1852.8373 1380105
-1279.9545 826.83649 1848.5988 919296
-1282.7635 835.80487 1868.6498 1445123
-1271.9531 835.97803 1869.0371 1970955
-1259.6705 835.17828 1867.2489 2167562
-1275.5436 853.19727 1907.535 2167048
-1292.1282 872.01886 1949.6152 4666407
-1256.0625 855.32727 1912.2971 3547406
-1217.6403 836.7124 1870.679 4731424
-1239.858 859.80768 1922.3142 5124903
-1233.7601 863.51306 1930.5985 3875097
-1210.3243 855.03943 1911.6534 3478286
-1192.5559 850.44714 1901.3864 3082757
-1176.417 846.94043 1893.5461 3740428
-1164.1492 846.17993 1891.8459 2754564
-1188.9719 872.62665 1950.9742 2098436
-1146.3369 849.59711 1899.486 1441792
-1154.8719 864.41107 1932.6062 1376256
-1144.6266 865.32416 1934.6476 1310720
-1142.2291 872.24847 1950.1287 1310720
-1135.8773 876.26385 1959.1061 1376256
-1137.0649 886.23859 1981.407 1114112
-1118.3977 880.78485 1969.2139 917504
-1101.8275 876.88501 1960.4948 1048576
-1084.9043 872.61816 1950.9551 1114112
-1073.2229 872.521 1950.7379 1507328
-1066.8539 876.78741 1960.2766 1441792
-1047.1395 870.05957 1945.2347 1179648
-1039.2714 873.13409 1952.1086 1179648
-1026.4597 872.07812 1949.7477 1179648
-1015.6688 872.73438 1951.2148 1049088
-999.82062 869.01001 1942.8883 1508866
-992.23346 872.46295 1950.608 1180674
-980.70514 872.49084 1950.6704 1573120
-970.45648 873.67145 1953.3101 1443332
-950.90784 866.40698 1937.0686 2100484
-941.48676 868.30542 1941.313 2563093
-934.74414 872.75165 1951.2535 3549725
-930.09766 879.29089 1965.8737 3748639
-938.17352 898.17596 2008.0959 8158314
-914.93195 887.17877 1983.5089 8356209
-919.44159 903.15497 2019.2278 5921612
-921.39441 917.00787 2050.1995 7368546
-905.90051 913.63531 2042.6593 4867902
-889.75824 909.50873 2033.4332 2301719
-887.16937 919.31329 2055.3538 5722954
-869.90515 913.97198 2043.4119 6841690
-859.3399 915.61755 2047.0909 4868413
-847.67218 916.11877 2048.2117 5196867
-832.72852 913.0426 2041.3341 5263678
-821.54944 914.06439 2043.6185 3880489
0 0 0 0
0 0 0 0
0 0 0 0
0 0 0 0
0 0 0 0
0 0 0 0
0 0 0 0
-578.36163 729.52594 1631.0369 0
-559.5097 717.74194 1604.6909 6315602
-558.46771 728.7923 1629.3966 5788744
