# .PCD v0.7 - Point Cloud Data file format
VERSION 0.7
FIELDS x y z rgb
SIZE 4 4 4 4
TYPE F F F U
COUNT 1 1 1 1
WIDTH 1308
HEIGHT 1
VIEWPOINT 0 0 0 1 0 0 0
POINTS 1308
DATA ascii
0 0 0 0
0 0 0 0
0 0 0 0
0 0 0 0
-1519.8431 786.56647 1758.5651 1315335
-1517.0153 790.5235 1767.4121 3881260
-1514.1064 794.49323 1776.2875 4407348
-1485.4072 784.89081 1754.8188 3354403
-1471.139 782.83221 1750.2163 4341298
-1486.7139 796.7373 1781.3047 3815208
-1475.7509 796.51788 1780.814 3485731
-1466.3033 797.11908 1782.1582 5327421
-1460.2677 799.59729 1787.6987 5393212
-1446.2908 797.73145 1783.5273 5327414
-1435.5533 797.63818 1783.3187 6971981
-1412.6875 790.7547 1767.929 5854010
-1415.126 798.03821 1784.2131 6051389
-1407.4008 799.65662 1787.8314 4603942
-1390.9852 796.32446 1780.3816 4406824
-1382.6774 797.61841 1783.2745 2761745
-1394.2985 810.51715 1812.1129 1775371
-1369.9119 802.52203 1794.2379 2695693
-1375.7911 812.27106 1816.0341 4274210
-1354.6451 806.09204 1802.2194 3748123
-1346.8358 807.81396 1806.0693 3813659
-1334.5526 806.85883 1803.9337 2629390
-1331.5551 811.54742 1814.4163 5457970
-1323.2712 813.06433 1817.8076 3812888
-1313.1438 813.46405 1818.7014 6050876
-1297.9585 810.71124 1812.5468 4867118
-1284.3289 808.89227 1808.48 4406571
-1272.4393 808.14789 1806.8158 4406827
-1270.8435 813.98401 1819.8639 7894374
-1264.3092 816.72986 1826.0029 3157536
-1261.118 821.70129 1837.1178 1315336
-1250.5557 821.91486 1837.5952 7696993
-1242.3695 823.70752 1841.6031 6117192
-1236.9169 827.36029 1849.7699 7368025
-1226.7921 827.92554 1851.0336 5130550
-1212.6151 825.74133 1846.1504 3748896
-1201.2645 825.45966 1845.5206 1577989
-1192.6874 827.09613 1849.1793 4341290
-1197.9579 838.45502 1874.5748 12630950
-1192.385 842.36609 1883.3192 5130288
-1178.2317 840.23212 1878.5481 5064753
-1142.7032 822.66888 1839.281 5919551
-1128.6051 820.34412 1834.0836 3814690
-1130.1411 829.44873 1854.4392 4011816
-1119.2932 829.55402 1854.6744 3289115
-1103.9055 826.26318 1847.317 4473134
-1077.1107 814.2829 1820.5322 4276268
-1074.901 820.83435 1835.1794 7368801
-1060.6974 818.26697 1829.4396 5526598
-1052.5142 820.33893 1834.072 6117966
-1043.8457 822.07208 1837.9468 6577748
-1039.2656 827.09546 1849.1777 5985354
-1031.8734 829.96405 1855.5912 3288097
-1019.9219 829.18762 1853.8553 2761754
-1005.6479 826.48572 1847.8146 5658161
-1012.6832 841.42993 1881.2262 6710081
-995.89783 836.69427 1870.6384 5920318
-988.09882 839.48669 1876.8816 2102281
-1010.2219 868.05402 1940.7509 2102541
-998.37701 867.75531 1940.083 2892829
-983.98206 865.20752 1934.3867 1643792
-971.80579 864.57349 1932.9692 1840398
-951.1759 856.31384 1914.5027 1313284
-943.26221 859.44086 1921.4939 1509379
-929.57416 857.31879 1916.7495 1181699
-920.19995 859.172 1920.8929 984322
-913.0553 863.17944 1929.8525 985351
-902.6748 864.19061 1932.1133 1116678
-891.60602 864.56036 1932.9399 589824
-876.75946 861.22888 1925.4916 1246209
-876.3244 872.15247 1949.9141 1508868
-866.93268 874.33478 1954.7932 2428941
-861.58545 880.71063 1969.0479 2101004
-853.52271 884.44739 1977.4025 918530
-843.0827 885.79083 1980.4059 2034438
-828.32513 882.57166 1973.2086 2298122
-816.3783 882.29803 1972.5969 2102540
-805.49005 883.17719 1974.5624 2627084
-789.69006 878.61731 1964.3678 4469027
-782.3136 883.43329 1975.1351 3811354
-766.25763 878.44543 1963.9835 2692871
-756.40442 880.52429 1968.6311 4731938
-750.07123 886.83002 1982.7292 5520939
-741.44763 890.58539 1991.1254 4665890
-731.03119 892.27393 1994.9004 4008482
-719.63525 892.80273 1996.0828 3217681
-704.35779 888.45319 1986.3583 3285784
-693.63611 889.79999 1989.3694 1509889
-683.63605 892.13513 1994.5902 3417110
-674.8667 896.18671 2003.6486 5258800
-661.32684 893.935 1998.6143 4402976
-648.41901 892.47107 1995.3412 5324077
-636.17609 891.88489 1994.0308 2496267
-625.64392 893.72034 1998.1343 5653812
-611.01636 889.66351 1989.0643 3088401
-591.17981 877.7135 1962.3469 6839367
-578.62988 876.31903 1959.2295 5327158
-567.43109 876.95587 1960.6532 5459518
-556.34137 877.79144 1962.5212 5722942
-555.8432 895.73065 2002.6289 5985606
-540.77905 890.46771 1990.8623 6774864
-523.71051 881.59601 1971.0272 5722175
-519.57471 894.58661 2000.071 7959393
-509.20035 897.19165 2005.8953 6577224
-505.71243 912.34485 2039.7742 8617065
-485.6871 897.67493 2006.9757 6248260
-476.91568 903.59064 2020.2018 7037779
-469.34372 912.14227 2039.321 5459002
-457.41718 912.45917 2040.0295 6315850
-450.40576 922.86438 2063.293 8487019
-435.81821 917.89374 2052.1799 5262394
-424.19806 919.06696 2054.803 4736313
-420.68304 938.3891 2098.0024 6578257
-412.02255 947.06104 2117.3906 4933697
-397.80127 943.09424 2108.522 4868413
-378.51196 926.46545 2071.3442 7763305
-356.90903 902.86926 2018.589 8749942
-352.2901 922.09064 2061.5632 6249035
-345.73438 937.44165 2095.8843 9077617
-333.80426 938.82135 2098.9688 11315089
-316.70877 925.2179 2068.5549 9274993
-301.56644 916.45459 2048.9624 6709061
-289.79257 917.62219 2051.5728 6906696
-275.3985 910.23175 2035.0497 6511939
-265.51978 917.77179 2051.9075 7169615
0 0 0 0
0 0 0 0
0 0 0 0
-185.97392 786.98798 1759.5074 512
-175.06441 784.82574 1754.6732 66048
-165.3533 788.10229 1761.9989 6381901
-183.25696 932.30902 2084.4089 6840910
-172.59628 941.53906 2105.0449 6643275
-160.45644 943.50952 2109.4504 9472117
-148.507 947.0271 2117.3149 4998450
-136.78014 952.74445 2130.0974 5787967
-123.9444 951.11511 2126.4546 4998450
-110.98604 948.06946 2119.6453 4603695
-99.726906 960.61414 2147.6921 3815465
-86.584244 956.0321 2137.4478 1710091
-75.401627 975.23053 2180.3706 3091488
-63.053242 984.17346 2200.3647 4670263
-49.442993 972.94873 2175.269 5130814
-37.243908 991.3692 2216.4526 4867385
-24.30961 999.62921 2234.9199 6183241
-11.208677 1012.6093 2263.9402 6250055
2.1724703 996.35309 2227.5955 7959912
15.343416 994.39203 2223.2109 6117703
27.403528 955.51019 2136.281 4867378
41.154572 981.53009 2194.4548 6709584
54.292938 983.95056 2199.8665 6578771
67.485809 986.23029 2204.9634 5920586
81.079674 992.67981 2219.3828 7434083
95.839111 1009.6075 2257.229 5789255
109.49669 1012.2029 2263.0315 8091752
122.10606 1005.5994 2248.2678 7894368
135.09895 1003.143 2242.7759 6841937
147.29199 995.71948 2226.1787 8223592
159.69672 990.8299 2215.2468 9276026
179.7831 1030.723 2304.438 8288872
191.8506 1022.2557 2285.5073 7894112
202.85616 1009.6199 2257.2566 7235930
217.96359 1017.6996 2275.3208 10394254
230.97842 1015.6364 2270.708 8420722
241.5309 1003.5693 2243.729 9078652
254.66272 1002.9194 2242.2761 10722960
268.15143 1003.67 2243.9541 7695964
284.31873 1013.9016 2266.8293 8090209
299.75916 1020.7347 2282.1067 262400
312.13031 1016.9778 2273.707 9998722
330.2341 1031.4368 2306.0337 5327680
348.78271 1046.0807 2338.7739 7564644
363.63486 1048.9424 2345.1719 8157295
377.50989 1048.8787 2345.0293 8156782
390.49313 1046.4296 2339.554 7565156
406.53354 1052.0602 2352.1423 6972760
419.47626 1049.5665 2346.5674 6577999
429.70203 1040.6531 2326.6392 7038036
444.49619 1043.0137 2331.9167 7762271
457.10452 1040.2577 2325.7549 7235934
471.38641 1041.3599 2328.2192 4671028
482.0679 1034.6719 2313.2666 5855046
499.47769 1042.3955 2330.5347 4078641
516.8811 1049.6906 2346.8445 9539714
533.54102 1055.1328 2359.0122 5395011
556.42969 1072.301 2397.3958 7631200
563.4906 1058.8716 2367.3711 8354923
580.65594 1064.6211 2380.2253 6182989
597.08038 1068.7715 2389.5046 8682871
618.17865 1080.902 2416.6255 12301486
626.98926 1071.4844 2395.5701 5328195
0 0 0 0
652.92279 1067.4628 2386.5789 8353894
664.08221 1062.6879 2375.9033 7037777
679.35181 1064.5518 2380.0703 8287586
696.5213 1069.2565 2390.5891 5919293
709.25793 1067.1042 2385.7771 5392952
724.35779 1068.5222 2388.9473 5590589
747.54095 1081.5811 2418.1438 7958884
761.89996 1081.6217 2418.2346 10130311
772.2215 1076.0348 2405.7437 8814451
778.48932 1065.1044 2381.3059 5327416
806.36084 1083.5942 2422.6448 6511947
802.47992 1059.5146 2368.8086 6643277
822.55249 1067.345 2386.3154 7236184
846.8457 1080.2949 2415.2681 7697250
860.84961 1079.9065 2414.3999 9934214
872.92572 1077.1522 2408.2419 10855313
886.23474 1075.9834 2405.6287 5920064
896.03632 1070.6604 2393.728 4998959
911.50104 1072.1649 2397.0916 9143921
934.8772 1082.7863 2420.8384 5591355
947.38177 1080.6853 2416.1411 8419942
947.2934 1064.4958 2379.9456 6840656
962.64594 1065.8783 2383.0361 9998718
992.23376 1082.7545 2420.7673 9670009
999.60004 1075.2467 2403.9817 10459525
1007.5795 1068.6001 2389.1216 8551529
1034.5657 1082.0162 2419.1167 9998975
1062.6261 1096.1737 2450.7693 8682861
1077.724 1096.7579 2452.0754 9078131
1101.1482 1105.6873 2472.0391 6577996
1105.6796 1095.6605 2449.6218 7169876
1124.2906 1099.6649 2458.5747 7696478
1151.9561 1112.3096 2486.845 10525578
1177.984 1123.0737 2510.9109 8814959
1197.9707 1127.8816 2521.6599 9998719
1200.347 1116.1948 2495.5315 9209205
1200.5695 1102.8143 2465.6162 8354154
1225.5385 1112.2139 2486.6311 8881525
1215.6366 1090.1198 2437.2339 7894375
1250.4437 1108.1663 2477.5815 9209464
1288.2926 1128.4584 2522.9495 8881014
1306.9724 1131.6865 2530.167 9012601
1335.6853 1143.4305 2556.4236 8289391
1343.7974 1137.4731 2543.1045 10986648
1360.6042 1138.9263 2546.3533 9276031
1388.9215 1149.8768 2570.8359 9013115
1406.8463 1152.0792 2575.76 9342336
1412.7748 1144.516 2558.8503 8092012
1425.8304 1142.8259 2555.0718 8815479
1443.4065 1144.7565 2559.3879 9275774
1437.0431 1127.8579 2521.6072 9013114
1474.1195 1145.05 2560.0444 7696741
1485.3524 1142.022 2553.2744 8157548
1495.4789 1138.2128 2544.7581 8814450
1496.725 1127.7883 2521.4514 9012083
1533.0242 1143.7216 2557.0742 9406326
1547.6224 1143.311 2556.1565 8880494
1569.59 1148.3 2567.3105 8551014
1580.5978 1145.252 2560.4958 8550758
1606.8622 1153.2112 2578.2908 9011566
1610.2312 1144.7438 2559.3599 8485222
1622.3646 1142.6072 2554.5828 9603960
1654.9612 1154.7886 2581.8174 7432791
1674.0679 1157.4202 2587.7009 7564637
1685.6277 1154.8336 2581.918 8354153
1703.0219 1156.2548 2585.0955 8814703
1722.4294 1159.0054 2591.2451 9472634
1760.9331 1174.4434 2625.7605 7630430
1809.1541 1196.0352 2674.0342 9143669
1818.8259 1191.9882 2664.9863 8551532
1831.613 1190.035 2660.6196 7894631
1834.0587 1181.4536 2641.4336 10460301
1847.5337 1180.0619 2638.322 10855057
1836.8448 1163.3892 2601.0461 7564895
1902.7385 1195.0948 2671.9321 9406842
1913.6375 1192.0205 2665.0586 7960164
1913.2872 1182.0466 2642.7595 9472379
1933.0815 1184.5792 2648.4216 7696995
1960.9365 1191.9706 2664.947 7433823
1972.891 1189.6559 2659.772 6709590
1994.0074 1192.8589 2666.9329 6973274
2019.0466 1198.3396 2679.1865 3551780
2018.7012 1188.7863 2657.8276 8026218
2044.8802 1194.8796 2671.4509 9473663
2091.4492 1212.7024 2711.2981 10789522
2114.6074 1216.7825 2720.4202 10197387
2130.0449 1216.3916 2719.5464 7894633
2153.0583 1220.3005 2728.2856 8354927
2157.3123 1213.5981 2713.3008 7959913
2150.2339 1200.6669 2684.3896 8486000
2162.177 1198.4691 2679.4761 7959913
2165.7441 1191.6943 2664.3293 8683636
2179.9136 1190.8094 2662.3511 8486001
2221.7625 1204.949 2693.9634 7433569
2232.3108 1202.0322 2687.4424 8880759
2248.2847 1202.0576 2687.499 7565155
2261.4438 1200.5885 2684.2144 10855318
2290.6836 1207.6172 2699.9287 9671301
2334.1045 1221.9725 2732.0239 6973789
2356.1042 1224.9929 2738.7766 8552307
2375.658 1226.7089 2742.613 8289648
2383.7017 1222.4985 2733.1997 7499876
2402.3416 1223.7426 2735.9812 10986134
2382.3154 1205.4059 2694.9849 7894118
2452.5364 1232.6725 2755.946 9144185
2440.0125 1218.265 2723.7346 8880756
2483.3149 1231.7369 2753.8545 7828068
2504.6045 1234.1858 2759.3296 7894374
2502.199 1225.0024 2738.7979 6117708
2508.8203 1220.3284 2728.3479 8880759
2545.4043 1230.1951 2750.4072 10460047
2584.4641 1241.125 2774.844 9473406
2579.4983 1230.9083 2752.0022 9407612
2581.116 1223.942 2736.427 8485996
2548.9131 1201.1251 2685.4143 8617836
2556.5015 1197.226 2676.6968 7631199
0 0 0 0
0 0 0 0
0 0 0 0
0 0 0 0
0 0 0 0
0 0 0 0
0 0 0 0
0 0 0 0
0 0 0 0
0 0 0 0
0 0 0 0
0 0 0 0
0 0 0 0
-1497.4219 790.6521 1744.5847 4144431
-1489.4165 791.89276 1747.3221 4934457
-1469.265 786.64764 1735.7489 5855049
-1465.4583 790.14136 1743.4578 3223074
-1457.165 791.24847 1745.9006 1841676
-1425.2771 779.46771 1719.9062 5854794
-1440.9873 793.73572 1751.3888 2696472
-1433.7969 795.50488 1755.2925 5262135
-1438.3934 803.88739 1773.7886 6052162
-1415.5844 796.96417 1758.5123 5327930
-1399.6201 793.82043 1751.5756 2564879
-1402.556 801.42932 1768.3647 2893588
-1379.7278 794.32007 1752.6782 4143397
-1378.2473 799.48645 1764.0779 2630674
-1384.5599 809.28693 1785.7026 2959127
-1385.0266 815.79492 1800.0626 4735537
-1365.5896 810.5896 1788.5769 3287835
-1361.8262 814.67896 1797.6003 1116417
-1343.6927 810.1687 1787.6483 589824
-1330.5084 808.59448 1784.1748 524288
-1315.3679 805.79663 1778.0015 2234899
-1318.5966 814.29742 1796.7585 5391929
-1302.9512 811.18628 1789.8937 2629134
-1304.8644 819.04517 1807.2344 1708554
-1284.1635 812.72217 1793.2826 4274471
-1272.6602 812.16315 1792.0492 6578250
-1261.3094 811.69293 1791.0117 6117439
-1261.257 818.5473 1806.1359 6116680
-1259.6576 824.50635 1819.2845 3288607
-1248.7732 824.43848 1819.1348 9408125
-1243.4569 828.07745 1827.1642 5526334
-1239.5386 832.71936 1837.4067 6052421
-1236.7405 838.20294 1849.5062 6183750
-1217.9478 832.84723 1837.6887 3551777
-1192.4941 822.79895 1815.5172 2499086
-1188.0947 827.22705 1825.2877 4867889
-1185.2172 832.80573 1837.5973 3288348
-1178.4387 835.72162 1844.0311 4406566
-1197.1315 856.92462 1890.8159 5591098
-1165.4739 842.1463 1858.2073 5657146
-1137.8115 830.00049 1831.4075 4933937
-1137.0651 837.44409 1847.8319 7105361
-1118.7485 831.96643 1835.7454 6380869
-1104.6116 829.51978 1830.3468 6118213
-1092.7035 828.71509 1828.5713 6249801
-1084.4312 830.67926 1832.9052 7104343
-1071.7181 829.24725 1829.7454 2959133
-1083.7418 847.12152 1869.1853 2630685
-1068.4982 843.83118 1861.9252 6775374
-1053.7439 840.86273 1855.375 7630427
-1038.609 837.5246 1848.0094 7104084
-1032.4312 841.41516 1856.5941 6315082
-1016.4484 837.31262 1847.5419 8485994
-1012.8386 843.42419 1861.0271 9670776
-1012.8427 852.71283 1881.5225 5131056
-991.18146 843.76514 1861.7794 4538926
-988.78839 851.20312 1878.1914 5327935
-979.47913 852.78894 1881.6904 3815466
-970.9502 855.09839 1886.7864 4209450
-956.50519 852.19067 1880.3705 4669743
-955.32196 861.16931 1900.182 6116674
-944.26672 861.35693 1900.5958 4866092
-931.78186 860.22919 1898.1075 3747868
-925.0907 864.48804 1907.5048 5130035
-913.42426 864.14551 1906.7489 5064246
-902.54865 864.55182 1907.6455 4932915
-892.94458 866.2019 1911.2864 4933687
-889.76752 874.20905 1928.9542 4275760
-871.26624 867.17242 1913.4277 2038800
-858.56189 865.79584 1910.3905 4604470
-840.97626 859.39435 1896.2655 5722696
-854.01788 884.54156 1951.7531 6051919
-843.61902 885.76746 1954.4581 5066051
-832.21606 885.9588 1954.8801 6841947
-816.58746 881.5932 1945.2476 5197117
-799.85016 875.88867 1932.6603 5328701
-791.26447 879.07458 1939.6901 6447695
-776.98029 875.93018 1932.7518 5394241
-774.2334 885.89288 1954.7347 1051908
-762.76886 886.03186 1955.0414 5721918
-760.76434 897.33344 1979.9784 5524790
-753.37097 902.5332 1991.4518 4011293
-735.16284 894.73627 1974.2478 8484709
-719.17035 889.42731 1962.5336 2169360
-704.22003 885.25385 1953.3248 5130300
-704.09528 899.88928 1985.618 4208935
-686.69562 892.56818 1969.464 6578253
-675.04401 892.59448 1969.5219 5854784
-667.68799 898.40149 1982.3352 5262126
-658.55536 901.98328 1990.2384 5525043
-651.08362 908.0119 2003.5408 7498577
-634.14722 900.81995 1987.6715 5393979
-623.10315 901.88422 1990.0198 6841162
-602.96381 889.57098 1962.8506 6906955
-590.68866 888.60382 1960.7166 3616538
-575.73706 883.49078 1949.4344 2563855
-567.17896 888.18036 1959.7821 6445895
-553.49146 884.8656 1952.468 6708812
-546.8147 892.85663 1970.1005 6906191
-531.01807 885.98016 1954.9275 5327414
-525.93311 897.06763 1979.3921 6248772
-513.3493 895.5788 1976.1068 6182977
-501.37009 895.09961 1975.0494 6379843
-498.12604 910.56525 2009.1747 7234895
-486.10547 910.35217 2008.7046 5590326
-471.64935 905.4527 1997.8938 7169104
-464.76263 915.2066 2019.4159 2433043
-449.9483 909.45245 2006.7192 5854530
-439.60605 912.67035 2013.8196 8421486
-431.39859 920.62372 2031.3689 5197114
-420.13846 922.33203 2035.1383 4604722
-421.31451 952.24951 2101.1516 6906972
-409.43298 953.57788 2104.0828 8025452
-388.86426 934.12146 2061.1519 7959913
-374.57242 928.97034 2049.7856 7630691
-363.62061 932.03497 2056.5481 6248782
-351.51407 932.24982 2057.022 6709328
-342.228 940.229 2074.6282 6840655
-330.04648 940.55151 2075.3398 9801080
-314.18137 929.9953 2052.0474 5984571
-299.78961 923.12598 2036.89 4340253
-284.08075 911.45416 2011.1361 6511679
-274.05219 917.7832 2025.1012 4472356
-261.51575 915.90857 2020.9648 6709065
0 0 0 0
0 0 0 0
0 0 0 0
-186.81825 801.0354 1767.4956 512
-175.14558 795.59302 1755.4869 593162
-170.46973 823.25317 1816.5193 4407603
-175.80196 906.23224 1999.6139 6577483
-170.48965 942.36975 2079.3518 7564119
-158.01744 941.47888 2077.386 4603691
-146.42024 946.09125 2087.5632 4998448
-134.73442 950.92963 2098.2393 4274214
-121.8448 947.39166 2090.4326 5129781
-110.41415 955.68097 2108.7231 4603953
-97.986351 956.35388 2110.208 1249287
-85.487549 956.42926 2110.3743 1841420
-75.460594 988.9245 2182.0754 3091485
-62.006184 980.65363 2163.8257 2565141
-49.189594 980.78729 2164.1206 6513228
-36.90575 995.38391 2196.3281 3354655
-24.100197 1004.1484 2215.6672 6315081
-10.872344 995.23846 2196.0073 5854530
2.1541748 1001.0524 2208.8359 5722685
15.225283 999.80969 2206.0938 6577991
27.827801 983.15991 2169.3557 6972493
40.577183 980.58179 2163.6672 4012069
53.323441 979.18451 2160.584 6051908
67.520477 999.81067 2206.0959 8091497
79.785118 989.77271 2183.947 4012589
94.274567 1006.2844 2220.3804 5065534
108.64352 1017.6229 2245.3987 4210221
120.3347 1004.1419 2215.6528 6381386
133.89325 1007.3629 2222.76 6446405
146.75594 1005.2404 2218.0767 7366997
162.33592 1020.5496 2251.8567 6643531
173.74731 1009.3171 2227.072 5459258
188.10347 1015.5694 2240.8679 8420202
199.69778 1007.0694 2222.1123 7038807
214.86081 1016.5044 2242.9309 5591619
226.87634 1010.8169 2230.3813 3815210
237.11368 998.26917 2202.6946 7039322
252.32661 1006.8857 2221.707 10592146
266.27448 1009.8496 2228.2471 5131589
278.24988 1005.4065 2218.4434 6183503
296.78375 1023.993 2259.4546 1249289
306.13181 1010.6491 2230.011 8682347
326.29428 1032.6343 2278.5217 4735276
343.41507 1043.6287 2302.781 8486259
359.54608 1050.8896 2318.8025 7368292
372.47522 1048.6022 2313.7549 9012603
383.19614 1040.4811 2295.8357 6578771
403.8844 1059.0529 2336.8147 6644816
412.31503 1045.3174 2306.5073 6051656
428.32904 1051.0721 2319.2051 7104597
440.29196 1046.8373 2309.8606 6118469
452.89542 1044.3347 2304.3389 6250573
466.61884 1044.4856 2304.6716 7961190
472.14178 1026.7938 2265.6348 8684143
486.71207 1029.2122 2270.9709 10328717
494.6087 1017.7679 2245.719 7236444
531.65625 1065.3362 2350.679 8025961
546.95331 1068.0045 2356.5664 8618094
567.85718 1081.2152 2385.7161 8618352
585.0882 1086.9607 2398.3938 5525833
592.63654 1074.8724 2371.7207 9736064
613.37506 1086.7129 2397.8469 10986134
628.48914 1088.2781 2401.3005 8025190
639.61902 1083.0278 2389.7158 7630176
652.22229 1080.4457 2384.0183 8025442
664.4953 1077.4377 2377.3811 8485479
674.16931 1070.4279 2361.9138 8617066
697.43988 1084.8524 2393.7417 8156515
701.3175 1069.1378 2359.0674 7696221
713.32159 1066.1841 2352.5498 4275242
733.62531 1075.5109 2373.1294 6249803
759.18378 1092.0454 2409.6133 7894629
759.18896 1071.8912 2365.1426 10130821
770.43121 1068.0455 2356.657 6906709
783.88226 1067.3444 2355.1099 6446155
796.98798 1066.2056 2352.5972 6775121
809.24524 1063.9906 2347.7097 8288358
847.12701 1094.9718 2416.0703 7763040
856.63568 1088.8585 2402.5813 9605246
872.28699 1090.6255 2406.48 10262150
879.8009 1082.3247 2388.1643 8947317
890.73334 1078.4259 2379.5615 8881786
905.88049 1079.6718 2382.3105 7499610
922.10565 1082.1445 2387.7666 8222820
950.32477 1098.4055 2423.6467 6972753
947.75641 1079.1271 2381.1089 7301718
965.25171 1082.9241 2389.4868 8551786
985.14764 1089.2656 2403.4795 6709582
994.2666 1083.6802 2391.155 9341300
1000.2423 1074.8739 2371.7239 9078386
1022.9231 1084.0145 2391.8928 10262405
1053.7532 1101.4231 2430.3052 9604220
1055.963 1088.8508 2402.5642 7696995
1082.9587 1101.8307 2431.2043 6643792
1102.2705 1106.7546 2442.0691 8552300
1098.8794 1089.0509 2403.0059 9276280
1131.2736 1106.8119 2442.1956 9276023
1161.2413 1121.7802 2475.2231 5722945
1185.5012 1130.9298 2495.4121 7762015
1191.45 1122.601 2477.0344 6643532
1177.4512 1095.9088 2418.1379 8814446
1203.4757 1106.6622 2441.8655 8222567
1206.7339 1096.4739 2419.3848 8485485
1246.8936 1119.6609 2470.5471 10196358
1271.4769 1128.4852 2490.0181 8617328
1287.5071 1129.6028 2492.4841 9143415
1298.3057 1126.1571 2484.8811 9999754
1316.3263 1128.9829 2491.1162 7762534
1345.754 1141.421 2518.5613 9012601
1381.1986 1158.6338 2556.5413 8223085
1376.5637 1142.2164 2520.3164 9275773
1399.498 1148.782 2534.8032 9012602
1422.0393 1154.8889 2548.2781 8223086
1434.7654 1152.9799 2544.0659 8749429
1455.246 1157.2772 2553.5481 8947063
1450.9225 1141.9639 2519.759 6381394
1482.2375 1154.7266 2547.9199 6446672
1511.0756 1165.3215 2571.2979 7432796
1498.1671 1143.8319 2523.8809 8551017
1521.8148 1150.4016 2538.377 10130307
1537.2297 1150.6801 2538.9912 7630170
1557.0925 1154.2502 2546.8689 8814444
1556.8948 1143.024 2522.0981 9604217
1577.8896 1147.4222 2531.803 6840399
1587.1492 1143.2843 2522.6726 8814701
1609.3118 1148.4315 2534.0298 7959135
1612.0215 1139.7299 2514.8296 5590588
1652.6609 1157.759 2554.6111 7169622
1653.8756 1148.0928 2533.2825 7367259
1689.4501 1162.238 2564.4941 9143671
1709.5309 1165.5674 2571.8403 9144184
1736.7937 1173.6913 2589.7659 8683633
1784.0845 1195.0887 2636.9797 9275511
1771.9786 1176.6727 2596.3447 9341303
1806.3123 1189.1462 2623.8674 8815727
1827.3269 1192.7133 2631.7383 9407864
1831.7566 1185.4863 2615.792 7169618
1834.8125 1177.4993 2598.1682 6117188
1868.8491 1189.3617 2624.3428 7432794
1852.9424 1169.5057 2580.5305 6973013
1888.3271 1182.0834 2608.283 8223339
1926.771 1196.356 2639.7759 8947062
1952.355 1202.4781 2653.2847 8025706
1966.0042 1201.2106 2650.4875 6775896
1989.8287 1206.1307 2661.344 10789267
1995.0862 1199.8077 2647.3921 9868675
2013.943 1201.698 2651.563 9605504
2054.7986 1216.5836 2684.4084 9276025
2051.3167 1205.1915 2659.2715 6709849
2077.9021 1211.5034 2673.199 9407616
2099.301 1214.7189 2680.2939 5855051
2139.5447 1228.7083 2711.1616 9013372
2147.8267 1224.2709 2701.3704 8815480
2128.7676 1204.4298 2657.5908 9276287
2128.1826 1195.2559 2637.3484 7039325
2099.3809 1170.4838 2582.6885 9605251
2162.0996 1196.7271 2640.5947 10000009
2194.0078 1205.6621 2660.3098 7368289
2225.3992 1214.1876 2679.1216 8157806
2224.7341 1205.2261 2659.3479 9078905
2237.665 1203.7043 2655.9902 10789775
2259.5422 1206.9827 2663.2239 10460813
2279.8257 1209.3701 2668.4917 10131341
2279.8127 1201.0322 2650.094 11052700
2300.8342 1203.8138 2656.2317 8947322
2336.1768 1213.9996 2678.7068 7434085
2318.2825 1196.5699 2640.248 7828840
2371.6885 1215.9286 2682.9631 9341823
2393.0859 1218.7284 2689.1409 10197388
2427.9871 1228.3228 2710.3108 9473664
2436.6584 1224.6084 2702.1152 8815479
2432.8276 1214.7003 2680.2529 8354671
2481.905 1231.1661 2716.585 7762278
2501.4541 1232.8666 2720.3369 8025706
2543.4321 1245.5287 2748.2761 10920599
2503.6555 1218.249 2688.083 9868424
2584.6682 1249.717 2757.5178 9342079
2512.9746 1207.4185 2664.1853 8814965
2509.49 1198.2161 2643.8801 9078394
2475.8728 1174.8296 2592.2776 8289388
0 0 0 0
0 0 0 0
0 0 0 0
0 0 0 0
0 0 0 0
0 0 0 0
0 0 0 0
0 0 0 0
0 0 0 0
0 0 0 0
0 0 0 0
0 0 0 0
0 0 0 0
-1470.2191 786.43982 1712.892 4472369
-1471.7081 792.70947 1726.5475 2366991
-1454.1926 788.75879 1717.9429 2103566
-1447.1216 790.45746 1721.6427 920326
-1429.3069 786.27014 1712.5225 1511687
-1425.004 789.50903 1719.5768 5262399
-1426.0916 795.80255 1733.2843 4867126
-1425.5459 801.26941 1745.1913 2367507
-1413.4481 800.27557 1743.0267 2630417
-1401.1207 799.13605 1740.5448 3419676
-1379.4052 792.58539 1726.2772 3419675
-1355.9008 784.90131 1709.541 2958868
-1372.4464 800.46008 1743.4287 3024660
-1375.1263 808.10657 1760.083 2695694
-1376.9822 815.38214 1775.9293 1971972
-1365.9438 815.07556 1775.2616 590848
-1355.6292 815.19934 1775.5311 262144
-1346.7192 816.17651 1777.6594 918785
-1337.7465 817.13062 1779.7375 919300
-1318.2214 811.60297 1767.6982 1445387
-1307.3716 811.37079 1767.1925 2563608
-1308.6417 818.71759 1783.194 3156518
-1292.7933 815.38678 1775.9395 525571
-1283.8645 816.40155 1778.1497 2301207
-1270.6167 814.66394 1774.3651 3551524
-1276.7738 825.44281 1797.8417 3288348
-1261.9321 822.71283 1791.8959 5393723
-1233.0062 810.67651 1765.6803 3748643
-1233.2831 817.79883 1781.1929 3683108
-1244.283 832.2157 1812.5935 2827802
-1228.5294 828.83466 1805.2294 6643533
-1213.4755 825.87012 1798.7725 4406573
-1215.2926 834.43713 1817.4316 1051910
-1206.7329 835.96869 1820.7675 4275242
-1190.8887 832.43579 1813.0729 4209449
-1183.2004 834.59174 1817.7686 3223069
-1172.7786 834.84131 1818.3121 2301969
-1163.7111 836.0686 1820.9851 4341286
-1153.5179 836.50256 1821.9303 6446407
-1147.8047 840.22406 1830.0359 4670253
-1136.4043 839.81378 1829.1422 6577994
-1120.1594 835.78101 1820.3586 6775631
-1103.1216 831.07233 1810.103 7629914
-1089.6633 828.99457 1805.5775 5195830
-1080.5902 830.24469 1808.3005 6380104
-1079.7064 837.875 1824.9194 3090713
-1070.8655 839.42236 1828.2897 2038543
-1054.0179 834.66083 1817.9191 3617056
-1057.9587 846.43317 1843.5596 3946536
-1057.5784 854.95782 1862.1265 6051905
-1043.2932 852.30292 1856.344 7894374
-1022.641 844.33453 1838.9886 6578259
-1024.483 854.9668 1862.1461 4472621
-1022.1395 862.2995 1878.1168 3353625
-1004.1304 856.43237 1865.338 1708811
-994.64868 857.78864 1868.2921 2827543
-986.72656 860.53552 1874.2749 1840394
-968.56177 854.31061 1860.7168 3090200
-959.15021 855.75195 1863.8561 4866607
-948.78564 856.36664 1865.1949 1643013
-944.81744 862.83722 1879.2881 3419159
-937.3147 866.1958 1886.6031 4800810
-914.12921 854.96765 1862.1478 4932651
-910.41229 861.89624 1877.2385 4998187
-907.07721 869.36212 1893.4995 6050879
-894.3042 867.85632 1890.2198 3747870
-886.4668 871.1626 1897.421 2760977
-872.59454 868.54712 1891.7244 1511688
-858.77191 865.91345 1885.9883 6511438
-850.75366 869.14038 1893.0165 2301973
-844.37262 874.14819 1903.9238 5197119
-835.16278 876.32367 1908.6621 5789001
-826.1344 878.75177 1913.9506 8223597
-826.07428 890.91974 1940.4529 6645082
-806.77173 882.38544 1921.8647 7565669
-793.06689 879.81665 1916.2699 3552037
-791.14685 890.43726 1939.4017 2038541
-777.8493 888.37659 1934.9136 1841422
-762.03021 883.33136 1923.925 4274730
-761.23663 895.8147 1951.1143 4801072
-759.97968 908.12952 1977.9362 6380103
-738.76227 896.60492 1952.8352 4340265
-729.04712 898.89551 1957.8243 3419676
-710.35498 890.01276 1938.4774 3682335
-700.35876 891.91241 1942.6147 4603693
-692.48688 896.62604 1952.8812 2894114
-681.72113 897.68927 1955.1969 6380616
-666.61792 892.97894 1944.9377 4604721
-656.9895 895.56573 1950.5719 8419941
-646.1394 896.55011 1952.7159 3485466
-638.18805 901.66583 1963.8582 3288347
-629.36401 905.7157 1972.6788 7433301
-615.81604 902.99213 1966.7468 6972750
-600.81854 897.99689 1955.8669 4603944
-586.35516 893.61914 1946.3322 5656634
-573.8783 892.15387 1943.1407 7498330
-559.50458 887.61951 1933.2646 7630422
-548.59723 888.50964 1935.2035 5722170
-543.43115 898.93488 1957.91 4406055
-535.85315 905.73816 1972.7278 5327158
-528.07935 912.50671 1987.4698 8616807
-510.92941 903.01257 1966.7914 7235153
-501.79636 907.57513 1976.7286 4537901
-490.84131 908.98145 1979.7919 2169096
-477.0939 905.15906 1971.4666 4142888
-470.75644 915.55603 1994.1115 3024154
-461.91431 921.49182 2007.0398 2103564
-450.17151 921.8017 2007.7147 4011819
-437.66016 920.51202 2004.9056 5064765
-426.59055 922.26721 2008.7286 7762534
-412.92484 918.34955 2000.1958 6841690
-404.11108 925.30994 2015.3558 7301984
-391.87595 924.62177 2013.8568 6249295
-380.05014 924.88629 2014.4331 5197375
-371.77338 934.08508 2034.4684 7762529
-360.60922 936.40283 2039.5164 7894115
-349.36191 938.65784 2044.4279 5854790
-337.60904 939.66779 2046.6276 6381134
-324.92877 938.0755 2043.1595 7367776
-309.38843 927.7832 2020.7427 7170650
-296.76123 925.74988 2016.314 6578255
-283.2785 920.76501 2005.4567 3880741
-272.03513 922.94104 2010.1962 6643790
-258.71619 917.95203 1999.33 6907480
0 0 0 0
0 0 0 0
0 0 0 0
-186.17923 808.73413 1761.4497 512
-175.70724 808.58112 1761.1165 855818
-165.94975 811.90448 1768.3547 8618360
-176.49438 921.69849 2007.4897 6841174
-168.17625 941.73804 2051.1367 4274473
-156.76305 946.21838 2060.895 4668972
-144.60959 946.61017 2061.7483 4011301
-134.17325 959.35181 2089.5 3945765
-121.20052 954.70502 2079.3792 3485471
-108.2195 948.93372 2066.8091 5788482
-96.288864 952.07526 2073.6514 3880484
-84.136101 953.61816 2077.012 2104338
-72.88559 967.66876 2107.6147 2366990
-61.018311 977.64905 2129.3521 5327673
-48.825539 986.25854 2148.1038 4341034
-36.451797 995.99609 2169.3125 5131062
-23.811529 1005.0942 2189.1284 5855042
-10.732355 995.27045 2167.7322 2894361
2.1110604 993.84503 2164.6274 5986885
14.888414 990.47284 2157.2827 7169878
27.680796 990.75433 2157.8958 6446407
40.542145 992.54639 2161.7988 4538669
53.570602 996.58649 2170.5984 5394237
66.35907 995.46198 2168.1492 6447700
80.864716 1016.2833 2213.4988 9803660
93.257156 1008.441 2196.418 5131589
106.90373 1014.4205 2209.4414 7170654
120.27722 1016.7864 2214.5945 3617573
132.9901 1013.6516 2207.7666 5525305
144.29372 1001.2991 2180.8625 6446667
157.36949 1002.264 2182.9644 5196857
173.1328 1018.8987 2219.1953 6446410
184.43904 1008.8063 2197.2136 6184009
199.59187 1019.6968 2220.9336 7038810
212.42282 1018.1116 2217.4807 7499619
225.06073 1015.8395 2212.5322 1381135
237.08769 1011.2121 2202.4534 9802375
249.68007 1009.3531 2198.4045 9012601
264.04935 1014.5057 2209.627 8946294
279.33789 1022.5363 2227.1179 2630685
294.24814 1028.5199 2240.1506 8157805
306.1748 1024.0083 2230.3242 7499618
321.97003 1032.2733 2248.3254 2499613
336.70502 1036.6172 2257.7866 8749945
351.78827 1041.6602 2268.7703 5526601
363.81641 1037.6187 2259.9678 7302756
381.77771 1050.1848 2287.3374 9342080
402.38535 1068.9192 2328.1414 8486513
408.14093 1048.2656 2283.1572 7303263
418.3717 1040.0625 2265.2908 9934723
433.0116 1042.9899 2271.6665 5393982
446.61887 1043.3282 2272.4036 9999493
460.94208 1045.2705 2276.6338 10723211
471.41656 1038.6228 2262.1548 8880240
475.12619 1017.8503 2216.9119 6577995
492.94821 1027.6151 2238.1797 10394244
515.48029 1046.4296 2279.1582 9342072
527.82361 1044.1279 2274.1453 7499614
544.17761 1049.6772 2286.2319 7565408
569.43634 1071.7164 2334.2339 7367775
584.86725 1074.6521 2340.6279 8486256
600.57837 1077.9547 2347.8213 7301983
613.85339 1076.8345 2345.3811 10131336
635.5033 1090.1298 2374.3389 8223338
646.12463 1084.3408 2361.7302 7696737
659.54761 1083.3994 2359.6797 9604474
670.56073 1078.6205 2349.2712 7104339
684.94958 1079.3558 2350.8728 7038547
701.6394 1083.6154 2360.1501 9209460
710.98029 1076.5804 2344.8279 5196087
720.89221 1070.6633 2331.9404 9078644
736.4635 1073.2162 2337.5005 8815214
738.81274 1056.7625 2301.6636 4669999
747.66998 1050.0452 2287.0332 5854018
762.81909 1052.2462 2291.8271 6446414
778.73193 1055.4054 2298.708 7696995
800.86993 1066.7478 2323.4121 4933688
831.73914 1089.1399 2372.1829 7564892
846.97937 1090.6622 2375.4985 7762785
860.15625 1089.5211 2373.0132 7104855
872.64795 1087.563 2368.7483 11842208
884.90472 1085.3785 2363.9905 7039576
898.37579 1084.7284 2362.5745 9802369
910.16235 1082.0955 2356.8398 7631200
927.13928 1085.6198 2364.5159 7630942
938.50299 1082.5642 2357.8608 8222821
951.52216 1081.48 2355.4993 5853760
969.21838 1085.666 2364.6165 8420460
986.59924 1089.3844 2372.7153 9670527
997.89319 1086.3718 2366.1538 9538683
1015.3557 1090.0652 2374.198 8485738
1030.028 1090.703 2375.5872 7301206
1034.6971 1080.8739 2354.1792 5130300
1052.7556 1085.1073 2363.3997 9077874
1080.3135 1098.8922 2393.4236 7433821
1093.46 1097.8506 2391.1548 8552302
1116.7029 1106.8428 2410.7402 9670530
1125.9377 1101.8989 2399.9724 9933958
1150.6948 1112.0797 2422.1465 9538940
1148.5751 1096.3549 2387.8972 8222822
1151.1598 1085.4486 2364.1431 7367257
1183.2449 1102.2866 2400.8169 7630173
1206.3242 1110.4347 2418.5635 6972240
1213.1149 1103.5735 2403.6196 8024930
1225.376 1101.7902 2399.7356 4143144
1255.1812 1115.6416 2429.9043 5591368
1271.9497 1117.7228 2434.4373 5459780
1290.7299 1121.5052 2442.6755 8486517
1296.0646 1113.6506 2425.5681 7301986
1330.1467 1130.3989 2462.0461 9209981
1359.5664 1142.8644 2489.1965 9143931
1365.5122 1135.5416 2473.2473 8223086
1379.473 1134.9689 2471.9998 7236191
1409.3588 1147.3728 2499.0159 8552563
1427.3884 1149.9669 2504.666 10526610
1436.0519 1145.0396 2493.9341 6316114
1447.5085 1142.417 2488.2219 9210234
1419.3767 1108.918 2415.26 8551532
1458.8103 1128.3478 2457.5789 6643791
1486.5474 1138.4358 2479.551 8288102
1506.8777 1142.7098 2488.8599 9143410
1523.1985 1143.8898 2491.4299 9143410
1530.2008 1138.1163 2478.8552 7761759
1552.7625 1143.9152 2491.4851 7498333
1572.7125 1147.6991 2499.7266 8024934
1598.0177 1155.2837 2516.2461 7038296
1600.8876 1146.6583 2497.46 7630688
1619.41 1149.2999 2503.2134 5919814
1647.5819 1158.6796 2523.6423 7235933
1668.2615 1162.6686 2532.3308 8157549
1672.8457 1155.4694 2516.6506 5920331
1693.7129 1159.5448 2525.5271 10460050
1736.0016 1178.0861 2565.9104 4736311
1741.9484 1171.8571 2552.3435 7499614
1730.2153 1153.944 2513.3284 9209206
1795.595 1187.327 2586.0376 8156775
1791.7338 1174.7472 2558.6384 6445900
1831.6758 1190.8573 2593.7266 5722176
1831.1608 1180.615 2571.4187 8485736
1811.3599 1158.2101 2522.6199 7104341
1849.1505 1172.6954 2554.1697 8947058
1882.9902 1184.4603 2579.7939 9078650
1945.8778 1214.1606 2644.4822 9342079
1951.5442 1207.9674 2630.9932 7630947
1964.0781 1206.0897 2626.9033 7170911
1975.4487 1203.5326 2621.334 9802373
1978.9015 1196.2294 2605.4272 9078651
2021.9823 1212.8085 2641.5369 9012602
2013.2148 1198.2725 2609.8772 8025706
2038.928 1204.3247 2623.0591 8157293
2060.7764 1208.0199 2631.1074 7565156
2073.9487 1206.6118 2628.0405 6117710
2078.2798 1200.1193 2613.8997 10000007
2066.5493 1184.5166 2579.9165 10197387
2076.2546 1181.3395 2572.9966 8223599
2093.6936 1182.5771 2575.6921 9474176
2125.6519 1191.9381 2596.0806 8684405
2149.2253 1196.4967 2606.0095 8815734
2175.6111 1202.5448 2619.1824 10855319
2168.1155 1189.9124 2591.6685 10197387
2189.9043 1193.4165 2599.3005 7828326
2234.0286 1208.9586 2633.1519 10262922
2257.3503 1213.1057 2642.1846 7631204
2261.8047 1207.1263 2629.1611 9933703
2282.2163 1209.6866 2634.7378 7894121
2322.5974 1222.7253 2663.1365 8420465
2346.2993 1226.8665 2672.1558 8288879
2344.2742 1217.5897 2651.9509 9012856
2364.9177 1220.1321 2657.488 8881015
2372.9458 1216.1749 2648.8694 9472894
2348.2769 1195.6223 2604.105 7828327
2380.4417 1204.0859 2622.5391 8025706
2410.3455 1211.3036 2638.2593 8223599
2427.0884 1211.8567 2639.4641 8947065
2432.0732 1206.5697 2627.9487 8552051
2460.3782 1212.8455 2641.6177 10460305
2443.2883 1196.806 2606.6831 10196876
2441.6726 1188.5002 2588.593 10525841
2434.8376 1177.7736 2565.23 10592145
2396.4792 1152.0262 2509.1514 8355183
0 0 0 0
0 0 0 0
0 0 0 0
0 0 0 0
0 0 0 0
0 0 0 0
0 0 0 0
0 0 0 0
0 0 0 0
0 0 0 0
0 0 0 0
0 0 0 0
0 0 0 0
-1463.4662 792.93195 1705.0244 2564887
-1452.7633 792.60529 1704.3221 1380867
-1446.8942 794.92981 1709.3206 1117699
-1440.0948 796.77258 1713.283 3420450
-1424.9647 793.99951 1707.3199 3157535
-1419.465 796.59113 1712.8927 2959900
-1424.5961 805.22913 1731.4668 2828056
-1412.465 804.16437 1729.1774 788481
-1404.5533 805.50397 1732.0579 2366990
-1398.8043 808.11267 1737.6672 2564115
-1373.3046 799.26501 1718.6425 2366731
-1362.9677 799.17609 1718.451 3024660
-1366.0688 807.02441 1735.3271 2366731
-1357.2562 807.90021 1737.2103 3879971
-1348.1625 808.62079 1738.7598 591106
-1343.2133 811.85742 1745.7195 459777
-1341.6686 817.21802 1757.2463 919555
-1339.1371 822.05682 1767.651 196608
-1333.0664 824.78204 1773.5111 2564379
-1307.7406 815.54266 1753.6438 4011827
-1295.3311 814.27466 1750.9172 262656
-1285.7415 814.77332 1751.9894 591106
-1275.0859 814.59882 1751.6144 591363
-1261.5121 812.54199 1747.1915 2037520
-1252.6855 813.53418 1749.325 1117187
-1255.1617 821.94446 1767.4094 4143147
-1229.5798 811.96777 1745.9569 3617058
-1225.3611 816.04889 1754.7324 4012071
-1232.8706 828.07745 1780.597 4736307
-1223.2649 828.71863 1781.9758 3815204
-1218.0248 832.35431 1789.7936 5394235
-1210.7806 834.6723 1794.778 3947046
-1193.9553 830.36792 1785.5223 5591871
-1186.1364 832.30627 1789.6903 5657923
-1174.2371 831.39075 1787.7217 6578770
-1163.9314 831.59705 1788.1653 9868420
-1150.3895 829.47363 1783.5994 2828827
-1148.5593 835.83392 1797.2756 6644304
-1148.1217 843.336 1813.4071 6184524
-1135.3313 841.82056 1810.1486 6973528
-1128.51 844.74438 1816.4357 5196341
-1110.2852 839.10626 1804.3121 6643785
-1095.5729 836.03906 1797.7167 5656380
-1081.0137 833.02936 1791.2451 4998196
-1070.4226 833.04828 1791.2856 2499609
-1075.6566 845.50653 1818.0745 4472366
-1066.9886 847.17896 1821.6707 2959127
-1048.0787 840.67047 1807.6755 5327932
-1023.9916 829.83191 1784.3696 4538674
-1043.609 854.5545 1837.53 4341551
-1040.7623 861.20978 1851.8408 5656902
-1031.3489 862.51514 1854.6478 3287839
-1015.1007 858.07123 1845.0922 986376
-1001.2775 855.60278 1839.7843 2301970
-1002.3704 865.96625 1862.0686 8355177
-997.86298 871.66827 1874.3296 3552291
-975.24646 861.50177 1852.4686 2828312
-962.83893 860.22467 1849.7227 5591617
-955.07788 863.11731 1855.9425 3683617
-937.20471 856.8324 1842.4282 4999471
-927.71436 858.15356 1845.2692 9802359
-920.45465 861.59418 1852.6675 4209697
-915.48889 867.2912 1864.9176 591873
-904.13751 867.00409 1864.3002 5788479
-895.3031 869.15314 1868.9214 6183239
-882.30225 867.26074 1864.8522 4867121
-878.28192 874.25977 1879.902 4933426
-862.80017 869.88312 1870.491 4999220
-850.39038 868.53009 1867.5814 6578513
-848.11652 877.62976 1887.1483 5130814
-840.40326 881.26892 1894.9736 7565668
-829.67413 881.80133 1896.1184 4999227
-818.44403 881.80847 1896.1338 4275253
-810.36523 885.25848 1903.5522 6182730
-798.04083 884.10242 1901.0663 6775893
-784.45721 881.49817 1895.4667 8552306
-783.45648 893.16333 1920.5498 8157292
-773.26306 894.53772 1923.5052 4736312
-763.88678 896.91284 1928.6123 3288610
-754.0813 898.84851 1932.7745 1117700
-739.38934 894.92938 1924.3474 5394238
-733.79303 902.06909 1939.6997 8420971
-722.13434 901.86475 1939.2603 4341804
-710.45856 901.63214 1938.7601 6052423
-695.53973 897.2085 1929.248 4341549
-687.62842 901.82733 1939.1799 7762016
-678.12164 904.47522 1944.8735 5197113
-667.0285 905.06219 1946.1357 7565916
-654.10229 903.13885 1942 3223591
-643.98138 905.08936 1946.1941 4144946
-629.90356 901.4483 1938.3649 6644567
-620.10504 903.90973 1943.6576 5855052
-605.86487 899.86743 1934.9656 7104860
-591.55945 895.57037 1925.7256 5591363
-577.32257 891.2099 1916.3495 6710097
-562.67865 886.03369 1905.2191 6906706
-552.70441 888.14917 1909.7679 6314824
-547.17157 897.63928 1930.1743 5721918
-539.00531 903.12219 1941.9642 6445640
-527.44537 903.03418 1941.7749 3813917
-511.52393 895.30829 1925.1621 4274980
-500.62067 896.21344 1927.1085 5130544
-490.44702 898.49762 1932.0201 4274983
-482.81055 905.65021 1947.4 2827029
-480.99567 924.34058 1987.5896 2103822
-469.79721 925.48401 1990.0483 1380358
-457.81238 925.09723 1989.2168 1512459
-446.75287 926.60925 1992.468 4604730
-435.72604 928.27307 1996.0455 6249298
-423.50424 927.41284 1994.1959 6184017
-412.19156 928.55133 1996.6438 4341817
-401.12686 930.33203 2000.473 4604985
-390.48065 933.22156 2006.6862 3157283
-378.03604 931.85956 2003.7574 5855050
-371.56424 945.60962 2033.324 4670262
-357.07779 939.20093 2019.5435 3420451
-342.52853 932.17676 2004.4396 5788738
-331.90213 935.7074 2012.0315 5262398
-318.22324 930.57477 2000.9949 8091744
-302.26248 918.11377 1974.2003 7564631
-294.25687 929.78583 1999.2983 6775373
-282.23627 929.21838 1998.0782 5722687
-270.99573 931.28198 2002.5156 4998964
-257.74411 926.30701 1991.818 6907476
0 0 0 0
0 0 0 0
-195.79419 815.74084 1754.0699 3555908
-184.53218 811.92603 1745.8671 258
-176.20485 821.33734 1766.104 1448208
-170.48132 844.84076 1816.6428 6183501
-158.48593 838.33667 1802.6573 2629909
-166.90775 946.69861 2035.6655 2432274
-154.68237 945.71063 2033.5413 3419170
-143.62427 952.29535 2047.7002 2761752
-132.17371 957.25305 2058.3606 7498846
-119.64067 954.58228 2052.6177 8353897
-107.15287 951.70844 2046.4382 4472624
-94.855598 950.00946 2042.7849 5985603
-84.304146 967.85626 2081.1604 4143141
-72.192558 970.83911 2087.5745 3485209
-59.588768 967.06793 2079.4653 5327669
-47.804893 978.10583 2103.2 6906963
-34.691067 960.12134 2064.5283 4538673
-22.854448 977.14728 2101.1387 5591616
-10.292285 966.78009 2078.8464 9933954
2.0422425 973.85681 2094.0635 6578253
14.447069 973.51727 2093.3333 7828578
26.401983 957.1803 2058.2041 4867375
39.338413 975.50775 2097.6133 3881253
52.806068 995.04352 2139.6206 5262135
65.611549 996.95258 2143.7256 7105365
78.889938 1004.2623 2159.4436 2368795
92.180168 1009.6611 2171.0525 6447442
104.64265 1005.7816 2162.7104 6381389
118.5111 1014.7876 2182.0759 5196600
130.67586 1008.8685 2169.3481 7893854
135.13821 949.87048 2042.486 8551273
152.85985 986.1087 2120.4084 10393990
162.50833 968.71741 2083.0122 5525568
181.89435 1007.7294 2166.8989 6973270
188.68469 976.41559 2099.5654 4341549
208.0271 1009.9128 2171.5938 8026216
224.07869 1024.4617 2202.8779 6973532
236.36278 1021.1324 2195.7192 6446931
246.88734 1010.9457 2173.8149 4275506
261.59418 1018.0455 2189.0813 6841687
276.47983 1025.1375 2204.3311 5920327
292.05121 1034.0172 2223.425 6644053
304.86597 1032.7919 2220.79 6841175
315.21381 1023.6565 2201.1465 3091230
332.6134 1037.2378 2230.3501 4144175
346.42709 1039.0259 2234.1948 5920845
360.49213 1041.4083 2239.3179 6249810
372.87375 1038.9312 2233.9912 8092013
384.11621 1033.5587 2222.439 8289391
400.89078 1042.9343 2242.5994 8289389
419.8558 1057.2242 2273.3264 7301980
426.78741 1041.2665 2239.0129 6117962
443.45227 1049.3022 2256.292 8880499
454.59399 1044.181 2245.28 9406843
470.47656 1049.931 2257.644 8814450
476.68307 1034.3666 2224.1763 6248521
488.66803 1031.8413 2218.7461 8683373
503.61261 1035.5338 2226.686 8485992
521.47571 1044.8856 2246.7952 7564891
537.17615 1049.5464 2256.8171 7630430
552.90735 1054.0394 2266.4783 6380621
554.17181 1031.3945 2217.7854 7104344
585.3385 1064.162 2288.2446 7695970
607.3349 1079.1512 2320.4756 8222569
619.73749 1076.8073 2315.4353 8749168
626.64679 1065.2267 2290.5342 9012341
642.71783 1069.3812 2299.4673 6643790
655.25092 1067.5986 2295.6343 7893600
665.26672 1061.8706 2283.3176 4933174
692.35114 1083.0721 2328.9067 7367512
705.49884 1082.0691 2326.75 7498584
718.73926 1081.2441 2324.9761 6380106
725.547 1070.9552 2302.8518 8682860
734.57233 1064.259 2288.4531 3551007
741.065 1054.2026 2266.8293 7301465
760.32355 1062.3413 2284.3296 7827556
778.90851 1069.2705 2299.2292 6512209
783.03076 1056.4485 2271.6584 3091229
805.11969 1067.8906 2296.2622 8749935
832.8363 1086.2926 2335.8318 5197120
833.88275 1069.8752 2300.5295 9210488
0 0 0 0
873.70642 1085.4756 2334.0747 7893602
884.99835 1082.3687 2327.394 8682862
900.21912 1084.0886 2331.0923 7762014
920.86389 1092.1895 2348.5115 8222566
931.62878 1088.5057 2340.5903 5459261
946.69543 1089.8823 2343.5505 4143657
964.77039 1094.6326 2353.7646 5064247
980.68262 1096.8284 2358.4863 7564637
993.58185 1095.64 2355.9312 9341048
1019.619 1108.7711 2384.1667 7235674
1033.5442 1108.5525 2383.6965 8683377
1035.2499 1095.4102 2355.4368 9999237
1046.366 1092.4423 2349.0549 8091238
1060.292 1092.4474 2349.0662 11709855
1075.3958 1093.6501 2351.6523 9736325
1101.4534 1105.8195 2377.8198 9277056
1106.9072 1097.2572 2359.4084 9539710
1113.4612 1089.9854 2343.772 9012854
1117.1176 1080.0912 2322.4968 6841686
1119.8652 1069.5699 2299.8733 8223854
1177.6906 1111.2733 2389.5471 8025698
1176.5134 1096.9722 2358.7957 8485993
1206.2927 1111.5316 2390.1023 7301466
1212.484 1104.2701 2374.4883 6906708
1235.7938 1112.5872 2392.3723 9078651
1258.7238 1120.3774 2409.1235 7170398
1257.6323 1106.8517 2380.0393 4143663
1272.495 1107.5115 2381.458 8420208
1307.7705 1125.7281 2420.6289 6512468
1303.7146 1110.0603 2386.9387 8684149
1320.3147 1112.1278 2391.3845 5657158
1353.2107 1127.7321 2424.938 7170142
1364.4846 1125.1785 2419.447 8618613
1412.7019 1152.8252 2478.8953 7894890
1426.932 1152.4534 2478.0957 8618612
1413.1455 1129.6924 2429.1531 10657938
1426.8341 1129.1327 2427.9497 5525313
1434.2638 1123.6808 2416.2266 6447441
1480.3584 1148.3292 2469.2278 8420974
1466.5123 1126.454 2422.1897 9012339
1481.2408 1126.7385 2422.8015 8025187
1524.5411 1148.5428 2469.6868 9735548
1545.1179 1152.976 2479.2192 8814449
1569.326 1160.0098 2494.344 7169629
1592.4349 1166.1074 2507.4556 7038561
1579.3572 1145.8384 2463.8716 4209720
1609.2563 1156.8354 2487.5183 6643803
1646.9462 1173.1824 2522.6687 5262152
1672.1366 1180.4115 2538.2134 8091761
1666.3071 1165.809 2506.814 9868171
1687.7271 1170.3608 2516.6016 6578264
1692.2346 1163.2076 2501.2205 7104351
1735.9458 1182.8926 2543.5483 6643027
1736.2023 1172.8829 2522.0249 8222313
1751.5446 1173.1483 2522.5955 6643535
1788.1991 1187.563 2553.5911 8617068
1790.4368 1179.0708 2535.3306 7893342
1794.6176 1171.9889 2520.1025 5524797
1816.4203 1176.4371 2529.6675 6906704
1814.4611 1165.5487 2506.2544 6643532
1871.4327 1192.3849 2563.9595 7104086
1929.235 1219.3138 2621.8643 5064248
1936.1584 1213.913 2610.2507 7104602
1912.5966 1189.6357 2558.0481 7894120
1943.587 1199.4052 2579.0549 9275773
1944.8639 1190.8286 2560.6133 9407359
1951.9392 1185.9077 2550.032 8881014
1986.1858 1197.4437 2574.8374 8814707
1998.0869 1195.4347 2570.5176 9801344
2023.5349 1201.4998 2583.5591 8090983
2026.6273 1194.2994 2568.0764 6973273
2009.2426 1175.2292 2527.0701 8749683
2021.5226 1173.6639 2523.7043 8881269
2037.05 1173.9933 2524.4126 10197130
2056.2874 1176.4402 2529.6741 8881525
2089.0554 1186.5371 2551.3853 9209979
2087.1335 1176.9271 2530.7212 11512732
2094.217 1172.4963 2521.1936 10920854
2107.0569 1171.3282 2518.6819 6249039
2145.8232 1184.4879 2546.9788 6973018
2192.6294 1201.8706 2584.3564 10262154
2226.1367 1211.7731 2605.6497 9538945
2274.781 1229.7222 2644.2451 8157292
2257.77 1212.1759 2606.5156 7894120
2293.4324 1222.9557 2629.6953 9209981
2309.8284 1223.3856 2630.6196 7170140
2315.96 1218.4099 2619.9207 9933703
2298.9539 1201.4088 2583.3635 9538945
2325.4255 1207.2035 2595.8235 8946552
2319.0803 1195.9976 2571.7278 7104604
2327.9329 1192.7246 2564.6899 7894120
2307.9893 1174.8361 2526.2246 8881015
2375.8271 1201.5735 2583.7175 8946808
2410.4089 1211.2568 2604.5396 9341309
2389.6343 1193.1769 2565.6624 9933959
2395.2021 1188.3954 2555.3811 8749686
2395.9924 1181.3186 2540.1641 7433568
2347.5066 1150.1868 2473.2219 6315601
2371.7886 1154.8735 2483.2998 5657666
0 0 0 0
0 0 0 0
0 0 0 0
0 0 0 0
0 0 0 0
0 0 0 0
0 0 0 0
0 0 0 0
0 0 0 0
0 0 0 0
0 0 0 0
0 0 0 0
0 0 0 0
-1458.8065 800.47937 1699.5956 3223068
-1453.7858 803.27051 1705.5217 5788480
-1428.9427 795.07153 1688.1134 2368013
-1416.5607 793.73901 1685.2843 5854527
-1403.2543 791.86609 1681.3076 3617567
-1396.0703 793.44586 1684.662 1710344
-1402.5508 802.87061 1704.6726 4144168
-1389.9015 801.40198 1701.5546 394240
-1405.8883 816.54382 1733.704 2301452
-1371.6018 802.49481 1703.8749 2498828
-1367.9081 806.26935 1711.889 1840905
-1356.3292 805.41791 1710.0812 5393977
-1348.6879 806.90942 1713.248 3354140
-1352.7311 815.46741 1731.4186 1314308
-1331.0013 808.50079 1716.6267 1248514
-1329.9862 814.10651 1728.5289 2893083
-1322.1575 815.59613 1731.6918 1248774
-1320.0477 820.66449 1742.4531 2499099
-1307.9377 819.54675 1740.08 1907731
-1294.0083 817.26215 1735.2291 4868159
-1288.8821 820.54535 1742.2001 1052683
-1278.6849 820.6272 1742.3739 4012333
-1269.5686 821.40961 1744.0352 789253
