# .PCD v0.7 - Point Cloud Data file format
VERSION 0.7
FIELDS x y z rgb
SIZE 4 4 4 4
TYPE F F F U
COUNT 1 1 1 1
WIDTH 1307
HEIGHT 1
VIEWPOINT 0 0 0 1 0 0 0
POINTS 1307
DATA ascii
9081.0859 1738.708 9627.5137 8217709
9132.0127 1737.5419 9621.0566 7559779
9282.8975 1755.2914 9719.3389 7692393
0 0 0 0
0 0 0 0
0 0 0 0
0 0 0 0
0 0 0 0
0 0 0 0
0 0 0 0
-2729.2009 569.49463 3053.197 9211774
-2698.7349 566.89575 3039.2639 9475715
-2707.7493 572.6109 3069.9043 10725270
-2677.4272 570.02856 3056.0598 8685689
-2612.7075 560.03796 3002.4976 6909279
-2650.0505 571.93756 3066.2942 5263942
-2709.5022 588.80597 3156.7297 2303260
-2616.2534 572.49463 3069.281 3026469
-2609.123 574.93146 3082.3455 592386
-2641.3906 586.14545 3142.4663 986371
-2643.2725 590.72791 3167.0339 920068
-2616.0889 588.83386 3156.8794 3485736
-2615.6848 592.98346 3179.1265 3222817
-2607.208 595.34991 3191.8137 5723207
-2579.5273 593.33374 3181.0044 8749166
-2575.1924 596.69733 3199.0376 8947052
-2536.7146 592.14093 3174.6094 7499599
-2451.8416 576.60553 3091.3206 7170630
-2452.4355 581.08704 3115.3467 7565131
-2439.3059 582.36011 3122.1721 6841409
-2400.7498 577.53595 3096.3086 8552025
-2388.2307 578.94934 3103.8862 6249522
-2369.4585 578.85693 3103.3909 7367753
-2342.0564 576.63849 3091.4971 7433550
-2369.3064 587.9469 3152.1243 8487267
-2340.2593 585.35394 3138.2227 8552554
-2335.2388 588.7771 3156.5752 9473914
-2328.6799 591.86456 3173.1279 8487791
-2308.8328 591.59753 3171.696 8355694
-2316.137 598.34015 3207.8447 8882297
-2293.2524 597.33105 3202.4348 6974299
-2299.168 603.86932 3237.488 5329989
-2294.8225 607.79999 3258.5613 6448473
-2312.0886 617.56982 3310.9399 1382158
-2350.427 633.18365 3394.6494 1118218
-2338.8079 635.49274 3407.0291 263169
-2339.0789 641.10101 3437.0962 196608
-2295.8789 634.78845 3403.2529 262144
-2315.0757 645.76904 3462.1226 262144
-2246.6743 632.29272 3389.8728 1906702
-2211.6824 628.06073 3367.1841 4341037
-2160.7886 619.19476 3319.6516 8815471
-2164.4917 625.95508 3355.895 9342067
-2129.7996 621.63397 3332.7288 8354911
-2104.7935 620.08563 3324.4275 8158043
-2066.5715 614.57776 3294.8987 9867898
-2048.3127 614.95831 3296.9387 8486497
-2025.7699 614.04755 3292.0562 8749669
-2008.4868 614.729 3295.7095 10658180
-1998.9128 617.80646 3312.2085 10132094
-1981.1753 618.39685 3315.3735 10198147
-1953.2147 615.77606 3301.323 8553069
-1948.7034 620.5697 3327.0229 7303516
-1923.0895 618.67249 3316.8516 8093290
-1931.2721 627.72101 3365.3628 6579542
-1924.825 632.15363 3389.1272 8158832
-1926.0887 639.23883 3427.1125 7237731
-1922.2101 644.75012 3456.6602 6119508
-1884.0695 638.76428 3424.5686 2764067
-1884.6868 645.93134 3462.9929 5987664
-1860.3964 644.62579 3455.9934 7632496
-1851.0486 648.52637 3476.9055 11054502
-1832.533 649.26654 3480.8738 2105631
-1833.871 657.13794 3523.074 5263693
-1804.9486 654.22235 3507.4429 855305
-1795.9652 658.55005 3530.6448 2895141
-1815.1406 673.42688 3610.4031 1644818
-1785.5449 670.34857 3593.8992 5066307
-1792.3439 681.02448 3651.1353 5855820
-1744.967 671.12488 3598.0613 7961188
-1682.6047 655.14563 3512.3926 10131836
-1662.2837 655.34045 3513.437 6841926
-1682.4484 671.7038 3601.165 7697237
-1616.8585 653.81097 3505.2373 7433805
-1613.1475 660.79999 3542.707 9604974
-1597.1882 662.88989 3553.9116 6644808
-1587.3196 667.59735 3579.1494 7236690
-1579.2294 673.19037 3609.1348 8355686
-1558.2091 673.34943 3609.9878 6974039
-1545.2966 677.06543 3629.9099 5790275
-1523.4479 676.91571 3629.1072 7369307
-1525.5614 687.56116 3686.1802 5197887
-1510.3884 690.61194 3702.5361 9277570
-1493.6523 693.02747 3715.4861 7171941
-1500.2896 706.52216 3787.8347 7105896
-1531.6481 732.24567 3925.7444 3355185
-1525.7227 740.66302 3970.8721 5855574
-1490.0525 734.67841 3938.7869 10198404
-1454.8491 728.73706 3906.9338 9343347
-1383.6606 704.28699 3775.8516 7105354
-1348.77 697.81256 3741.1404 7762257
-1313.0582 690.68988 3702.9539 7828045
-1279.1371 684.28284 3668.6042 8287830
-1248.285 679.32452 3642.0215 6248248
-1246.5465 690.31415 3700.9397 5196326
-1209.7587 681.94031 3656.0454 8091478
-1203.7913 690.95123 3704.3552 9210219
-1199.0247 700.99896 3758.2234 8750440
-1153.9677 687.42584 3685.4548 7434070
-1134.3944 688.80267 3692.8364 6578764
-1121.6569 694.466 3723.1987 7631450
-1098.8298 693.98438 3720.6167 8815982
-1080.2993 696.25214 3732.7747 8552555
-1050.5514 691.23395 3705.8711 5527364
-1040.1343 698.99225 3747.4648 9474697
-1031.6802 708.43707 3798.1008 7830651
-1011.4596 710.04297 3806.7107 7238517
-1121.8101 805.47394 4318.3389 5199180
-1101.0847 809.04938 4337.5078 4737088
0 0 0 0
0 0 0 0
0 0 0 0
0 0 0 0
0 0 0 0
0 0 0 0
0 0 0 0
0 0 0 0
0 0 0 0
0 0 0 0
0 0 0 0
-719.06946 733.96991 3934.9888 9737610
-699.44617 737.86932 3955.8943 8290168
-700.93683 765.08539 4101.8062 8685187
-697.56305 788.75659 4228.7129 6908522
-727.32361 853.05402 4573.4272 5921881
-684.35645 833.72748 4469.8125 5132108
-646.26556 819.02423 4390.9854 5856086
-584.45392 771.76434 4137.6138 5132097
-559.97681 771.82397 4137.9331 7434329
-529.2486 762.87848 4089.9744 6709826
-507.90964 767.25793 4113.4536 6577727
-483.06244 766.51221 4109.4556 7828054
-461.54315 771.24829 4134.8467 7696474
-433.79382 765.52112 4104.1421 6776143
-403.67999 754.69318 4046.0908 8552812
-384.97009 765.164 4102.2275 6448207
-366.70743 777.99524 4171.019 6777172
-349.30612 794.64093 4260.2603 7763811
-333.44345 817.65314 4383.6348 6711130
-307.1109 816.71124 4378.585 9277578
-309.43188 898.82727 4818.8286 4869715
-298.65298 955.7204 5123.8462 4803668
-262.78574 936.11981 5018.7627 6316655
-237.98978 955.98877 5125.2847 1843242
-211.0865 971.96783 5210.9526 2106159
-179.41963 967.73022 5188.2339 4869722
-149.01685 969.96802 5200.231 6777208
-118.63498 973.54443 5219.4048 4013902
-87.604279 972.44104 5213.4893 4145488
-56.353432 966.36035 5180.8896 5264481
-25.451426 958.86499 5140.7051 4672087
5.0358353 963.13855 5163.6167 5264224
36.232143 979.23608 5249.9194 5000794
67.865509 986.81494 5290.5518 5066071
98.645973 981.12128 5260.0264 5131607
129.16179 976.16187 5233.4375 4605262
157.50868 959.90479 5146.2798 2630442
191.51312 977.80786 5242.2622 4275783
225.89699 992.38013 5320.3877 2565421
269.70959 1039.7305 5574.2441 2171433
306.37161 1052.1899 5641.042 3881543
335.64639 1039.3232 5572.061 5724518
369.76376 1042.4135 5588.6284 6843002
400.15018 1035.3422 5550.7173 6251121
436.48349 1043.5632 5594.7925 7106173
461.77637 1026.0912 5501.1206 3750987
506.10236 1050.427 5631.5908 5001052
542.93347 1057.1584 5667.6797 4211535
574.83948 1054.0745 5651.1455 6711413
609.27716 1055.7167 5659.9497 7369087
644.87714 1059.0964 5678.0698 5592932
680.44543 1062.0914 5694.127 5000794
716.55414 1065.6072 5712.9756 6316654
754.48877 1071.3986 5744.0244 2960442
780.31897 1060.2432 5684.2178 2631731
821.07739 1069.4552 5733.6055 3487038
855.06787 1069.4701 5733.6855 3289658
903.47095 1086.8213 5826.7095 7895173
934.26416 1082.4913 5803.4956 7632775
975.90381 1090.5898 5846.9136 6447986
1003.1744 1082.626 5804.2173 4802903
1057.1565 1103.0614 5913.7764 4408401
1079.5222 1090.2548 5845.1172 4803417
1119.9307 1095.9 5875.3828 8092814
1151.7084 1093.0139 5859.9097 6974332
1202.5712 1107.879 5939.6055 8553878
1237.1931 1107.3624 5936.835 6711932
1258.0818 1094.9219 5870.1387 7764364
1303.3152 1103.7682 5917.5659 7172994
1329.4109 1096.3682 5877.8926 8290701
1397.2262 1122.8737 6019.9946 7172220
1410.3772 1105.2224 5925.3623 6448496
1400.0758 1070.4971 5739.1914 6250601
1445.2235 1078.8098 5783.7578 3684415
1469.8334 1071.7617 5745.9712 3750463
1561.6462 1112.9257 5966.6616 4474186
1604.8528 1118.394 5995.9785 4473931
1645.3027 1121.7461 6013.9497 6842738
1667.8658 1113.0195 5967.1646 5198428
1736.3641 1134.6727 6083.2529 8224907
1770.3466 1133.3488 6076.1543 7106684
1834.3055 1150.8856 6170.1733 6579315
1939.3772 1193.0277 6396.1069 6381934
1914.6289 1155.2249 6193.437 5066074
1909.4238 1130.4141 6060.4209 5657955
1970.494 1145.0312 6138.7871 6776436
2018.8568 1151.8683 6175.4419 5987176
2081.2549 1166.3271 6252.9595 5065815
2104.5276 1158.7378 6212.2715 5329495
2123.2175 1148.9298 6159.6885 4539466
2133.8425 1135.1628 6085.8804 4276298
2219.0432 1160.8671 6223.6865 5263451
2288.854 1177.8114 6314.5288 6184811
2322.4993 1175.8995 6304.2788 6645365
2393.4219 1192.6233 6393.939 7237758
2375.2439 1165.1195 6246.4844 7303549
2448.5525 1182.6478 6340.458 6776948
2476.8872 1178.2521 6316.8921 5329502
2542.0359 1191.2391 6386.5186 5592415
2580.8452 1191.6831 6388.8989 6250345
2555.5269 1162.9319 6234.7568 6579310
2672.4192 1198.7931 6427.0171 4079434
2710.3193 1198.7102 6426.5723 6776434
2856.4617 1245.8389 6679.2412 6315626
2915.3691 1254.1522 6723.8105 7038323
2934.4978 1245.3599 6676.6724 5326934
2954.769 1237.2797 6633.353 3023661
2975.4224 1229.5697 6592.0181 4075321
3028.7263 1235.3773 6623.1538 4863807
3089.3416 1243.9803 6669.2769 6967896
3112.6636 1237.5389 6634.7427 8216934
3117.9441 1224.1747 6563.0938 9070700
3167.344 1228.2485 6584.9346 9201513
3165.2432 1212.4951 6500.4771 9399145
3261.4307 1234.3188 6617.479 9399140
3285.5012 1228.6547 6587.1118 9859432
3306.929 1222.147 6552.2227 10319726
3373.6628 1232.3398 6606.8691 10583154
3417.2449 1233.9388 6615.4419 10517105
3458.2588 1234.5847 6618.9048 9267040
3579.2375 1263.4432 6773.6221 9267042
3563.2004 1243.8324 6668.4834 9398627
3574.6677 1234.1477 6616.5615 9662054
3603.3926 1230.5665 6597.3618 10187630
3658.1936 1235.8718 6625.8052 9924971
3737.1804 1249.1486 6696.9844 9991535
3806.509 1258.9518 6749.542 8676189
3921.1272 1283.3744 6880.4775 7821138
3978.8704 1288.8708 6909.9453 8216154
3980.2336 1276.1782 6841.8975 8939619
4051.0005 1285.7699 6893.3208 9005155
4064.0945 1277.048 6846.5601 9201764
4175.6733 1299.1389 6964.9951 9464935
4336.7305 1336.0405 7162.8335 10122609
4505.2041 1374.4894 7368.9673 10583674
4592.5312 1387.6809 7439.6899 11110017
4438.6826 1328.4407 7122.0889 11176067
4662.7476 1382.3557 7411.1401 11439751
4863.7393 1428.4879 7658.4658 12689818
4912.2568 1429.3992 7663.3516 13347747
4970.9619 1433.2312 7683.896 13545379
5027.4604 1436.3632 7700.687 13544611
5097.5825 1443.2961 7737.856 10715513
5168.6094 1450.3591 7775.7227 9859950
5259.6748 1462.8707 7842.8008 9728108
5250.3213 1447.4783 7760.2778 9399400
5297.2788 1447.743 7761.6973 9662571
5382.3423 1458.3279 7818.4448 9662314
5464.0234 1467.8232 7869.3525 9662313
5442.4668 1449.6597 7771.9727 9267556
5425.5205 1433.0184 7682.7554 9004641
5448.9219 1427.2224 7651.6816 8675677
5543.9829 1440.1367 7720.9185 6701888
5618.813 1447.6274 7761.0776 8214873
5680.2441 1451.5725 7782.228 9267818
5820.3618 1475.4001 7909.9736 8741985
5873.229 1476.9066 7918.0503 9794929
5865.4507 1463.2599 7844.8872 10254964
5873.5415 1453.7556 7793.9326 9070433
5824.6426 1430.4043 7668.7407 9398887
5996.3057 1461.1605 7833.6313 8806755
6173.4902 1492.7791 8003.146 9661811
6274.1621 1505.5553 8071.6426 9858680
6212.1465 1479.395 7931.3916 9529971
6369.2549 1505.4192 8070.9131 9398383
6391.5684 1499.4331 8038.8203 9135723
6466.5107 1505.7908 8072.9053 9924979
6692.7993 1547.0388 8294.0459 10057077
6703.1567 1538.1367 8246.3193 9991797
6741.4868 1535.736 8233.4482 9268587
6868.2056 1553.36 8327.9355 11044745
6920.7593 1554.0787 8331.7881 11768984
7055.4312 1573.0964 8433.7471 11441304
7172.6738 1587.9879 8513.584 10915474
7417.8945 1630.8073 8743.1484 10850964
7455.3096 1627.6637 8726.2949 11113365
7461.9609 1617.8933 8673.9131 10653332
7639.2349 1644.9977 8819.2266 11245212
7740.5654 1655.4913 8875.4863 10456726
7690.77 1633.7401 8758.8721 10852770
7792.0684 1644.162 8814.7461 10524318
7908.1079 1657.5347 8886.4404 10525858
8011.1899 1668.0327 8942.7227 10262941
8169.3325 1689.7814 9059.3232 9408399
8262.7891 1697.9539 9103.1367 9079174
8365.1611 1707.8402 9156.1406 12039611
8711.0176 1766.9891 9473.252 13487054
8796.8125 1772.9658 9505.2939 14145237
8892.4268 1780.8328 9547.4717 13948115
8704.9336 1732.2628 9287.0762 13684942
8627.0391 1705.9758 9146.1455 13422027
8786.5449 1726.6694 9257.0889 13422542
8230.3535 1607.3352 8617.3086 13423054
0 0 0 0
0 0 0 0
0 0 0 0
0 0 0 0
0 0 0 0
0 0 0 0
0 0 0 0
-2700.1382 581.33142 3020.6843 8751480
-2673.7056 579.48236 3011.0764 7632743
-2649.3137 578.05377 3003.6531 8882555
-2614.3184 574.27661 2984.0264 9014655
-2574.447 569.36957 2958.5288 6975072
-2637.0991 587.2251 3051.3086 7501161
-2611.2319 585.47968 3042.2393 263171
-2610.4924 589.38318 3062.5225 526594
-2626.5085 597.15082 3102.8843 591360
-2634.718 603.24066 3134.5278 1183754
-2611.1138 602.08118 3128.5032 2236184
-2572.863 597.50372 3104.718 2762270
-2624.4575 613.87561 3189.7888 3814951
-2587.3833 609.5946 3167.5439 8485738
-2556.1562 606.63855 3152.1838 5920059
-2525.7908 603.84503 3137.6682 8354910
-2490.5005 599.82391 3116.7742 6381116
-2478.3484 601.35706 3124.7405 7302218
-2421.2156 591.91687 3075.6877 5986100
-2401.1702 591.46899 3073.3606 7960145
-2361.2175 586.07306 3045.3228 7828559
-2363.5679 591.17493 3071.8328 6973250
-2370.0212 597.3902 3104.1282 5525550
-2354.4548 598.10895 3107.8628 7301709
-2347.8857 601.14264 3123.6262 9275500
-2357.9253 608.51074 3161.9121 8091998
-2330.291 606.19659 3149.8875 3552798
-2303.449 604.05273 3138.7476 7895393
-2302.6082 608.74805 3163.145 7237979
-2297.4937 612.38123 3182.0237 6118988
-2271.7939 610.54242 3172.469 8290159
-2278.78 617.53033 3208.7793 6382422
-2233.3008 610.29871 3171.2026 7435370
-2230.5269 614.71344 3194.1423 6317659
-2284.9785 635.10968 3300.124 1712407
-2271.8435 636.91016 3309.4795 724231
-2269.4116 641.76868 3334.7253 0
-2255.2153 643.35657 3342.9761 196608
-2184.7783 628.78625 3267.2668 919813
-2127.4976 617.7757 3210.0542 657152
-2136.8518 626.09033 3253.2581 4999738
-2124.2146 628.05414 3263.4626 11316120
-2126.4712 634.49823 3296.9468 5921081
-2092.262 630.08008 3273.9895 8683873
-2076.6833 631.24243 3280.0293 7762768
-2053.2766 630.02466 3273.7017 8025687
-1998.2567 618.99109 3216.3694 10065014
-1976.1879 618.05035 3211.4812 7828310
-1979.5894 625.13452 3248.2917 8223068
-1985.1069 633.03271 3289.332 8882285
-1964.7151 632.74335 3287.8284 10461576
-1943.036 632.02948 3284.1189 10067077
-1945.4844 639.22864 3321.5269 8751220
-1918.5461 636.8208 3309.0156 8488050
-1899.4932 637.00757 3309.9861 6316626
-1923.5171 651.79517 3386.8245 7434853
-1908.2314 653.43378 3395.3389 8290418
-1878.5087 650.11102 3378.0732 5395782
-1868.7313 653.69366 3396.6895 6645851
-1858.7472 657.28119 3415.3308 4737599
-1861.5894 665.53326 3458.2097 3223849
-1861.563 672.93219 3496.6553 4276025
-1846.17 674.88013 3506.7773 2894887
-1846.7609 682.7821 3547.8369 8026997
-1792.2634 670.26428 3482.7925 4474178
-1810.8385 685.10052 3559.884 921100
-1809.3937 692.62305 3598.9722 1184268
-1786.6331 692.0683 3596.0894 6645589
-1768.3828 693.26819 3602.3245 6711368
-1691.5577 671.25354 3487.9331 6711377
-1664.0831 668.52002 3473.7292 9539959
-1644.3275 668.85785 3475.4846 6447427
-1664.4712 685.63977 3562.686 7565648
-1626.517 678.6134 3526.176 8618080
-1582.8175 668.97583 3476.0979 7302221
-1601.1407 685.64374 3562.7068 6907980
-1592.1813 690.91785 3590.1116 8289379
-1535.0354 675.14142 3508.1348 8224100
-1546.1534 689.36792 3582.0579 6513229
-1520.3049 687.27917 3571.2043 4999734
-1514.0156 694.09827 3606.6377 5329214
-1501.7753 698.3454 3628.7063 4605751
-1513.1764 713.86926 3709.3706 5461062
-1472.1877 704.77063 3662.0925 6579035
-1473.9363 716.16504 3721.2998 4671301
-1473.7385 726.94556 3777.3171 5132107
-1479.597 741.09216 3850.825 7500394
-1465.9835 745.77612 3875.1633 9080181
-1409.2456 728.32172 3784.4678 9605750
-1382.6031 726.10809 3772.9656 7960666
-1353.0464 722.26617 3753.0022 6183480
-1322.8506 717.94891 3730.5691 9012065
-1300.2473 717.6756 3729.1489 4209942
-1272.5276 714.52002 3712.752 7170886
-1235.2915 705.81586 3667.5242 5986357
-1206.6334 701.78912 3646.6003 10986885
-1199.8624 710.57733 3692.2651 7498831
-1195.0886 720.89679 3745.8867 7631186
-1156.3129 710.70807 3692.9446 7828312
-1111.1621 696.13239 3617.2073 6907983
-1117.3564 713.78333 3708.9241 7170901
-1097.2826 715.02533 3715.3779 9605756
-1068.8728 710.77502 3693.2925 7895909
-1047.1675 710.8985 3693.9341 6316626
-1033.5087 716.60657 3723.594 4408889
-1020.7643 723.21143 3757.9141 3355696
-1011.3907 732.55249 3806.4514 4079677
-1081.3728 801.1084 4162.6782 2500130
-978.75854 742.01654 3855.6279 2170390
0 0 0 0
0 0 0 0
0 0 0 0
-940.47791 786.43286 4086.4216 6907987
-878.87134 754.34106 3919.6682 8882801
0 0 0 0
0 0 0 0
0 0 0 0
0 0 0 0
0 0 0 0
-710.099 724.35144 3763.8374 9606020
-724.80432 763.32922 3966.3718 10198414
-707.49323 770.07159 4001.4062 9803660
-715.44006 805.72705 4186.6772 7895671
-718.63452 838.40002 4356.4507 6316384
-728.5708 881.66644 4581.2695 3224109
-674.61731 847.97461 4406.2021 5790032
-621.35162 812.46918 4221.7104 7631717
-566.28595 771.53192 4008.9941 6644816
-547.28174 778.29248 4044.1233 5789498
-523.4317 778.46552 4045.0225 8683615
-503.04272 784.04956 4074.0378 5722668
-476.51028 780.13855 4053.7156 8157268
-457.0741 788.04712 4094.8096 8749415
-434.82687 791.72412 4113.916 5328693
-408.43814 787.8493 4093.782 6645586
-382.41443 784.23364 4074.9946 6317132
-365.28149 799.59229 4154.8003 5329726
-348.75604 818.59698 4253.5513 8619637
-326.64682 826.43561 4294.2822 6974302
-305.22263 837.47858 4351.6631 7895923
-277.78772 832.54535 4326.0293 5921882
-291.56546 962.6839 5002.2485 3553340
-263.3208 967.82861 5028.981 5198170
-232.76485 964.70721 5012.7617 1974315
-200.51611 952.63019 4950.0078 4277073
-172.07445 957.60052 4975.8345 4145233
-143.26517 962.15784 4999.5151 1513509
-116.92466 989.99457 5144.1587 3948366
-85.910728 983.94092 5112.7031 6777720
-54.85741 970.5943 5043.3521 4540501
-25.304234 983.60834 5110.9751 5330273
5.0102706 988.69458 5137.4038 6053739
35.568485 991.8418 5153.7573 6514290
65.715752 985.91577 5122.9644 5855589
97.394585 999.45172 5193.2993 5723230
126.40965 985.71564 5121.9248 4538957
156.70424 985.34442 5119.9961 526093
189.34781 997.4679 5182.9912 3486268
222.99086 1010.7373 5251.9414 3420731
257.19882 1023.0033 5315.6768 3881284
292.32239 1035.8368 5382.3618 3289661
321.84576 1028.2534 5342.957 3750213
353.2702 1027.558 5339.3438 4474451
386.31787 1031.3103 5358.8413 3487557
417.16165 1029.0562 5347.1279 4277074
446.02713 1022.5845 5313.5005 5856364
490.11292 1049.5602 5453.6704 5856363
529.22137 1063.1989 5524.5391 7566982
558.13416 1055.9587 5486.9185 4803671
590.17908 1055.1154 5482.5361 5198431
616.68213 1044.9694 5429.8159 5724519
666.2063 1072.9044 5574.9707 7500930
708.60339 1087.2642 5649.5854 5724517
747.49664 1095.1943 5690.7925 5066588
776.98657 1089.2573 5659.9429 6251113
811.63312 1090.7418 5667.6562 2237490
852.50549 1100.1425 5716.5034 4145742
879.12653 1091.1365 5669.7065 2565685
914.68127 1093.4733 5681.8496 2631731
953.84937 1099.8107 5714.7793 4210765
987.70001 1099.7924 5714.6846 5921127
1018.8657 1096.8849 5699.5767 5000280
1056.4921 1100.896 5720.4194 6448497
1112.8553 1123.5753 5838.2642 4145491
1140.4395 1116.7067 5802.5732 7171715
1175.0389 1116.9082 5803.6211 6447991
1217.3851 1124.2527 5841.7837 6645368
1239.6901 1113.1945 5784.3232 6448242
1257.472 1098.7793 5709.4204 7764101
1297.4199 1103.9806 5736.4468 7631488
1336.7876 1108.4352 5759.5933 6908535
1382.2651 1117.6079 5807.2563 8684430
1413.0332 1114.7308 5792.3066 5987172
1428.6825 1100.3461 5717.561 4539980
1488.1548 1119.5975 5817.5947 4079429
1544.9296 1135.9935 5902.7915 5395805
1539.4637 1106.9113 5751.6753 7567233
1623.4222 1141.9943 5933.9717 6974841
1651.3832 1137.0333 5908.1938 7040635
1691.7784 1140.6621 5927.0498 6974845
1718.2032 1134.9154 5897.189 7106685
1754.8549 1136.0183 5902.9199 8487825
1781.7551 1130.8887 5876.2656 5197660
1801.22 1121.3271 5826.582 2895160
1875.6271 1145.6853 5953.1514 7172220
1903.0081 1140.9497 5928.5444 6711929
1954.1199 1150.3557 5977.4194 6909562
1976.1858 1142.6324 5937.2876 5527139
2013.9977 1144.1244 5945.04 6580341
2085.9902 1164.6487 6051.6875 7434623
2131.7056 1170.0562 6079.7856 7434625
2175.1687 1174.0681 6100.6323 4145232
2236.5967 1187.4873 6170.3604 6381937
2252.6008 1176.7455 6114.5439 6842490
2307.4937 1186.3373 6164.3843 5790313
2293.2759 1160.6525 6030.9224 5395042
2341.8691 1167.0576 6064.2046 5460832
2418.4009 1186.9817 6167.7329 6053482
2508.2532 1212.7529 6301.6445 6710897
2531.5176 1206.0448 6266.7881 6974068
2516.7581 1181.6776 6140.1719 6447211
2580.9165 1194.5306 6206.9585 4934227
2634.6934 1202.285 6247.2515 4407112
2645.8274 1190.6351 6186.7168 6709866
2732.4231 1212.7976 6301.8765 3880765
2814.876 1232.5483 6404.5044 3222835
2809.5974 1213.8699 6307.4478 3880509
2877.0195 1226.6792 6374.0073 4143428
2929.0601 1232.6833 6405.2056 3353912
3013.7222 1252.0869 6506.0293 7301495
3087.563 1266.5612 6581.2397 6972017
3107.0754 1258.6661 6540.2158 5918560
3189.0894 1275.9727 6630.1436 5983837
3185.1345 1258.8802 6541.3281 1049096
3174.6714 1239.6573 6441.4434 2036505
3263.0735 1259.0377 6542.147 4204330
3303.7446 1259.7627 6545.9136 5977657
3349.2188 1262.2808 6558.998 8478044
3381.1584 1259.6989 6545.582 8674909
3410.6814 1256.2852 6527.8442 8806750
3444.9607 1254.6804 6519.5059 9069921
3491.5986 1257.5625 6534.4814 9135713
3555.1467 1266.4052 6580.4287 9201505
3545.4177 1249.2363 6491.2173 8740699
3606.3025 1257.05 6531.8188 8740956
3646.5278 1257.573 6534.5361 8807520
3711.9321 1266.6772 6581.8428 9004645
3780.2637 1276.5804 6633.3018 8741986
3836.4541 1282.2222 6662.6167 9070695
3930.3777 1300.2316 6756.1963 9268074
4000.1614 1309.9725 6806.8115 9333609
4026.134 1305.3148 6782.6099 9070436
4078.5647 1309.2426 6803.0186 9333093
4133.7012 1313.9534 6827.4966 9464166
4169.7114 1312.5524 6820.2168 9333097
4297.2583 1339.7157 6961.3613 9201513
4316.229 1332.8345 6925.6055 8807528
4324.1772 1322.7113 6873.0044 8807271
4487.2632 1359.7889 7065.665 9004651
4560.8613 1369.3138 7115.1582 8675942
4856.187 1444.6241 7506.4819 9136747
4928.3975 1452.7972 7548.9497 9202796
4773.9629 1394.6135 7246.6187 9728626
4945.5352 1431.8542 7440.127 10254970
5060.2314 1452.1152 7545.4062 10716293
5222.2002 1485.4683 7718.7134 11112080
5274.7471 1487.387 7728.6831 10783632
5304.061 1482.7776 7704.7324 10323594
5294.7603 1467.5442 7625.5776 10785171
5314.7422 1460.6162 7589.5786 11311771
5397.355 1470.8724 7642.8716 11640737
5384.1411 1455.0609 7560.7124 11904936
5553.9839 1488.573 7734.8462 12431538
5704.792 1516.4767 7879.8379 12366516
5654.7197 1490.9617 7747.2583 11708843
5722.085 1496.5726 7776.4136 12630460
5805.5005 1506.2583 7826.7417 12564667
5706.2505 1468.7727 7631.9609 12827327
5534.2495 1413.2981 7343.707 12958146
5602.8975 1419.665 7376.79 13221060
5795.7065 1457.1498 7571.5664 13945549
5746.8691 1433.7708 7450.0854 13814733
6000.3296 1485.5927 7719.3599 14012624
6114.9229 1502.5092 7807.2603 14342361
6178.3213 1506.6869 7828.9683 13881809
6193.9712 1499.2449 7790.2983 13683918
6356.2246 1527.1354 7935.2222 13421002
6306.876 1504.1508 7815.7905 13684174
6337.083 1500.3363 7795.9702 13816529
6393.0181 1502.6244 7807.8594 13751250
6521.2041 1521.7394 7907.1841 13619661
6546.9258 1516.842 7881.7363 13422540
6591.166 1516.2743 7878.7861 13160395
6618.8667 1511.9362 7856.2446 13028811
6508.8652 1476.4233 7671.7148 12701131
6505.0103 1465.3137 7613.9878 12504524
6479.4258 1449.4962 7531.7974 12373966
6510.1821 1446.4127 7515.7749 12242381
6503.1577 1435.0339 7456.6494 12242380
6563.7065 1438.6196 7475.2812 12044234
6668.1655 1451.7167 7543.3354 12044488
6853.25 1482.0753 7701.0835 12175562
6866.9746 1475.2194 7665.459 12569293
7019.2153 1498.0153 7783.9092 12569292
7298.9131 1547.5371 8041.2324 12700365
7438.4473 1566.8914 8141.8003 12569035
7407.7949 1550.3779 8055.9937 12502216
7122.6577 1481.1559 7696.3057 12501958
7542.5063 1558.4836 8098.1123 12435908
7719.1533 1584.8993 8235.3721 12698566
7657.1606 1562.2933 8117.9077 13158602
7749.5537 1571.2721 8164.563 13355468
7648.814 1541.2238 8008.4272 13421260
0 0 0 0
0 0 0 0
0 0 0 0
0 0 0 0
0 0 0 0
0 0 0 0
0 0 0 0
0 0 0 0
-2648.6526 591.72968 2982.8623 8554356
-2626.4807 590.71869 2977.7661 2566174
-2588.1003 586.02399 2954.1006 5659468
-2547.4121 580.7392 2927.4604 5922387
-2553.1211 586.0318 2954.1399 6514268
-2544.064 587.98474 2963.9846 6842976
-2564.0159 596.71594 3007.998 5329741
-2588.2615 606.57574 3057.7004 789766
-2591.1135 611.52545 3082.6516 2039061
-2572.2554 611.38531 3081.9451 3946797
-2575.1682 616.45477 3107.4998 4341030
-2541.2175 612.70911 3088.6182 9802356
-2468.446 599.48126 3021.9377 7565391
-2454.6375 600.48419 3026.9934 7039045
-2440.366 601.388 3031.5493 5197096
-2432.0979 603.79547 3043.6853 8025683
-2412.5195 603.41016 3041.7427 5920306
-2333.7139 588.09369 2964.5337 5525804
-2353.637 597.61316 3012.5208 6972993
-2321.6113 593.98706 2994.2417 8552285
-2333.3057 601.57703 3032.5022 7762769
-2347.0906 609.828 3074.0947 7696976
-2353.928 616.38885 3107.1675 3025684
-2289.7737 604.31696 3046.3142 7170380
-2301.54 612.24951 3086.3013 7236947
-2302.8518 617.50568 3112.7974 10001023
-2288.1069 618.50641 3117.842 5132094
-2293.9922 625.14551 3151.3091 5263674
-2276.6802 625.52008 3153.1973 7895910
-2255.2554 624.76154 3149.3735 7764581
-2221.1035 620.43512 3127.5645 5396039
-2210.2974 622.61212 3138.5386 5987922
-2199.5261 624.83606 3149.749 6580063
-2203.1433 631.2204 3181.9321 3421742
-2169.4517 626.93335 3160.3215 4539967
-2176.9341 634.57385 3198.8367 987147
-2160.8423 635.41638 3203.0837 1512719
-2128.678 631.50574 3183.3706 394241
-2134.634 638.93524 3220.822 3223590
-2122.1321 640.92413 3230.8479 10395020
-2089.5791 636.83826 3210.2515 9144948
-2102.0525 646.52618 3259.0872 7237207
-2097.8557 651.21881 3282.7424 6183486
-2021.1906 633.29315 3192.3806 8552033
-2028.8754 641.70752 3234.7969 3881243
-1985.1818 633.87708 3195.3242 9802100
-1957.9869 631.2146 3181.9031 7302223
-1983.6819 645.7168 3255.0073 7894874
-1980.98 651.16937 3282.4934 10329475
-1930.7061 640.93768 3230.9163 9079669
-1920.2605 643.85535 3245.6238 8751218
-1921.5763 650.81537 3280.709 8948601
-1874.4585 641.34619 3232.9753 8553331
-1896.0864 655.44562 3304.0496 5658699
-1884.9512 658.39551 3318.9194 5132354
-1902.4727 671.52258 3385.0923 6316629
-1860.9873 663.8797 3346.5649 6119508
-1833.4365 661.09662 3332.5359 5132357
-1858.1466 677.30225 3414.2271 3092261
-1857.5269 684.53033 3450.6631 2565920
-1846.8346 688.16589 3468.99 5592142
-1838.3684 692.72229 3491.9583 2499873
-1825.356 695.64978 3506.7156 328706
-1785.7617 688.39764 3470.158 592134
-1739.3298 678.31 3419.3069 6316119
-1738.5919 686.01434 3458.144 8092270
-1735.8121 693.08728 3493.7983 6974805
-1702.6484 688.05267 3468.4189 8290654
-1699.2089 695.05347 3503.7095 7369302
-1666.2867 690.01862 3478.3291 10592389
-1625.2896 681.47186 3435.2456 7039815
-1631.4508 692.73218 3492.0081 8880993
-1623.1934 698.08087 3518.9705 6906946
-1589.2307 692.37006 3490.1826 7696976
-1568.5464 692.36969 3490.1807 7434320
-1575.6774 704.81128 3552.8979 8289890
-1539.5742 697.98914 3518.5081 8093029
-1529.5438 702.96234 3543.5776 7369052
-1521.0291 708.78033 3572.9055 9145720
-1507.9282 712.59528 3592.1365 5000766
-1479.9828 709.40405 3576.0498 7698023
-1450.7584 705.49817 3556.3606 4934978
-1463.2874 722.08087 3639.9526 7501159
-1458.1267 730.30005 3681.3848 4803389
-1453.0498 738.81152 3724.2903 986891
-1469.7675 758.83801 3825.2422 8356202
-1404.9506 736.73627 3713.8293 9276279
-1383.7643 737.17456 3716.0388 9473657
-1361.9152 737.26813 3716.5105 9736568
-1322.4808 727.68866 3668.2209 8158045
-1307.7654 731.6178 3688.0273 9079145
-1286.0479 731.69659 3688.4246 2236170
-1261.5677 730.17908 3680.7751 9209960
-1233.7472 726.64093 3662.9395 7565648
-1227.0111 735.61652 3708.1846 10855557
-1186.1649 724.0968 3650.1147 5722677
-1179.5266 733.41937 3697.1089 8749155
-1150.415 728.85663 3674.1086 7170124
-1116.553 721.05011 3634.7566 6841674
-1101.9012 725.58618 3657.6226 5723709
-1098.7916 738.05707 3720.4873 9934463
-1073.8696 736.08734 3710.5581 8224104
-1054.9083 738.20642 3721.2402 6579795
-1032.6119 738.03241 3720.363 4737596
-990.69543 723.52185 3647.2163 723720
-979.07874 730.98602 3684.8428 921100
-970.61328 741.1972 3736.3164 459777
-943.69971 737.46857 3717.5208 722688
-899.46881 719.70526 3627.9773 4209710
0 0 0 0
0 0 0 0
0 0 0 0
0 0 0 0
0 0 0 0
0 0 0 0
0 0 0 0
0 0 0 0
0 0 0 0
0 0 0 0
-716.56073 777.88568 3921.2603 9936013
-727.32788 816.03864 4113.5864 9408648
-720.53082 836.44794 4216.4678 4737606
-719.16309 864.85284 4359.6548 8619135
-681.44354 850.02972 4284.9326 4408381
-630.03754 816.32581 4115.0337 5855820
-603.89642 813.96094 4103.1128 6183754
-573.57428 805.52582 4060.5918 5196333
-541.11261 793.21558 3998.5371 4604450
-513.85425 787.7547 3971.009 5394488
-495.11414 795.45502 4009.8259 4012580
-479.0661 808.47504 4075.4585 4012322
-449.01505 797.99121 4022.6106 7696470
-422.63748 793.22644 3998.5918 4209958
-404.72672 804.73041 4056.5823 5921608
-374.69196 792.05847 3992.7041 7961706
-362.2774 817.4361 4120.6309 7303009
-346.65906 838.73077 4227.9756 5264199
-327.62994 854.44849 4307.207 7039843
-312.10669 882.73779 4449.8115 7237739
-284.56683 879.12543 4431.6016 7105904
-266.35199 906.51562 4569.6733 7040372
-257.02023 973.76074 4908.6509 5527393
-229.71289 981.37537 4947.0356 4606806
-199.67776 977.85944 4929.312 2303282
-171.15324 981.80408 4949.1968 4014158
-142.91873 989.38788 4987.4258 4277073
-111.85318 976.21771 4921.0361 4079694
-85.307503 1007.1183 5076.8042 3882313
-55.117989 1005.2347 5067.3086 2829618
-24.891296 997.3515 5027.5698 4869720
4.8739071 991.40222 4997.5801 5198172
34.472778 990.88898 4994.9927 6185067
63.357006 979.79822 4939.0854 4802644
93.10643 984.86877 4964.6455 5262165
127.07042 1021.3806 5148.6982 2696493
156.24602 1012.7166 5105.0244 5789280
190.40302 1033.9133 5211.8755 5723489
222.92294 1041.5442 5250.3418 6250602
255.93091 1049.3068 5289.4722 5724516
282.58337 1032.1613 5203.043 5527393
312.70148 1029.8025 5191.1528 5198177
347.38065 1041.5416 5250.3286 3750987
378.16199 1040.6246 5245.7065 5593448
407.62125 1036.4851 5224.8398 7764617
440.80804 1041.7394 5251.3257 6974845
473.48355 1045.172 5268.6294 7435395
514.69946 1065.8658 5372.9453 6448500
548.75891 1070.1918 5394.752 1974571
567.09766 1045.0707 5268.1187 4145484
605.40649 1057.4526 5330.5352 6251117
647.78656 1075.365 5420.8301 3750982
682.3183 1079.1716 5440.0186 1973801
703.20972 1062.0342 5353.6304 4276301
740.84839 1070.5773 5396.6953 3026489
765.4707 1060.3822 5345.3027 2500145
804.42816 1070.0663 5394.1196 2236975
850.2005 1087.7289 5483.1553 2697526
865.80237 1066.9126 5378.2217 3092282
915.88275 1088.5532 5487.3105 4210764
956.39514 1097.7279 5533.5596 6250347
975.54834 1082.5914 5457.2573 7434622
1017.9048 1093.3492 5511.4873 5856105
1077.106 1120.9689 5650.7153 5000798
1101.828 1112.1217 5606.1177 5592680
1136.5389 1113.5796 5613.4663 5461096
1202.7449 1144.9357 5771.5303 5658728
1217.6913 1127.1113 5681.6787 4342866
1240.8607 1117.6525 5633.998 6053227
1281.5278 1124.0369 5666.1807 4407883
1309.9047 1119.5905 5643.7671 1578782
1363.5995 1136.4663 5728.8369 1
1388.8402 1129.3839 5693.1348 1184281
1408.4525 1118.1689 5636.6011 5921121
1467.7096 1138.2184 5737.6689 5395293
1512.2352 1146.1942 5777.8745 6316652
1525.4414 1130.6041 5699.2856 4803927
1579.204 1145.097 5772.3438 4737366
1603.5521 1138.0991 5737.0679 4605780
1637.0719 1137.7661 5735.3887 5263710
1657.563 1128.5757 5689.0605 4540499
1680.6139 1121.4598 5653.1904 5394780
1738.4159 1137.3582 5733.3325 4803414
1766.542 1133.6035 5714.4058 4145485
1859.4066 1170.7521 5901.6685 6580340
1853.7804 1145.6604 5775.1831 6185327
1891.8204 1147.9753 5786.8525 5264224
1961.0962 1168.8246 5891.9521 6974841
1980.1776 1159.5516 5845.208 7961734
2033.5082 1170.3083 5899.4316 5658466
2064.916 1168.2979 5889.2969 4342351
2090.7061 1163.2285 5863.7432 4473422
2118.481 1159.4113 5844.5005 1381146
2108.9202 1135.6123 5724.5317 1841699
2146.0715 1137.3221 5733.1509 3420735
2185.3953 1140.1122 5747.2153 4144715
2240.7878 1151.0709 5802.4575 5197404
2302.7493 1165.0216 5872.7822 6908793
2391.0928 1191.7058 6007.2949 6974333
2418.2051 1187.5374 5986.2822 7829645
2470.4688 1195.6624 6027.2397 7632267
2514.009 1199.3938 6046.0493 7763851
2594.7715 1220.5292 6152.5908 7698568
2575.2161 1194.5449 6021.6064 7632003
2591.0637 1185.4688 5975.8545 7895170
2646.8816 1194.6781 6022.2778 5658206
2676.5188 1191.9828 6008.6909 5065297
2777.9338 1220.9048 6154.4844 4538953
2826.3325 1226.0782 6180.5635 2893616
2865.9248 1227.348 6186.9644 3683389
2935.1409 1241.1119 6256.3472 4210248
2931.7612 1224.2188 6171.1895 4341580
3052.0947 1258.7642 6345.3306 5921382
3029.8828 1234.3949 6222.4868 7434367
3040.9053 1223.9886 6170.0303 6908283
3274.3713 1302.3014 6564.7983 7500673
3225.1157 1267.6495 6390.1211 8289421
3346.7903 1300.2075 6554.2432 5460320
3441.2097 1321.5513 6661.8354 2958649
3470.3442 1317.6235 6642.0356 1642784
3501.916 1314.6987 6627.2925 1116435
3464.0972 1286.0771 6483.0132 2692908
3421.428 1256.3025 6332.9214 5124168
3479.0161 1263.5874 6369.6445 7031391
3495.6831 1256.0131 6331.4624 7031634
3570.2578 1269.1851 6397.8613 6308679
3583.6108 1260.545 6354.3081 8151141
3664.6633 1275.6509 6430.4551 9730691
3754.9421 1293.6243 6521.0576 9666439
3788.041 1291.733 6511.5239 10326681
3851.8674 1300.2524 6554.4697 11117738
3908.8059 1306.2997 6584.9536 11710646
3919.0747 1296.785 6536.9907 12237246
4049.0938 1326.6929 6687.7534 13092555
4068.8765 1320.252 6655.2856 13488335
4178.2466 1342.7245 6768.5679 13553872
4227.6323 1345.6764 6783.4482 13422541
4261.1675 1343.5748 6772.8545 13028814
4215.0371 1316.6278 6637.0166 12766157
4331.6685 1340.55 6757.6069 12503757
4414.02 1353.5225 6822.9995 12307405
4549.5063 1382.4047 6968.5923 12307406
4643.8857 1398.3889 7049.168 12308176
4796.4194 1431.4438 7215.7949 12242384
4862.8813 1438.4542 7251.1343 11979212
5029.0132 1474.5662 7433.1714 11913418
4714.1772 1370.2504 6907.3232 11979212
4492.9731 1294.7114 6526.5376 12045005
4604.1489 1315.4246 6630.9512 11979468
4654.001 1318.4148 6646.0249 11914186
4715.2383 1324.553 6676.9668 12111308
4769.3823 1328.6132 6697.4341 12505036
4821.4106 1332.0219 6714.6167 12636107
4900.0806 1342.6747 6768.3169 12898250
4961.6841 1348.5162 6797.7637 13094602
4985.7178 1344.1349 6775.6777 13356747
4931.2495 1318.8289 6648.1118 13553613
5094.9653 1351.8132 6814.3833 13553612
5147.709 1355.0669 6830.7852 13553356
5176.9194 1352.1233 6815.9463 13553356
5198.251 1347.1832 6791.0444 13619149
5309.0337 1365.3234 6882.4873 13553613
5344.8403 1364.0524 6876.0801 13553613
5363.8267 1358.5404 6848.2944 13553613
5444.6777 1368.6624 6899.3188 13684941
5479.1792 1367.0692 6891.2881 13619149
5526.7959 1368.7478 6899.749 13684684
5692.998 1399.5544 7055.043 13421514
5688.6182 1388.2821 6998.2202 13421513
5766.9375 1397.2091 7043.2207 13421516
5816.3765 1399.061 7052.5562 13553102
5866.5562 1401.0637 7062.6509 13289674
5944.3008 1409.5742 7105.5518 13552846
6040.1304 1422.2234 7169.3154 13618639
6129.6934 1433.2305 7224.8018 13487054
6108.3091 1418.3236 7149.6567 13091782
6139.0493 1415.6417 7136.1377 12302779
6196.6865 1419.1565 7153.8555 12697537
6198.2061 1409.8588 7106.9863 11645107
6403.709 1446.772 7293.063 10789801
6359.2334 1427.0919 7193.8574 11053486
6405.5015 1427.9025 7197.9434 10658471
6401.0947 1417.4806 7145.4072 10395555
6493.46 1428.4844 7200.8765 10395556
6600.6431 1442.5829 7271.9463 10526882
6627.0581 1438.9612 7253.6895 10790311
6650.3677 1434.7159 7232.2896 10724773
6774.1904 1452.0707 7319.7734 10526879
6839.8188 1456.8097 7343.6626 10592417
6803.1099 1439.8296 7258.0674 10658207
6803.9194 1430.9537 7213.3247 9934742
6897.3306 1441.5425 7266.7017 10789538
6941.8535 1441.8455 7268.229 11315882
0 0 0 0
0 0 0 0
0 0 0 0
0 0 0 0
0 0 0 0
0 0 0 0
0 0 0 0
0 0 0 0
-2598.917 597.96344 2926.8508 6711639
-2599.2515 602.05853 2946.8953 6909017
-2592.2068 604.48822 2958.7878 7040854
-2579.4807 605.61719 2964.3137 3092774
-2561.8438 605.60065 2964.2327 3290924
-2536.5247 603.75537 2955.2007 3225385
-2546.3989 610.31952 2987.3303 1842964
-2516.0942 607.2782 2972.4438 3552291
-2507.6489 609.50708 2983.3535 5657406
-2502.4709 612.56738 2998.3328 7564887
-2491.4841 614.23938 3006.5166 7762008
-2500.7056 620.95337 3039.3799 6840903
-2463.0869 616.04956 3015.377 5854263
-2433.9883 613.22046 3001.5295 6907205
-2396.3037 608.17078 2976.8127 7499595
-2403.4153 614.49945 3007.7898 5985584
-2368.0566 609.98297 2985.6831 6840894
-2337.6917 606.69446 2969.5867 7828048
-2330.2617 609.35345 2982.6018 7499083
-2315.8691 610.21857 2986.8359 7828304
-2331.7673 619.13983 3030.5029 5591340
-2328.3528 623.0318 3049.553 7302987
-2326.4204 627.38434 3070.8574 9474157
-2307.7742 627.2627 3070.262 5000237
-2294.8022 628.6936 3077.2659 7697745
-2246.543 620.40265 3036.6838 8158306
-2289.5706 637.39093 3119.8367 8553581
-2274.7866 638.43066 3124.9258 8158824
-2252.0415 637.23486 3119.0728 6974297
-2212.4412 631.21045 3089.585 7106397
-2213.2292 636.70453 3116.4768 7501157
-2195.1223 636.80951 3116.9907 4408631
-2212.1528 647.19623 3167.8306 4540218
-2205.7668 650.85126 3185.7209 6513496
-2176.801 647.84943 3171.0278 2171419
-2168.2734 650.93091 3186.1106 1381647
-2144.552 649.46521 3178.9365 196608
-2126.5198 649.71167 3180.1431 4276023
-2097.876 646.69147 3165.3601 7237464
-2080.6028 647.1535 3167.6213 9409145
-2106.6965 661.23566 3236.5493 8290659
-2101.4224 665.6405 3258.1099 6446913
-2062.5715 659.39294 3227.5298 7170117
-2024.2463 653.19794 3197.207 4997915
-2006.9847 653.74701 3199.8948 4404498
-1959.9078 644.50201 3154.6433 9013608
-1945.2682 645.84851 3161.2339 7368528
-1946.2825 652.46893 3193.6389 5395254
-1932.8926 654.34314 3202.8127 10592394
-1918.478 655.90417 3210.4534 4408367
-1908.632 659.07416 3225.9692 4934717
-1891.0286 659.60223 3228.5544 7171675
-1886.5902 664.78033 3253.8994 7961963
-1876.5934 668.08643 3270.0818 7237984
-1862.99 670.16412 3280.2515 5198149
-1879.9717 683.40381 3345.0559 7434857
-1851.0393 680.05737 3328.676 6645342
-1818.2711 675.21429 3304.9707 5066053
-1860.3524 698.36377 3418.2803 1908246
-1854.7888 703.94043 3445.5764 2302238
-1842.8621 707.19952 3461.5286 2894630
-1812.6864 703.45001 3443.1758 2828836
-1839.5009 721.98303 3533.8896 197120
-1823.5031 723.94617 3543.4983 1052169
-1809.8829 726.90997 3558.0054 4275765
-1747.6241 710.17853 3476.1099 1842192
-1696.6904 697.7049 3415.0552 10856078
-1677.3668 698.08563 3416.9187 8948079
-1690.0693 711.96704 3484.8643 9145198
-1638.1451 698.63019 3419.5845 9671283
-1614.7422 697.27527 3412.9521 7894102
-1607.6544 703.02051 3441.0737 6183740
-1585.6254 702.29572 3437.5259 9341547
-1565.1184 702.23486 3437.2283 5394220
-1551.9685 705.51703 3453.2932 5854514
-1534.8019 707.03644 3460.7305 8880996
-1527.416 713.16376 3490.7217 8421477
-1534.4751 726.29639 3555.0022 6579792
-1516.182 727.62799 3561.5198 6316366
-1479.9183 720.2511 3525.4124 7040092
-1465.2633 723.3302 3540.4834 7303267
-1462.3251 732.36676 3584.7146 6711387
-1449.0338 736.40826 3604.4966 6514264
-1452.4871 749.20776 3667.1462 6776666
-1413.4457 740.14392 3622.7815 1908245
-1429.5931 760.14563 3720.6838 4802612
-1365.1355 737.24298 3608.5825 8749936
-1356.4647 744.21887 3642.7271 9736829
-1347.416 751.20947 3676.9441 11117704
-1314.5303 744.92194 3646.1685 8288597
-1314.8993 757.58398 3708.1455 6973515
-1279.2916 749.59613 3669.0474 4275747
-1247.5815 743.65533 3639.9688 8420187
-1233.1626 747.99371 3661.2039 7038788
-1200.2908 741.09406 3627.4321 10197112
-1173.9706 738.06171 3612.5896 7104842
-1160.7053 743.27667 3638.1155 5723189
-1147.1006 748.46753 3663.5232 7763289
-1129.6614 751.30853 3677.429 6776145
-1098.9293 745.24652 3647.7573 4013347
-1082.9515 749.14783 3666.853 8026468
-1074.2842 758.36957 3711.9907 7698017
-1039.3433 749.04181 3666.334 5198655
-1031.256 759.08203 3715.4778 5000771
-996.7608 749.698 3669.5459 256
-990.50415 761.60834 3727.8433 263171
-965.88635 759.62195 3718.1204 65536
-951.60168 765.85901 3748.6489 394240
0 0 0 0
0 0 0 0
0 0 0 0
-905.66614 803.96423 3935.1628 3420963
-867.17517 790.14154 3867.5046 1907992
0 0 0 0
0 0 0 0
0 0 0 0
0 0 0 0
0 0 0 0
0 0 0 0
-713.52313 797.72791 3904.6377 4803140
-720.06451 832.02393 4072.5066 9540751
-685.86456 819.99023 4013.605 7567218
-685.68524 849.22656 4156.708 9014407
-673.29944 864.96075 4233.7222 5461070
-635.67371 848.23315 4151.8457 5986896
-595.31268 826.36163 4044.7913 4078379
-562.90686 814.16089 3985.0723 3552029
-536.37524 809.75983 3963.5303 1380613
-515.04767 813.17181 3980.2312 4012581
-489.50391 809.93536 3964.3896 6446914
-474.41092 824.53619 4035.8562 7763284
-449.05145 821.89667 4022.9368 5723964
-423.54355 818.67432 4007.1641 6907983
-399.88068 818.84717 4008.0105 6118472
-375.84503 818.23041 4004.9912 7895148
-354.83719 824.56647 4036.0044 7303274
-339.70792 846.46625 4143.1973 8750720
-322.75317 866.87543 4243.0942 8092791
-309.88501 902.63702 4418.1362 8158842
-294.12766 935.80701 4580.4937 5263956
-268.77628 942.09381 4611.2656 8158341
-243.0779 948.44977 4642.376 5329244
-220.94243 972.10419 4758.1572 5921896
-193.90608 977.96222 4786.8306 6316654
-168.26237 994.05548 4865.6021 5659236
-138.67166 988.66467 4839.2158 5856869
-110.2159 990.66425 4849.0029 2961459
-81.928902 996.12628 4875.7378 7566456
-53.503155 1004.9337 4918.8477 7303540
-24.03883 991.96863 4855.3877 7172471
4.6303954 970.00635 4747.8892 7172216
33.248306 984.24261 4817.5713 6513263
62.072205 988.60559 4838.9268 2959671
91.400116 995.70197 4873.6611 6447984
122.77097 1016.3018 4974.4912 7237501
153.53973 1024.9053 5016.6025 6118506
189.30051 1058.6345 5181.6968 7368572
222.30376 1069.6794 5235.7588 3421761
250.50307 1057.7345 5177.292 4013641
279.50607 1051.4198 5146.3828 4474196
312.66605 1060.4462 5190.5649 4342353
341.13544 1053.3719 5155.9385 4606038
368.61838 1044.6652 5113.3213 2303023
395.32657 1035.2524 5067.2485 3816523
429.15762 1044.5044 5112.5347 6053739
463.20703 1053.033 5154.2788 8159116
494.25601 1054.1068 5159.5356 7830407
531.21143 1066.9187 5222.2461 7106686
559.09552 1061.1035 5193.7822 7830665
587.06171 1056.0427 5169.0112 4738137
615.84167 1052.8752 5153.5073 5132380
660.88062 1076.491 5269.0991 4408914
686.31042 1067.476 5224.9736 4210761
708.42523 1054.3058 5160.5093 4802896
741.04706 1057.2155 5174.7515 3223862
779.6037 1068.0244 5227.6582 4408136
810.37439 1067.7483 5226.3066 3420986
845.82776 1073.4354 5254.1431 1908005
867.80902 1062.2284 5199.2876 2368047
909.01324 1074.5123 5259.4146 3618369
949.66986 1085.3563 5312.4922 2631729
1007.0571 1114.0118 5452.7524 4869210
1030.2242 1104.2079 5404.7651 7632262
1054.2721 1095.9108 5364.1528 5658473
1085.8593 1095.7068 5363.1548 3289926
1133.0336 1110.7959 5437.0112 4211024
1179.8864 1124.744 5505.2832 5000280
1158.1499 1074.317 5258.458 4408138
1252.4276 1131.3293 5537.5161 3092274
1251.5718 1101.6895 5392.438 1973539
1267.0107 1087.5118 5323.043 2565676
1297.4304 1086.569 5318.4277 1512731
1357.0533 1109.548 5430.9028 1249816
1429.7362 1141.8927 5589.2207 1842464
1481.6288 1156.5441 5660.9351 6119018
1517.3304 1158.1881 5668.9819 4737622
1553.1941 1159.8818 5677.272 5856103
1585.975 1159.2505 5674.1816 5395553
1601.3774 1146.2064 5610.335 4737110
1628.476 1141.8943 5589.2285 3224640
1669.5892 1147.3855 5616.1064 6185070
1703.6812 1147.931 5618.7764 5856360
1758.9829 1162.4727 5689.9536 6382448
1807.0258 1171.7604 5735.4141 5856615
1839.5087 1170.8016 5730.7212 7567235
1875.1447 1171.8481 5735.8433 8290957
1884.8705 1156.9534 5662.938 6185069
1936.6724 1167.9547 5716.7866 4079433
1954.8148 1158.6277 5671.1333 5000278
1985.1027 1156.6929 5661.6631 6316908
2015.6172 1154.9521 5653.1431 4277583
2060.3345 1161.2737 5684.085 6316653
2057.8213 1141.1993 5585.8267 1776680
2100.3374 1146.3369 5610.9741 7303804
2179.2571 1170.8735 5731.0732 4934744
2197.0664 1162.3273 5689.2417 5197659
2219.3149 1156.3524 5659.9971 6184555
2331.498 1196.7174 5857.5713 7895433
2391.3027 1209.4075 5919.6855 5198176
2398.2427 1195.3805 5851.0278 8026765
2403.0298 1180.6959 5779.1509 6908540
2424.2686 1174.3936 5748.3027 6447729
2521.2056 1204.4285 5895.3145 6907763
2548.3616 1200.7623 5877.3696 4802386
2583.9487 1201.114 5879.0908 5591902
2639.6433 1210.6785 5925.9067 1841699
2726.8125 1234.2384 6041.2256 3026240
2756.9045 1231.6876 6028.7397 5658729
2771.7693 1222.4861 5983.7007 5001051
2861.0911 1245.9414 6098.5078 2960697
2914.0967 1253.1938 6134.0063 4342093
2981.7109 1266.4727 6199.002 6447731
2987.9094 1253.6595 6136.2861 8487315
3043.4976 1261.6282 6175.29 7697793
3045.3052 1247.3787 6105.5425 9605533
3111.0276 1259.3362 6164.0713 11447484
3176.1165 1270.7628 6220.001 11907523
3366.3281 1331.4143 6516.8721 12893135
3423.9624 1338.8491 6553.2632 13880791
3435.8833 1328.4427 6502.3271 14275803
3395.2861 1298.1869 6354.2339 14604255
3248.53 1228.4503 6012.894 14142935
3272.8953 1224.2352 5992.2627 13682641
3319.4731 1228.3303 6012.3066 13880531
3131.4766 1146.4587 5611.5703 13815250
3105.9553 1125.1663 5507.3496 13684690
3375.0969 1209.9514 5922.3477 13684687
3471.8706 1231.8346 6029.459 13684687
3312.427 1163.2909 5693.958 13684685
3468.8579 1205.9429 5902.7271 13750734
3462.6145 1191.7545 5833.2793 13816271
3508.0964 1195.4731 5851.481 13750735
3564.9143 1202.9445 5888.0508 13685199
3611.261 1206.7716 5906.7832 13619406
3643.2966 1205.7888 5901.9731 13684942
3668.386 1202.5479 5886.1094 13685199
3745.8501 1216.3751 5953.79 13685199
3826.0823 1230.835 6024.5664 13750734
3910.9128 1246.4932 6101.2085 13684942
3931.74 1241.6519 6077.5117 13619405
4001.8936 1252.3346 6129.8008 13685197
4091.2114 1268.7683 6210.2383 13619404
4143.209 1273.4384 6233.0972 13553867
4196.5552 1278.4366 6257.5625 13357515
4297.3096 1297.6633 6351.6714 13357517
4312.9648 1291.0819 6319.4565 13160654
4400.1421 1305.8395 6391.6909 12897485
4449.0322 1309.0793 6407.5493 12700108
4510.2773 1315.8693 6440.7837 12240074
4469.9482 1293.1595 6329.6265 11516608
4612.8257 1323.3887 6477.5889 12437454
4701.0947 1337.5812 6547.0566 12305609
4765.0952 1344.6929 6581.8667 12502471
4658.7891 1304.0193 6382.7812 12501700
4893.8296 1358.7761 6650.7998 12566720
4845.3652 1334.5717 6532.3262 12171447
4874.4434 1331.9392 6519.4409 12237753
5032.646 1364.3539 6678.1016 12500668
5057.3511 1360.3539 6658.5225 13158598
5100.7437 1361.4034 6663.6602 13355978
5162.562 1367.3173 6692.606 13224647
5147.2314 1352.8634 6621.8584 12960961
5112.0864 1333.4597 6526.8838 12040117
5117.3779 1324.816 6484.5757 11710893
5223.4668 1342.2017 6569.6729 10723999
5277.498 1346.0525 6588.5215 9605519
5305.6968 1343.3064 6575.0801 10066070
5235.8525 1315.9585 6441.2207 10723746
5386.3765 1343.9924 6578.438 10723745
5441.9463 1348.1007 6598.5469 9605520
5691.0781 1399.7583 6851.3955 9012872
5740.541 1401.9221 6861.9863 7565682
5866.0332 1422.4923 6962.6714 9078920
5934.8374 1429.1244 6995.1333 9407630
5937.4146 1419.8275 6949.6279 9671059
5816.0366 1381.2213 6760.6621 9802644
5946.5581 1402.5563 6865.0908 8881798
6034.1938 1413.5552 6918.9268 9078920
6050.1143 1407.719 6890.3604 9671568
6236.5156 1441.3622 7055.0337 9802898
6092.4941 1398.6996 6846.2129 10197655
6167.9829 1406.6626 6885.1895 10328983
6211.0469 1407.1748 6887.6968 10460827
6260.9375 1409.2168 6897.6919 10592412
6293.5342 1407.3651 6888.6279 10329498
6319.2021 1403.9979 6872.1465 10592411
6414.2412 1415.988 6930.8345 9145222
6523.4497 1430.9333 7003.9878 10395288
6585.7334 1435.4619 7026.1538 10461338
6623.6499 1434.6559 7022.208 9934737
6689.1626 1439.7997 7047.3857 10263187
6763.9893 1446.8721 7082.0029 11184801
0 0 0 0
0 0 0 0
0 0 0 0
0 0 0 0
0 0 0 0
0 0 0 0
0 0 0 0
0 0 0 0
-2552.4731 604.31274 2874.5469 5198147
-2576.0505 613.99261 2920.5911 5132353
-2562.6714 614.9353 2925.0754 6711385
-2576.3098 622.41827 2960.6697 6843231
-2578.2012 627.1463 2983.1597 5330247
-2528.5378 619.31232 2945.8958 3553579
-2491.9714 614.59955 2923.4783 9606530
-2488.5576 618.05463 2939.9131 4736819
-2522.5955 630.92535 3001.1355 6118464
-2471.3044 622.48578 2960.9907 8157023
-2462.5354 624.71277 2971.5837 7893847
-2426.5588 620.0199 2949.2612 4538148
-2413.4355 621.14062 2954.5923 6117435
-2422.4883 628.02686 2987.3481 5788211
-2394.6987 625.39282 2974.8188 5919794
-2386.7156 627.93073 2986.8909 4078101
