# .PCD v0.7 - Point Cloud Data file format
VERSION 0.7
FIELDS x y z rgb
SIZE 4 4 4 4
TYPE F F F U
COUNT 1 1 1 1
WIDTH 1311
HEIGHT 1
VIEWPOINT 0 0 0 1 0 0 0
POINTS 1311
DATA ascii
-1673.7174 640.07593 2668.5403 5592649
-1661.4259 641.43604 2674.2107 6118224
-1656.0801 645.52966 2691.2776 6645337
-1640.8651 645.8186 2692.4822 6974043
-1639.7017 651.698 2716.9939 7631971
-1611.0123 646.64532 2695.9287 6053195
-1583.2682 641.87469 2676.0396 7631711
-1573.2078 644.24915 2685.939 4144427
-1570.2457 649.60876 2708.2837 6117959
-1562.1848 652.94794 2722.2051 6381642
-1558.1661 658.06396 2743.5342 7498840
-1509.5546 644.25629 2685.9685 5852988
-1481.6022 639.06525 2664.3267 3681569
-1470.7592 641.2218 2673.3174 4342576
-1478.8665 651.77722 2717.324 986630
-1471.0032 655.44879 2732.6313 7039324
-1467.2793 661.06714 2756.0547 7105117
-1422.2854 648.00885 2701.6135 7499875
-1398.4404 644.39874 2686.5625 6512978
-1385.6882 645.87579 2692.7205 6512719
-1392.2662 656.50208 2737.0227 6315338
-1380.9834 658.85773 2746.8435 5328443
-1365.9189 659.44379 2749.2869 5262906
-1347.5464 658.42761 2745.0503 6249801
-1348.8489 667.11755 2781.2795 6973780
-1326.0708 663.96527 2768.1375 6315851
-1317.6677 668.02185 2785.0498 5657920
-1279.4138 656.85583 2738.4973 6315848
-1249.9816 649.99005 2709.8733 5263161
-1231.1919 648.55176 2703.877 5197368
-1196.5845 638.63342 2662.5264 4539182
0 0 0 0
0 0 0 0
0 0 0 0
0 0 0 0
0 0 0 0
0 0 0 0
0 0 0 0
-668.0752 398.6109 1661.8486 514
-660.89978 400.22968 1668.5974 264198
-655.53186 403.00885 1680.184 2698278
0 0 0 0
0 0 0 0
-1049.293 675.88464 2817.8306 5855554
-1028.2461 673.03876 2805.9658 3947046
-1017.5581 676.99127 2822.4441 4801841
-1003.2274 678.61176 2829.2 3880481
-990.94464 681.69617 2842.0593 6117442
-976.52075 683.38892 2849.1165 5788992
-963.82953 686.37506 2861.5659 4473390
-938.28918 680.15405 2835.6299 5789249
-945.7262 698.04688 2910.2271 3880996
-914.45367 687.50195 2866.2642 7104597
-892.31982 683.55853 2849.8237 6973524
-878.33276 685.82416 2859.2693 6381130
-861.67883 686.0556 2860.2341 6184007
-855.1499 694.51953 2895.521 6644557
-843.92358 699.43689 2916.022 8026212
-812.69568 687.63617 2866.8237 5723457
-804.04053 694.8385 2896.8508 8092005
-782.6001 691.06512 2881.1194 7171159
-771.23175 696.216 2902.5938 7500382
-741.42999 684.58173 2854.0894 5657921
-738.02118 697.34247 2907.2903 6710609
-709.80249 686.71051 2862.9646 8750194
-691.31372 685.20172 2856.6743 6579026
-687.81628 698.84906 2913.5713 8750196
-669.67883 697.94122 2909.7866 8355182
-649.62329 694.93365 2897.2476 6776148
-637.48212 700.45892 2920.283 6512718
-621.91272 702.42053 2928.4612 3946790
-604.18036 701.98175 2926.6318 3025435
-585.93042 700.89789 2922.1133 3880736
-570.7522 703.53436 2933.1047 6908500
-554.43262 704.88531 2938.7371 8289896
-537.51678 705.54126 2941.4719 8355433
-516.77344 701.04883 2922.7424 4276269
-506.2515 710.59192 2962.5286 5394751
-485.92401 706.56293 2945.7312 7829606
-470.49304 709.61865 2958.4709 6579540
-450.83615 706.29065 2944.5959 6908506
-442.09073 720.47699 3003.7405 7105886
-422.23993 716.99585 2989.2273 7829611
-407.33395 721.97443 3009.9834 7763818
-395.30643 732.74438 3054.8845 6645336
-373.53699 725.62384 3025.198 7302753
-348.70163 711.52917 2966.436 7499619
-329.71521 708.50641 2953.8337 6183758
-317.32483 720.11328 3002.2241 2762779
-297.5932 715.44971 2982.7812 1709836
-278.15985 710.95966 2964.0615 6118222
-258.3183 704.75049 2938.1748 3750185
-240.32622 703.0542 2931.103 5592381
-223.92981 706.12537 2943.907 7960678
-209.03532 714.85168 2980.2878 7039836
-191.55557 715.5318 2983.1233 9013885
-174.16748 716.72736 2988.1079 7895405
-156.61801 717.45435 2991.1387 7040094
-140.72926 726.9455 3030.708 6119241
-120.96818 716.28442 2986.2612 7368539
-103.93818 720.91223 3005.5549 6117959
-86.527695 724.26941 3019.5513 4998965
-68.967819 727.8006 3034.2732 5328699
-51.922192 741.16339 3089.9839 6249547
-33.5187 739.14368 3081.5635 6315342
-14.678695 711.14111 2964.8181 7631457
2.9908757 735.59467 3066.7676 7104601
20.922262 727.15161 3031.5676 8354668
38.616482 722.07501 3010.4026 7499617
56.238472 719.28296 2998.7625 6052427
75.37397 732.5412 3054.0374 8552563
94.477478 740.41449 3086.8618 8618357
111.75354 733.73499 3059.0144 7631722
126.0843 712.28137 2969.572 8092528
151.37079 750.3941 3128.4678 7960941
173.68628 767.06836 3197.9844 6381911
192.54755 766.70734 3196.4792 8553078
213.33441 773.39172 3224.3472 8618870
236.29236 786.20081 3277.7495 9342336
247.20036 760.01648 3168.5845 7236703
263.22537 752.15082 3135.7917 6710359
287.53082 767.42316 3199.4636 7894375
307.6647 770.36066 3211.7102 8223342
324.87091 766.05237 3193.7485 5920585
347.71768 774.7868 3230.1633 4603954
361.33597 763.11969 3181.522 7236696
377.26941 757.25677 3157.0789 7039318
396.37354 758.01141 3160.2251 6710611
411.50314 751.44012 3132.8289 8487024
432.5076 755.70111 3150.593 7698022
453.53152 759.64197 3167.0229 7105885
477.36053 767.78131 3200.9568 8224367
501.30563 775.47809 3233.0454 7960683
511.10986 761.53864 3174.9304 9079164
528.05878 758.85645 3163.748 8618356
549.34753 762.3811 3178.4426 6118478
565.46234 758.72968 3163.2197 7039067
580.40527 753.79059 3142.6282 8025958
602.88971 758.64856 3162.8813 7697252
620.60199 757.38947 3157.6323 7696995
641.62775 760.1297 3169.0564 6775123
662.51013 762.54889 3179.1423 8420716
687.10657 768.99109 3206.0005 8091494
706.03064 768.909 3205.6582 7236442
720.97241 764.60785 3187.7263 7696993
748.18329 773.20587 3223.5723 6644305
760.71722 766.58557 3195.9714 8947063
777.49646 764.46106 3187.1143 6973271
792.66479 760.89099 3172.2302 7762533
825.54865 774.09766 3227.2903 7367775
852.57983 781.34271 3257.4956 7302495
882.11505 790.5108 3295.7185 6907480
906.22449 794.5249 3312.4534 8486769
929.26819 797.4541 3324.6655 4341552
950.64606 798.86188 3330.5347 5591872
972.12592 800.2962 3336.5146 5262906
990.47675 799.14886 3331.731 6841942
1011.8263 800.41852 3337.0244 6908505
1031.926 800.66974 3338.072 5855818
1038.3218 790.4787 3295.5842 7960939
1068.0682 798.11267 3327.4111 6644567
1086.3636 797.06818 3323.0566 6710360
1116.5129 804.60327 3354.4712 6776153
1137.5388 805.41504 3357.8557 6973532
1163.5673 809.68011 3375.637 6381394
1195.8301 818.06586 3410.5979 7565670
1210.7778 814.52448 3395.8337 7368036
1199.7174 793.88849 3309.8003 6841692
1220.7139 794.78815 3313.551 6644313
1247.3779 799.29114 3332.3245 7368807
1263.1949 796.81152 3321.9863 8026738
1307.1786 811.90253 3384.9023 8091760
1328.5095 812.68011 3388.1445 8552309
1354.4337 816.20264 3402.8301 6250069
1395.8097 828.79663 3455.3359 6776927
1437.8824 841.4342 3508.0232 6184280
1459.1539 841.7124 3509.1829 3750453
1490.1899 847.53619 3533.4629 5856084
1486.8927 833.94244 3476.7891 5461070
1505.5988 832.8924 3472.4114 5789779
1530.3832 835.18793 3481.9814 6184792
1525.785 821.6004 3425.334 5132105
1557.1451 827.47827 3449.8391 592647
1585.7374 831.75201 3467.6567 2434851
1584.4768 820.45819 3420.5718 5066574
1603.4135 819.77588 3417.7273 1645343
1620.9421 818.39978 3411.9902 6775664
1618.3303 807.0141 3364.5222 12105413
1683.5272 829.30835 3457.469 1249563
1707.2539 830.88373 3464.0369 9480376
1691.2224 813.302 3390.7373 13357016
1732.0042 823.13379 3431.7268 10393003
1709.957 803.22443 3348.7227 15
1740.4421 808.16504 3369.3206 5
1743.8584 800.56689 3337.6428 4277055
1801.985 817.97363 3410.2136 7105634
1853.7534 832.14026 3469.2756 7499875
1860.473 825.99567 3443.6582 6249809
1892.8135 831.23584 3465.5051 7368546
1925.6332 836.57184 3487.7512 7893864
1943.849 835.51733 3483.355 6512980
1945.1395 827.2865 3449.0398 7105117
1972.4669 830.18542 3461.1257 8026218
2029.4351 845.37164 3524.4387 7499618
2026.9457 835.73346 3484.2561 6314833
2036.5543 831.22754 3465.4705 6380625
2054.7134 830.26672 3461.4646 6051660
2086.6355 834.83112 3480.4941 7367777
2109.6536 835.77869 3484.4446 7368035
2174.9021 853.27618 3557.3933 7104864
2209.9792 858.71423 3580.0652 6776412
2252.135 866.77313 3613.6633 6579548
2297.4087 875.86896 3651.585 6711135
2317.6306 875.33337 3649.3518 7303015
2346.0068 877.85895 3659.8813 6579291
2305.6279 854.84619 3563.939 7500393
2375.6128 872.79889 3638.7854 7170916
2409.7651 877.38214 3657.8936 5789004
2442.2927 881.29742 3674.2168 6907485
2483.459 888.23328 3703.1328 5459782
2480.012 879.2309 3665.6011 5328195
2533.0488 890.23602 3711.4827 3946541
2508.5178 874.02527 3643.8982 5920332
2571.269 888.24286 3703.1729 6117711
2617.0342 896.40161 3737.1875 5920331
2672.8323 907.83105 3784.8379 6315088
2676.1243 901.38489 3757.9636 6051916
2690.2651 898.66937 3746.6421 6512468
2769.2664 917.487 3825.0947 5131071
2789.6531 916.73724 3821.9688 6315090
2825.3281 920.98315 3839.6704 6315347
2829.9231 915.11084 3815.1882 6446935
2849.4402 914.11877 3811.052 7104864
2898.1145 922.42249 3845.6711 8025710
2966.9631 936.96771 3906.3118 6775897
2946.9595 923.44543 3849.936 6841434
2927.4067 910.27106 3795.0107 5986126
2987.0994 921.75092 3842.8713 6644055
3031.4285 928.35211 3870.3926 6249298
3116.6826 947.29303 3949.3591 6184016
3149.9131 950.25726 3961.717 7039325
3186.7791 954.26617 3978.4307 6776154
3193.4404 949.23816 3957.4683 6381395
3191.1958 941.6554 3925.855 5394501
3132.9849 917.78735 3826.3469 5986380
3253.0122 946.10089 3944.3889 6512981
3247.3267 937.70917 3909.4031 7434339
3296.614 945.19812 3940.625 4474167
3277.1799 933.0166 3889.8394 5657930
3299.6543 932.85339 3889.1587 7565929
3400.46 954.6839 3980.1721 6249812
3363.1746 937.71149 3909.4126 7433829
3360.8362 930.64856 3879.9666 7894636
3338.6777 918.23047 3828.1943 7104864
3413.1396 932.37402 3887.1599 5130817
3487.0439 946.17664 3944.7046 5525574
3498.2056 942.88403 3930.9775 5525575
3521.4541 942.87146 3930.925 5657161
3543.907 942.64734 3929.9907 6710106
3634.3977 960.40533 4004.0256 7039071
3652.7197 958.98596 3998.1079 6183762
3657.8037 954.13165 3977.8696 6907485
3639.1812 943.19525 3932.2751 6381141
3717.0854 957.25659 3990.8979 4538937
3724.1545 953.01331 3973.2075 6183761
3736.6079 950.19244 3961.447 6117969
3788.2815 957.31805 3991.1543 5789004
3828.2021 961.40363 4008.1875 6249555
0 0 0 0
0 0 0 0
0 0 0 0
0 0 0 0
0 0 0 0
0 0 0 0
0 0 0 0
0 0 0 0
0 0 0 0
-2251.7446 627.46997 2552.9102 9807536
-2226.3354 624.586 2541.1763 9675950
-2207.123 623.41296 2536.4038 9675950
-2185.6101 621.56964 2528.9043 9610157
-2169.1636 621.15161 2527.2034 9544364
-2175.9583 627.42938 2552.7449 9544364
-2112.7651 613.47296 2495.9622 9675953
-2115.3606 618.55713 2516.6475 9675696
-2094.8945 616.92218 2509.9956 9807284
-2067.8433 613.31073 2495.302 9938870
-2064.4912 616.72687 2509.2009 10136249
-2039.9154 613.8064 2497.3188 10070713
-2015.8589 611.00067 2485.9036 10070457
-2007.379 612.90961 2493.6702 10004663
-1965.4822 604.56805 2459.7319 9741491
-1921.535 595.46655 2422.7017 9149867
-1920.403 599.59576 2439.5017 10070969
-1934.776 608.66547 2476.4026 10400190
-1924.1096 609.9364 2481.5735 10334143
-1910.8047 610.38416 2483.395 10333885
-1898.5917 611.19025 2486.6748 10531266
-1882.3694 610.70819 2484.7136 10202299
-1893.8542 619.27863 2519.583 10465215
-1878.4496 619.12274 2518.9487 10399677
-1882.8441 625.54224 2545.0669 9543852
-1871.3528 626.745 2549.9604 10464949
-1864.292 629.46332 2561.0203 7832450
-1829.2157 622.68939 2533.46 5330769
-1815.738 623.21661 2535.605 5724756
-1817.2347 628.93524 2558.8716 5987152
-1805.2401 630.04144 2563.3726 5855565
-1789.844 629.96936 2563.0791 5328449
-1795.7385 637.45374 2593.5298 5065277
-1784.0319 638.76532 2598.8662 5855563
-1755.2899 633.94714 2579.2632 5855051
-1753.0702 638.70746 2598.6306 3552296
-1703.4061 626.11316 2547.3899 5658189
-1687.7585 625.90875 2546.5581 6052690
-1685.7926 630.82031 2566.5413 6118739
-1672.2419 631.44684 2569.0903 3487276
-1662.3302 633.47162 2577.3281 5395271
-1646.2303 633.15387 2576.0356 2171159
-1645.4083 638.76117 2598.8491 8487538
-1653.153 647.83154 2635.7527 7632743
-1631.1809 645.3186 2625.5286 2631712
-1617.2775 645.98004 2628.2197 7040094
-1598.0204 644.49524 2622.1787 7434849
-1601.5165 652.2478 2653.7207 6447954
-1585.8722 652.28168 2653.8584 8487794
-1563.9473 649.70703 2643.3833 6316367
-1553.6499 651.95953 2652.5479 7105111
-1540.8606 653.20178 2657.6018 6973011
-1544.363 661.44727 2691.1494 4274725
-1518.0906 656.97937 2672.9714 6115903
-1487.9462 650.72382 2647.5203 2957582
-1452.9301 642.18182 2612.7664 5459001
-1428.1853 638.04443 2595.9331 7105366
-1447.5289 653.72803 2659.7432 5789762
-1431.0216 653.38782 2658.3589 5526339
-1423.2456 657.07104 2673.3445 6447185
-1366.1628 637.81738 2595.0095 6776150
-1310.0757 618.59558 2516.804 5855045
-1316.3132 628.69849 2557.9084 7038804
-1322.5549 639.03888 2599.979 5788480
-1335.6831 652.98962 2656.7388 4604206
-1318.2061 652.13251 2653.2515 1906697
-1316.3102 659.05591 2681.4199 4999475
-1327.04 672.54718 2736.3103 5459514
-1315.0482 674.71454 2745.1282 5328697
-1258.6841 653.8847 2660.3806 4867889
-1246.2344 655.62939 2667.479 5262391
-1239.5762 660.50488 2687.3152 5855040
-1237.7466 668.11365 2718.272 4934195
-1216.0377 665.05115 2705.812 6381896
0 0 0 0
0 0 0 0
0 0 0 0
0 0 0 0
0 0 0 0
0 0 0 0
0 0 0 0
-668.31604 408.60666 1662.4478 770
-661.57562 410.53754 1670.3037 2962737
-649.83954 409.37994 1665.594 3554093
0 0 0 0
0 0 0 0
-1038.3922 685.38867 2788.5569 5394747
-1020.3416 684.36584 2784.3953 2762774
-1001.8618 683.01678 2778.9065 6315592
-991.23907 687.0686 2795.3918 6052419
-979.63239 690.56458 2809.6155 4538412
-978.01178 701.34265 2853.4668 1315073
-953.98987 696.15308 2832.3525 5262386
-942.08588 699.77875 2847.104 5789502
-928.98151 702.62872 2858.6995 4802355
-899.54297 693.00098 2819.5281 7631710
-870.36572 683.21381 2779.7083 7170903
-868.20227 694.66327 2826.2913 5526075
-860.49384 702.03925 2856.301 4867889
-841.39032 700.22791 2848.9314 7499866
-832.21442 706.77362 2875.5632 7631453
-813.51984 705.34009 2869.7307 6381644
-795.53949 704.47784 2866.2227 8355691
-782.7207 708.24847 2881.5637 5658181
-765.06036 707.70862 2879.3672 6974299
-737.06525 697.36603 2837.2876 6579542
-723.78259 700.78552 2851.2 7500644
-708.32471 702.21204 2857.0039 7829609
-682.65033 693.33203 2820.875 5461060
-665.90143 693.29901 2820.7405 7434850
-651.21704 695.46887 2829.5691 7566179
-635.43634 696.55188 2833.9751 7960424
-619.84369 697.9054 2839.4822 5657667
-611.38177 707.58722 2878.8733 5723715
-588.73761 700.93976 2851.8276 8026469
-576.16425 706.24384 2873.4077 6118471
-558.48352 705.41992 2870.0557 8355432
-543.75592 708.39154 2882.1458 4999734
-531.62622 715.05011 2909.2368 8487277
-513.03558 713.17371 2901.6023 7039833
-499.63797 718.63617 2923.8269 5987403
-478.55585 713.04144 2901.0642 7500900
-456.75555 705.9198 2872.0894 6842969
-439.6835 705.83722 2871.7534 5592131
-425.01407 709.76031 2887.7148 6250061
-414.94971 722.02551 2937.6167 7105114
-401.19717 728.66644 2964.6357 4604981
-384.18884 729.73145 2968.9688 6052427
-369.51816 735.55206 2992.6504 5658183
-346.67557 724.87262 2949.2002 7105630
-327.1123 720.28009 2930.5154 5855301
-311.6048 724.60382 2948.1067 986633
-291.33481 717.70874 2920.0535 3815465
-272.66061 714.12225 2905.4617 6315593
-255.47879 714.22455 2905.8777 5657661
-236.6174 709.30658 2885.8689 5723712
-223.06845 720.78833 2932.583 8815988
-207.45865 726.9884 2957.8086 6841943
-189.96735 727.13123 2958.3896 5986887
-170.86406 720.50555 2931.4326 6315338
-154.05206 723.13568 2942.1333 5789253
-136.26949 721.29962 2934.6633 5394496
-118.69862 720.211 2930.2341 6446927
-102.2686 726.85754 2957.2761 6907477
-84.395538 723.87604 2945.1455 3486239
-68.573921 741.52301 3016.9436 6381641
-49.91106 730.05804 2970.2976 7236441
-32.431362 732.83569 2981.5986 5920839
-14.617879 725.69208 2952.5344 7565408
2.904377 731.96936 2978.074 5657667
20.648901 735.38202 2991.9585 7499869
38.089741 729.82263 2969.3398 9079161
55.794315 731.23315 2975.0789 8289644
73.629677 733.26892 2983.3613 8552563
90.730751 728.61957 2964.4451 9013114
109.29108 735.29626 2991.6096 7499875
127.86317 740.17725 3011.4685 6775896
146.33995 743.37842 3024.4927 7368293
164.35635 743.79761 3026.198 8815996
182.96251 746.54053 3037.3579 8091757
203.63258 756.45929 3077.7131 8289391
219.38751 747.98938 3043.2527 8092010
241.51845 760.89362 3095.7544 7697252
256.64246 751.45911 3057.3696 6907736
280.7439 767.82184 3123.9426 6512978
301.19254 772.7879 3144.1475 7828838
320.71692 774.94196 3152.9114 6841943
339.1582 774.38586 3150.6489 5723717
352.75089 763.3949 3105.9312 7171417
373.20038 767.59711 3123.0283 5328966
393.6275 771.35846 3138.3315 7566181
406.59192 760.81604 3095.439 8158059
432.36771 774.1217 3149.574 7763814
444.79889 763.4223 3106.0427 7632229
460.83243 759.51044 3090.127 6908507
484.29465 767.67297 3123.3369 7697254
503.82166 769.22644 3129.6572 8486513
528.21765 777.83948 3164.7002 7039579
532.11041 756.70465 3078.7114 8815733
550.86017 757.3985 3081.5344 9473405
580.90796 773.0835 3145.3501 7631198
596.84351 769.59625 3131.1619 9078645
614.47913 768.44531 3126.4792 5855048
635.68469 771.69556 3139.7031 8947065
654.29535 771.70038 3139.7227 7895402
671.31219 769.8772 3132.3049 7763046
690.83545 770.9491 3136.666 7696485
700.1181 760.83612 3095.5208 8025704
731.57483 774.72144 3152.0142 7499362
751.69788 776.2121 3158.0789 7367775
766.57611 772.34595 3142.3494 8157292
785.80383 772.94159 3144.7727 8091499
821.11139 788.95972 3209.9436 7630948
832.88855 782.1554 3182.2598 6775639
869.77911 798.71399 3249.6296 5196607
895.21643 804.26556 3272.2166 6183500
918.15009 807.38 3284.8879 7368029
919.88873 792.11426 3222.7781 5921093
956.36481 806.77325 3282.4194 5263162
974.61603 805.78027 3278.3794 4670772
991.56873 803.7735 3270.2146 5262912
1013.739 805.99194 3279.2405 7170912
1040.2825 811.53851 3301.8074 6447188
1068.6942 818.31097 3329.3613 6315602
1083.1648 814.35632 3313.2717 6907996
1109.1455 819.04224 3332.3364 7697255
1136.649 824.66895 3355.2295 6249809
1155.603 824.00586 3352.5317 6776153
1155.9753 810.33948 3296.929 6973532
1177.5205 811.72296 3302.5576 7039325
1190.5486 807.28601 3284.5054 8092013
1207.212 805.41699 3276.9014 6578774
1227.17 805.77057 3278.3398 6446934
1247.183 806.1485 3279.8777 7499621
1272.3197 809.776 3294.6362 6315348
1312.6936 822.84497 3347.8086 7433829
1332.7258 822.96381 3348.292 6973534
1369.9595 833.54529 3391.3435 6841947
1412.4834 846.99298 3446.0566 5855308
1426.9565 843.47662 3431.75 6053204
1502.0487 875.38751 3561.582 5657933
1464.4475 841.64691 3424.3057 5526601
1483.3983 840.88593 3421.2097 5921358
1478.0657 826.5658 3362.947 6447703
1508.0343 832.10516 3385.4841 7105633
1507.5033 820.89093 3339.8582 6973790
1542.3989 829.00842 3372.885 7434597
1569.1741 832.60944 3387.5359 6908253
1562.6893 818.6947 3330.9226 6316119
1575.6444 815.18451 3316.6411 6381657
1607.9724 821.66022 3342.9883 6447452
1657.2174 836.51752 3403.4363 3881788
1652.4279 824.07043 3352.7942 4802123
1713.527 844.38751 3435.4558 3090996
1690.7986 823.40417 3350.0837 1709855
1701.9927 819.23621 3333.126 4605515
1729.903 823.11768 3348.918 855564
1747.4125 822.01825 3344.4451 7434858
1791.3564 833.23956 3390.0996 7171683
1827.7108 840.72064 3420.5371 5920843
1848.6946 841.04504 3421.8569 7170910
1864.9792 839.24774 3414.5444 5789257
1894.5703 843.41266 3431.4897 6775383
1904.5792 838.86426 3412.9841 6907738
1927.6906 840.12164 3418.0999 7631461
1948.5298 840.37317 3419.123 7499875
1932.5463 824.90155 3356.176 7104347
1993.9886 842.4577 3427.6042 7499362
1995.6248 834.64636 3395.8232 6051914
2044.8265 846.68622 3444.8086 6052172
2084.0154 854.38306 3476.1235 7104605
2122.7761 861.75555 3506.1191 8223344
2148.668 863.8114 3514.4834 4802622
2207.0139 878.74982 3575.2615 6974048
2259.0212 890.90424 3624.7129 5920590
2258.9739 882.49396 3590.4951 5657418
2280.4336 882.56433 3590.7812 6315606
2282.5337 875.21002 3560.8599 7302756
2302.7961 874.89093 3559.5615 7565672
2313.2124 870.87085 3543.2053 7171427
2327.5283 868.37793 3533.0627 7039841
2404.4358 889.07349 3617.2642 7104607
2411.7285 883.88971 3596.1738 6052175
2454.3923 891.64673 3627.7336 6184017
2435.77 877.19781 3568.947 6841946
2482.1548 886.20734 3605.603 5788745
2511.6658 889.08984 3617.3311 6644054
2525.325 886.35999 3606.2244 7367520
2547.6338 886.68634 3607.5518 6183503
2644.4595 912.7265 3713.4983 5854536
2653.4265 908.26294 3695.3381 6248781
2660.7544 903.31592 3675.2107 6051403
2726.5605 918.1413 3735.5288 5722951
2762.4211 922.72522 3754.1787 5130814
2760.0195 914.55731 3720.947 5196607
2785.519 915.69086 3725.5591 5657158
2769.9399 903.409 3675.5894 6052174
2786.6506 901.76776 3668.9119 6117710
2794.3704 897.26495 3650.592 6249296
2860.5017 911.44305 3708.2769 6512468
2930.0876 926.4975 3769.5266 6841433
2965.4224 930.57556 3786.1189 6249298
2995.6934 933.01544 3796.0454 6249812
2998.4258 926.90576 3771.188 6249555
3050.0522 935.88947 3807.7388 5920590
3087.7947 940.51227 3826.5469 6249555
3103.6738 938.45679 3818.1841 6183761
3129.9695 939.55798 3822.6643 6117968
3150.4438 938.90839 3820.0212 6117969
3176.2739 939.85291 3823.864 6775642
3178.1753 933.7536 3799.0486 7039070
3218.3035 938.89227 3819.9561 5526086
3266.1609 946.19836 3849.6812 6841693
3277.7642 942.97314 3836.5591 6973278
3342.2195 954.89252 3885.054 7038813
3324.5986 943.35956 3838.1313 5591880
3309.9976 932.83447 3795.3091 6907485
3366.0986 942.24243 3833.5862 6512727
3446.2085 958.19971 3898.5095 5722954
3456.1523 954.56519 3883.7222 6446934
3491.5156 957.95282 3897.5054 6117969
3509.0549 956.43793 3891.3418 6907485
3556.1709 962.9516 3917.843 6446933
3520.8008 947.18982 3853.7151 5986383
3618.7896 967.2771 3935.4417 6249555
3617.3547 960.70215 3908.6909 6052176
3656.092 964.81189 3925.4119 4933695
3690.7085 967.78906 3937.5247 5920590
3661.4038 954.07257 3881.718 6512727
3675.2483 951.70068 3872.0679 5920590
3715.6716 956.19818 3890.3662 6183761
0 0 0 0
0 0 0 0
0 0 0 0
0 0 0 0
0 0 0 0
0 0 0 0
0 0 0 0
0 0 0 0
0 0 0 0
-2208.5771 630.28003 2503.9692 9544364
-2193.5571 630.22797 2503.7625 9544621
-2175.4463 629.28125 2500.0012 9544364
-2147.4163 625.4325 2484.7109 9675950
-2124.4844 623.0257 2475.1494 9675950
-2109.7273 622.99957 2475.0454 9675952
-2076.1013 617.36194 2452.6484 9741489
-2069.5891 619.76447 2462.1931 9938867
-2043.5511 616.31232 2448.4785 9938870
-2030.8107 616.84985 2450.614 10070456
-2016.3729 616.87592 2450.7175 10136249
-2002.5054 617.078 2451.5205 10202042
-1982.6021 615.40961 2444.8921 10004663
-1959.5591 612.73486 2434.2659 9938870
-1931.6548 608.48901 2417.3982 9610161
-1914.3788 607.5528 2413.6787 9280939
-1908.0001 610.08691 2423.7463 9412524
-1890.5463 609.09137 2419.7913 9543596
-1887.343 612.70691 2434.1548 10069940
-1889.6406 618.17761 2455.8889 9740975
-1872.7922 617.42126 2452.884 9411752
-1850.6564 614.89618 2442.8525 9412008
-1840.2845 616.27087 2448.314 8227732
-1857.8655 627.1026 2491.3459 8687510
-1886.5126 641.87299 2550.0256 6844533
-1892.0925 648.97015 2578.2212 6119777
-1849.1246 639.39581 2540.1843 5592402
-1815.7427 633.00623 2514.7998 5328969
-1814.6417 637.85779 2534.074 5130816
-1792.4082 635.30017 2523.9131 5394240
-1794.344 641.33813 2547.9006 5196862
-1781.8219 642.26709 2551.5913 4211250
-1768.1343 642.78827 2553.6619 5592648
-1749.2826 641.42493 2548.2456 5329220
-1733.6494 641.22821 2547.4641 6119506
-1710.7694 638.32416 2535.927 4474169
-1692.3176 637.03552 2530.8074 5658188
-1683.717 639.46527 2540.4602 2302233
-1653.1825 633.53333 2516.8938 3157795
-1651.1116 638.50043 2536.6272 5723978
-1629.4507 635.9137 2526.3506 3619114
-1630.6696 642.29095 2551.686 5790027
-1621.8049 644.77856 2561.5688 7500389
-1616.4117 648.70642 2577.1733 6644823
-1596.4825 646.81995 2569.6787 5723720
-1576.7845 644.99164 2562.4153 6710614
-1574.7817 650.43646 2584.0464 7170908
-1566.1938 653.2417 2595.1909 5986631
-1546.8873 651.58759 2588.6196 4868151
-1536.3044 653.61176 2596.6611 5855556
-1520.4215 653.39923 2595.8169 7104597
-1510.0188 655.56152 2604.4072 4601893
-1502.283 658.93823 2617.8223 5192746
-1486.2513 658.70874 2616.9104 3218448
-1468.7723 657.82617 2613.4041 6381387
-1445.6951 654.39069 2599.7559 5657665
-1405.0133 642.82678 2553.8147 6315340
-1414.9933 654.44232 2599.9609 6381132
-1388.0382 649.04297 2578.5103 5459775
-1373.5789 649.43127 2580.0532 5525566
-1354.6005 647.66779 2573.0471 2893592
-1322.2145 639.38055 2540.1238 6051657
-1321.0862 646.19177 2567.1833 5722177
-1336.7063 661.44946 2627.7988 4472107
-1308.8253 655.28717 2603.3174 4340520
-1313.4126 665.42773 2643.6035 4274983
-1296.0012 664.53302 2640.0491 3485468
-1279.5387 664.10889 2638.3643 4341803
-1262.5125 663.37817 2635.4612 4473132
-1252.9618 666.60632 2648.2859 5065783
-1239.8806 668.01422 2653.8792 5460283
-1221.4458 666.5368 2648.0098 5197111
-1220.2682 674.56073 2679.887 5131319
-1193.463 668.44257 2655.5808 6052418
-1148.3882 651.79156 2589.4299 6512970
0 0 0 0
0 0 0 0
0 0 0 0
0 0 0 0
0 0 0 0
0 0 0 0
-668.73285 418.7196 1663.4845 515
-658.61603 418.5553 1662.8315 257
-647.15472 417.51849 1658.7126 7106918
0 0 0 0
0 0 0 0
-1037.4651 701.2876 2786.0674 5263676
-1023.4259 702.98535 2792.812 2039051
-1001.207 699.02789 2777.0901 5065267
-980.63062 696.10419 2765.4749 6118212
-964.09186 695.99597 2765.0447 4473385
-966.64679 709.90637 2820.3079 4671024
-952.49017 711.81738 2827.8999 5657917
-929.57495 707.13416 2809.2944 6512970
-901.77808 698.49884 2774.988 6578507
-888.04071 700.63519 2783.4753 6381643
-859.26483 690.763 2744.2551 7697248
-862.1156 706.42499 2806.4771 6973268
-853.28027 712.93909 2832.3562 5394749
-834.3457 711.10724 2825.0786 5263163
-815.82605 709.5611 2818.9363 6974038
-803.30164 713.27368 2833.6855 7368282
-790.21313 716.6333 2847.0325 5789508
-765.96191 709.79529 2819.8665 8618609
-742.21948 703.13434 2793.4038 6447186
-728.41754 705.80115 2803.9988 6381394
-710.24078 704.25464 2797.8547 5723464
-700.59375 711.29425 2825.8215 7105630
-679.33282 706.59845 2807.1663 7105887
-657.96936 701.55774 2787.1404 7237473
-641.67157 701.79767 2788.0938 5987663
-620.71771 696.82336 2768.3318 6053456
-611.80084 705.45862 2802.6379 6776664
-600.97125 712.30884 2829.8523 8026986
-586.94562 715.6554 2843.1475 8026728
-569.58063 715.00769 2840.5745 5657921
-557.28241 720.87488 2863.8833 7960419
-540.56805 721.21857 2865.2488 6184265
-523.35016 720.89099 2863.9473 6842451
-510.24454 726.39575 2885.8167 7369055
-496.59265 731.47766 2906.0061 6447955
-480.00064 732.43835 2909.8228 6316370
-450.28964 712.70636 2831.4316 5329477
-435.24902 715.56537 2842.7898 6908252
-423.48596 724.26007 2877.332 5723722
-408.10043 727.22913 2889.1274 7039581
-398.74951 741.68274 2946.5486 6907739
-381.33945 741.78357 2946.9492 6447444
-365.15729 744.39722 2957.3325 5065535
-344.85712 738.45624 2933.7305 4473653
-326.9566 737.29578 2929.1201 2762780
-307.32101 731.87323 2907.5774 3289638
-287.89438 726.33362 2885.5698 6974300
-268.65314 720.59167 2862.7583 8224366
-255.4068 731.23926 2905.0588 6382421
-236.38727 725.70245 2883.0623 7434849
-220.95158 731.16241 2904.7537 7894374
-205.63472 737.97137 2931.8042 7039322
-188.33824 738.27722 2933.0193 6710097
-169.08742 730.20538 2900.9517 6512718
-152.81958 734.64655 2918.5952 5788995
-135.11665 732.44177 2909.8362 6447694
-118.13575 734.07855 2916.3389 7631713
-100.98894 735.06866 2920.2725 6776660
-83.845901 736.50153 2925.9648 7105113
-67.098541 743.06335 2952.0337 7039064
-49.112919 735.70471 2922.7991 5723204
-32.025764 741.11908 2944.3093 5723202
-14.635078 744.06396 2956.0085 9999746
2.8697033 740.66882 2942.5205 5657918
20.403753 744.17181 2956.4373 5657661
38.016121 745.97491 2963.6006 7894372
55.398502 743.55164 2953.9734 8026216
72.961143 744.13068 2956.2737 8025963
90.746994 746.32104 2964.9756 8222827
108.17812 745.35669 2961.1445 7170140
125.63805 744.83246 2959.0618 7696486
144.71567 752.85223 2990.9226 7104604
163.14291 756.1076 3003.8555 6907225
181.75587 759.49841 3017.3267 7104603
200.34811 762.20312 3028.0718 6315599
217.24969 758.55988 3013.5979 7565410
234.71802 757.29865 3008.5874 7039064
254.38326 762.80328 3030.4561 7565408
277.26529 776.59186 3085.2351 5131581
295.68124 776.93915 3086.615 6250577
312.81055 774.06219 3075.1853 7303005
331.04926 774.09607 3075.3198 6710358
348.48621 772.34955 3068.3813 8026217
364.01865 766.76453 3046.1934 7697255
383.80029 770.23492 3059.9805 7565924
402.45325 771.22925 3063.9307 7960939
423.84387 777.15747 3087.4822 9079677
438.14389 770.13177 3059.5706 6908508
447.56592 755.43103 3001.1677 6974301
476.79968 774.01556 3075.0002 6842459
500.78409 783.02386 3110.7883 6381903
514.12488 775.34113 3080.2664 8223849
524.2912 763.56207 3033.4705 8355183
543.66309 765.52612 3041.2734 7170652
555.47028 757.05426 3007.6165 8486768
578.47833 763.90027 3034.8142 8618354
617.0473 790.26257 3139.5461 7697253
633.78912 787.94543 3130.3406 8420465
653.58679 789.45117 3136.3225 7894378
663.52399 779.29279 3095.9653 6973788
680.92487 778.21106 3091.668 7828588
702.74219 782.10132 3107.123 7039072
715.26843 775.71649 3081.7576 7433828
737.12427 779.51575 3096.8513 7565669
764.52051 788.84723 3133.9231 6578774
783.09119 788.84558 3133.9165 7697769
802.8407 790.00397 3138.5186 7697512
807.42322 776.52344 3084.9634 7500132
842.61603 792.42682 3148.144 8026476
868.73834 799.29578 3175.4331 7302497
893.49609 804.64465 3196.6829 6644566
906.30487 799.23395 3175.1875 5197119
936.08734 808.70746 3212.8237 7894889
953.75177 807.54285 3208.197 7960681
985.10968 817.7915 3248.9126 5986892
1005.1273 818.41345 3251.3835 7631461
1024.4518 818.45831 3251.5615 7105118
1052.9313 825.68048 3280.2539 7565669
1080.7329 832.11902 3305.833 6315602
1102.0608 833.43243 3311.0508 5526085
1110.9609 825.46594 3279.4016 7499361
1132.9915 827.36176 3286.9333 6578771
1134.8577 814.71735 3236.6997 5065533
1164.6802 822.22968 3266.5447 6644566
1185.4005 823.17566 3270.3027 6973532
1184.9683 809.63843 3216.5222 6249809
1212.9432 815.63196 3240.3333 6578519
1226.0652 811.60669 3224.3416 6709850
1266.036 825.20502 3278.3647 6117969
1291.0658 828.80084 3292.6504 6841692
1344.3251 850.14185 3377.4336 6907485
1364.1439 850.01935 3376.947 6644314
1401.866 860.8949 3420.1531 4539194
1414.4371 856.23523 3401.6414 5592651
1437.1396 857.75342 3407.6729 5921359
1428.8315 840.97742 3341.0254 6513752
1444.1027 838.34845 3330.5808 6053201
1453.026 832.15497 3305.9756 6645083
1473.189 832.47766 3307.2576 6974048
1473.9246 821.95789 3265.4648 7302756
1505.9661 828.94275 3293.2144 5723212
1520.8539 826.42767 3283.2224 5920590
1542.9108 827.82251 3288.7639 5460039
1569.2742 831.46448 3303.2324 6973793
1542.4299 807.1723 3206.7249 5657938
1629.1543 842.18011 3345.8032 6908263
1624.5242 829.68854 3296.1772 7236971
1645.5258 830.42932 3299.1201 6579553
1693.8695 844.78912 3356.1685 6052953
1685.8083 831.01105 3301.4309 4539970
1706.7351 831.67468 3304.0674 7171176
1729.9474 833.42419 3311.0181 7368808
1767.0221 841.7381 3344.0474 6578775
1818.8867 856.83472 3404.0229 6118223
1802.8561 839.9671 3337.0117 6775639
1838.4563 847.25989 3365.9841 7236189
1858.1388 847.13892 3365.5039 7565154
1840.4127 830.14703 3297.9985 6709589
1893.7247 845.21826 3357.8735 7696741
1908.734 843.05829 3349.2922 6775639
1915.2981 837.25116 3326.2217 6841431
1933.3408 836.52887 3323.3523 7104090
2015.6573 863.35114 3429.9114 6051916
2040.8719 865.42389 3438.1462 6709847
2031.3368 852.86609 3388.2563 7104605
2100.1238 873.11578 3468.7043 7104605
2114.5146 870.57758 3458.6204 6644313
2161.8892 881.53729 3502.1611 6117969
2170.7476 876.7326 3483.0732 4867901
2177.3379 871.11102 3460.7397 5854797
2232.8303 884.97662 3515.825 5986384
2222.416 872.70538 3467.0737 5329480
2253.4509 876.78619 3483.2861 6513499
2266.9563 874.03442 3472.3538 7039843
2296.9546 877.63373 3486.6533 7368551
2349.3669 889.65668 3534.4177 7236450
2400.1179 900.84369 3578.8613 6117967
2413.1987 897.81952 3566.8472 6249039
2397.9524 884.40045 3513.5359 4604471
2519.3167 921.16272 3659.5847 6117710
2475.5557 897.43646 3565.3252 6182220
2487.8049 894.24475 3552.645 5854538
2524.9299 899.97296 3575.4023 5854281
2549.2065 901.06451 3579.7388 4538678
2601.7483 912.04645 3623.3674 6249296
2630.3086 914.51062 3633.1572 7170397
2666.3352 919.50958 3653.0168 6841432
2710.1357 927.08734 3683.1221 5328193
2745.4165 931.65295 3701.26 5196349
2730.1326 919.12299 3651.4812 5591108
2707.1675 904.22455 3592.293 5328193
2699.1482 894.51172 3553.7058 6249295
2767.658 910.11505 3615.6946 6380882
2786.5813 909.29803 3612.4487 6446675
2856.9722 925.15985 3675.4644 5591365
2894.0715 930.08258 3695.0215 6051918
2958.0852 943.51599 3748.3896 6512984
2971.6443 940.77606 3737.5044 6775899
3012.8823 946.7746 3761.3352 7762796
3014.9524 940.4671 3736.2769 6315349
3054.4658 945.84644 3757.6477 6315349
3077.9509 946.22034 3759.1333 6381656
3119.0535 951.96594 3781.9595 6907744
3138.3933 951.03479 3778.2603 6710876
3128.2739 941.25293 3739.3989 6842463
3160.3376 944.21179 3751.1536 7500392
3185.3933 945.05005 3754.4839 6579290
3264.4146 961.77625 3820.9336 7171427
3258.196 953.33142 3787.384 7302756
3281.1179 953.47003 3787.9346 7697770
3297.6194 951.75372 3781.1162 7368549
3361.0718 963.51996 3827.8611 7565415
3341.8979 951.60077 3780.5085 6052176
3381.7354 956.53192 3800.0989 5131073
3408.5176 957.72937 3804.8562 5986383
3480.6658 971.57452 3859.8599 5723211
3499.2358 970.38086 3855.1177 5986382
3523.2883 970.7132 3856.438 5328452
3510.531 960.9649 3817.7102 5723211
3586.3477 975.43237 3875.1865 6117969
3621.0645 978.60828 3887.8037 5591625
3633.731 975.82257 3876.7366 5591625
3616.4734 965.08643 3834.084 5986383
3640.6899 965.48285 3835.6589 4670266
3691.1367 972.78717 3864.6777 4867902
0 0 0 0
0 0 0 0
0 0 0 0
0 0 0 0
0 0 0 0
0 0 0 0
0 0 0 0
0 0 0 0
0 0 0 0
-2161.0229 631.22864 2450.0547 9609904
-2139.6306 629.20752 2442.21 9741233
-2126.2966 629.54474 2443.5188 9741489
-2110.6672 629.20233 2442.1899 9873075
-2075.53 622.99976 2418.115 9807282
-2066.4077 624.57379 2424.2246 9741491
-2033.5966 618.95984 2402.4346 9610162
-2024.0334 620.39258 2407.9956 9609905
-2013.0121 621.39545 2411.8882 9807284
-1995.8427 620.50134 2408.4177 9873077
-1974.8259 618.38953 2400.2209 10070457
-1953.6041 616.18243 2391.6543 9412783
-1917.2128 609.12354 2364.2559 9478060
-1926.4165 616.55347 2393.0945 9412009
-1902.5973 613.44611 2381.0337 7241607
-1896.7361 616.12579 2391.4346 8425106
-1892.8967 619.50757 2404.5605 8818835
-1875.3005 618.40411 2400.2776 5857892
-1886.187 626.74805 2432.6638 7106932
-1871.6179 626.69702 2432.4656 6382953
-1863.7021 628.89014 2440.9783 7566969
-1860.5559 632.73975 2455.9199 5132369
-1845.9591 632.7251 2455.8633 5461330
-1823.7573 630.08295 2445.6079 6382174
-1834.1475 638.74866 2479.2429 5329996
-1805.9275 633.99969 2460.8103 6382682
-1788.7374 633.07709 2457.2292 5725006
-1754.9314 626.21021 2430.5762 5987663
-1752.7476 630.60687 2447.6414 6579798
-1765.2982 640.4223 2485.739 5001021
-1744.8807 638.34198 2477.6646 4737336
-1742.2051 642.77203 2494.8594 6447956
-1730.827 644.03986 2499.7803 3421479
-1716.5908 644.25671 2500.6221 5000767
-1704.9138 645.44635 2505.2395 4144175
-1696.2295 647.7998 2514.374 6381392
-1671.1371 643.87299 2499.1326 4078638
-1651.9575 642.17444 2492.54 5262911
-1635.3564 641.45685 2489.7546 5394496
-1618.235 640.52002 2486.1184 4604980
-1611.2501 643.61523 2498.1321 7039577
-1608.0918 648.31036 2516.356 6118220
-1597.8967 650.23004 2523.8069 5131324
-1582.7047 650.1333 2523.4314 6512978
-1550.5645 643.00647 2495.7693 5789509
-1546.0012 647.28851 2512.3896 6381387
-1543.7028 652.61121 2533.0493 5065526
-1535.8308 655.65906 2544.8792 5197369
-1534.1943 661.45581 2567.3787 5854784
-1507.6031 656.50189 2548.1504 4997165
-1504.9246 661.966 2569.3589 5125415
-1479.5232 657.44476 2551.8101 2428936
-1461.7789 656.2677 2547.2415 2561036
-1457.7131 661.27118 2566.6621 5261623
-1440.1233 660.18042 2562.4285 6117188
-1404.7056 650.80676 2526.0454 6314568
-1389.2505 650.57953 2525.1636 5328443
-1386.4117 656.31989 2547.4441 6315340
-1375.8916 658.51025 2555.9458 5657153
-1344.9396 650.86176 2526.2588 5657410
-1328.467 650.12695 2523.407 7762785
-1323.4104 655.02576 2542.4211 5526080
-1332.3153 667.0274 2589.0044 7433823
-1311.9288 664.4729 2579.0894 3683878
-1292.0117 662.09875 2569.8743 4078636
-1273.3805 660.33478 2563.0276 4144430
-1277.8674 670.66138 2603.1091 6775635
-1258.5139 668.5752 2595.012 4078376
-1247.9176 671.14722 2604.9949 4472364
-1225.7673 667.49188 2590.8071 3946276
-1212.9688 668.90088 2596.2761 4341033
-1204.5134 672.77203 2611.3015 5196341
-1191.6262 674.23633 2616.9849 5657148
-1164.8684 667.78754 2591.9548 5855041
0 0 0 0
0 0 0 0
0 0 0 0
0 0 0 0
0 0 0 0
0 0 0 0
0 0 0 0
-667.90204 428.04535 1661.4178 517
-656.55829 427.07108 1657.6364 3
-639.06134 422.00394 1637.9686 6251354
0 0 0 0
0 0 0 0
-1031.145 713.42572 2769.095 6776917
-1007.0222 708.0033 2748.0483 6184259
-981.68213 701.53271 2722.9333 5197365
-953.12305 692.50702 2687.9009 6710608
-933.3222 689.64606 2676.7966 4077861
-946.89014 711.76935 2762.6658 5327930
-929.73676 711.17169 2760.3462 5854529
-912.39874 710.409 2757.3857 7235925
-883.4184 700.38812 2718.4907 5789249
-876.68481 707.96027 2747.8813 6447179
-856.00671 704.34509 2733.8494 7038804
-845.39227 709.03088 2752.0369 6907990
-833.81702 713.07935 2767.7505 6842710
-802.6828 700.22784 2717.8687 6316368
-798.25391 710.6236 2758.2188 7369057
-780.28137 709.14514 2752.4805 7369056
-779.23407 723.31421 2807.4763 7631970
-744.99744 706.62189 2742.6865 8881779
-726.72791 704.66724 2735.0999 5197374
-713.86774 707.98828 2747.99 5856333
-698.32843 708.74536 2750.9285 6514006
-686.74335 713.64758 2769.9563 8092782
-671.11316 714.48346 2773.2007 6645336
-653.87115 713.60236 2769.7805 6974301
-631.70837 707.16718 2744.8032 6579544
-618.37634 710.53882 2757.8896 5592392
-602.50293 711.09399 2760.0447 5591879
-595.79706 722.802 2805.488 5855048
-585.31543 730.47003 2835.251 7236954
-559.48187 718.86584 2790.2104 7039575
-540.41156 715.50964 2777.1836 4933945
-529.70905 723.36957 2807.6912 5657925
-517.14954 729.12122 2830.0156 7106143
-504.99521 735.84869 2856.1277 5592645
-489.84418 738.52478 2866.5146 4474422
-460.40265 719.07373 2791.0173 4671035
-440.20374 713.14655 2768.0112 3091749
-424.02316 713.52216 2769.4692 5920592
-418.49719 732.57892 2843.4365 5657162
-403.32941 735.64868 2855.3513 4473145
-394.09601 750.28522 2912.1616 5065286
-369.62134 735.91699 2856.3928 1710359
-345.31717 720.52533 2796.6516 3486770
-332.58768 728.95056 2829.3533 3289391
-316.78564 731.17859 2838.0012 7631725
-296.81149 723.48688 2808.1465 7039842
-280.09979 723.30615 2807.4448 9803401
-265.00766 727.54871 2823.9121 8882554
-251.13708 735.94305 2856.4939 9079677
-236.59761 743.44904 2885.6277 7303266
-216.22566 732.36963 2842.624 6579543
-200.96733 738.20148 2865.2598 4999483
-184.91457 741.9223 2879.7019 5789251
-169.52881 749.34814 2908.5244 6711384
-150.52356 740.6452 2874.7449 5987399
-132.8038 736.85339 2860.0273 7039316
-116.48492 740.86188 2875.5859 5657407
-98.805359 736.10706 2857.1304 6249545
-80.698997 725.54834 2816.1477 7368028
-64.624069 732.50977 2843.168 6841687
-48.296535 740.50861 2874.2146 4868144
-31.644867 749.54572 2909.2915 5197110
-14.448269 751.8606 2918.2764 5526079
2.8371227 749.49982 2909.1133 6578512
20.309517 758.17438 2942.7827 6315856
37.717567 757.54156 2940.3267 7434080
54.832394 753.28033 2923.7871 8815733
72.359367 755.3681 2931.8904 8026217
89.414307 752.67383 2921.4329 7828839
106.97864 754.44604 2928.3115 5394497
125.20951 759.76807 2948.9685 6973019
142.70515 759.87158 2949.3704 6841691
160.08791 759.41693 2947.6055 5394498
179.01622 765.66217 2971.8459 6973018
195.75743 762.27216 2958.6877 4736566
218.98985 782.63812 3037.7366 8025703
234.05072 772.9245 3000.0339 4604979
252.51595 775.03113 3008.2107 3157025
267.92136 768.08807 2981.2617 5262910
287.42532 773.02692 3000.4314 5197379
304.9613 772.40576 2998.0205 6579543
327.0325 782.70758 3038.0059 7434338
345.36896 783.46198 3040.9341 7763045
361.01575 778.34271 3021.0645 6644817
377.01889 774.43933 3005.9136 9276792
390.01382 764.98761 2969.2275 8552558
414.23026 777.41211 3017.4521 8026217
434.72546 782.1134 3035.6997 7763046
453.96146 784.26562 3044.0535 7960939
467.16977 776.23785 3012.8945 7500901
489.71646 783.7464 3042.0383 7434336
502.14005 775.09589 3008.4619 8289389
519.16858 773.90289 3003.8315 7763045
526.74811 759.1709 2946.6506 7565922
547.44037 763.67639 2964.1384 7499873
566.04504 765.08008 2969.5867 8947319
583.67896 765.12665 2969.7673 8420976
615.23248 782.88324 3038.688 8025706
632.12659 781.50623 3033.343 8157292
651.71063 783.43903 3040.845 8420464
675.04596 789.65594 3064.9756 8026220
705.36481 803.5022 3118.7185 7434083
716.94025 795.83545 3088.9604 7828840
734.18634 794.68835 3084.5083 6381391
746.87238 788.78113 3061.5798 6512980
769.78015 793.6933 3080.646 8026220
788.94781 794.61084 3084.2075 7170911
805.45386 792.86707 3077.439 6644568
817.12146 786.54297 3052.8926 6776924
842.51465 793.41858 3079.5796 6579802
860.82611 793.47485 3079.7983 6250065
884.82587 798.66345 3099.9373 6513235
911.14935 805.69562 3127.2319 2565660
937.88556 812.80505 3154.8267 6841945
962.41046 817.75781 3174.05 7236961
981.62604 818.0957 3175.3616 7434340
991.61633 810.87708 3147.3433 7499876
1026.5199 823.92133 3197.9734 7894634
1050.8833 828.1861 3214.5266 5591622
1072.4664 830.14691 3222.1372 5525572
1089.358 828.47107 3215.6328 5394498
1106.4866 827.03003 3210.0393 6446928
1127.0052 828.12885 3214.3044 6184015
1135.0323 820.16467 3183.3923 7499874
1145.4015 814.12579 3159.9529 7236705
1153.3878 806.61469 3130.7991 7236705
1188.7107 818.15631 3175.5969 6973278
1213.5697 822.24847 3191.4805 7170659
1226.7107 818.39746 3176.533 7039073
1264.1022 830.59705 3223.8843 5460041
1306.184 845.46912 3281.6091 4933438
1328.0314 846.99976 3287.55 5986382
1362.4037 856.35895 3323.8767 4604472
1371.3387 849.69006 3297.9922 4209457
1378.0989 841.88 3267.6782 6578004
1399.3834 843.03644 3272.1667 4933949
1403.0427 833.68829 3235.8831 6117967
1423.5867 834.48993 3238.9944 6249810
1422.0504 822.49915 3192.4534 6184019
1446.172 825.46875 3203.9792 7631465
1486.9784 837.76147 3251.6924 6579033
1486.3987 826.72107 3208.8403 7368550
1505.9714 827.02667 3210.0266 6973278
1536.3569 833.18866 3233.9434 7368036
1558.72 834.90161 3240.592 6052177
1589.215 840.87561 3263.7795 5459783
1598.179 835.4505 3242.7227 4671037
1592.3409 822.50861 3192.4897 7500648
1625.0776 829.56189 3219.8667 7960945
1658.6055 836.85077 3248.1577 8289909
1645.6248 820.7757 3185.7639 7434343
1719.0143 847.65479 3290.0925 7829612
1748.9088 852.724 3309.7683 7433827
1771.9622 854.38214 3316.2043 6710359
1796.4351 856.68091 3325.1265 6249295
1820.3536 858.66827 3332.8403 6775639
1817.1733 847.96747 3291.3064 6315088
1835.032 847.20746 3288.3562 7170397
1822.2329 832.45789 3231.1072 6512468
1857.6166 839.79755 3259.5955 8091755
1872.9941 838.03497 3252.7542 7105116
1913.7816 847.56165 3289.731 7499105
1983.6152 869.63 3375.3875 7630948
2025.3014 879.04102 3411.9155 6249295
2032.7584 873.5564 3390.6272 5196607
2097.1338 892.39984 3463.7661 6512467
2118.0828 892.57764 3464.4563 7434083
2125.7944 887.22717 3443.6892 6380882
2180.218 901.28906 3498.269 4736056
2180.6067 892.95868 3465.9353 4867642
2193.1504 889.7149 3453.3447 4078128
2193.9832 881.82404 3422.7173 5854538
2228.1826 887.36591 3444.2275 5591880
2246.1619 886.40613 3440.5022 5591880
2259.2803 883.56262 3429.4656 6446935
2301.2742 891.96185 3462.0664 7368035
2279.6384 875.76813 3399.2119 7828587
2306.0374 878.1499 3408.4563 6051919
2355.2056 889.08563 3450.9023 5526087
2399.6584 898.06836 3485.7681 6446676
2421.7312 898.59344 3487.8064 6380883
2452.5103 902.31299 3502.2432 5854537
2474.8816 902.90265 3504.532 6249295
2500.9631 904.82477 3511.9927 5722693
2510.9155 900.9281 3496.8679 5788743
2578.8101 917.71478 3562.0239 6249295
2560.8015 903.90704 3508.4304 5788745
2624.4004 918.89526 3566.606 7696742
2641.7908 917.59418 3561.5559 6644053
2641.5293 910.23108 3532.9766 6249039
2693.5586 920.86066 3574.2344 4736057
2669.9529 905.66852 3515.2673 5525572
2671.0635 899.03064 3489.5029 5788744
2711.843 905.74384 3515.5598 6117710
2764.2927 916.22284 3556.2332 5722952
2793.4387 918.87781 3566.5378 6578261
2836.2622 925.95813 3594.0195 6643800
2885.5449 935.02588 3629.2153 5722954
2913.4714 937.09052 3637.229 5262403
2995.4995 956.39832 3712.1702 6512727
2991.6614 948.20911 3680.3848 6117455
2990.8662 941.09607 3652.7761 6183505
3018.676 943.02118 3660.2483 4670523
3060.7161 949.3327 3684.7458 5591625
3061.0103 942.6983 3658.9949 7170914
3050.1978 932.7608 3620.4233 6447705
3125.2385 949.03284 3683.582 6645085
3192.3618 962.69165 3736.5974 6052947
3177.4099 951.58203 3693.4766 7237223
3187.2141 947.98792 3679.5261 7104864
3164.3074 934.7793 3628.2581 6973278
3267.1226 958.63806 3720.8638 7302243
3283.3997 956.95538 3714.3325 7762537
3281.2488 949.96002 3687.1807 6578519
3294.2085 947.40295 3677.2556 6578520
3340.8694 954.50806 3704.8335 6117968
3387.4658 961.50208 3731.98 7105635
3443.2014 970.98273 3768.7783 7105636
3423.1409 959.10437 3722.6736 7631721
3437.7778 957.03741 3714.6511 6644570
3489.3262 965.20728 3746.3613 7170658
3521.927 968.06561 3757.4558 6447188
3535.124 965.58813 3747.8396 6775898
3525.6016 956.97473 3714.4075 6841948
3587.311 967.68292 3755.9705 5657418
0 0 0 0
0 0 0 0
0 0 0 0
0 0 0 0
0 0 0 0
0 0 0 0
0 0 0 0
0 0 0 0
0 0 0 0
-2099.2915 627.30182 2380.0669 9412524
-2092.3499 629.45679 2388.2429 9346731
-2068.5085 626.52234 2377.1094 9412524
-2058.1711 627.66595 2381.4485 9741490
-2034.3898 624.69708 2370.1841 9807282
-2012.5863 622.29852 2361.0835 9543856
-1992.2084 620.31024 2353.5398 9017766
-1973.9767 618.96686 2348.4429 8425629
-1972.5669 622.91669 2363.429 8030872
-1951.4855 620.66638 2354.8911 9478059
-1963.6719 629.04071 2386.6643 9543850
-1935.2068 624.41974 2369.1318 7569030
-1914.2124 622.15942 2360.5559 7436413
-1901.1115 622.4502 2361.6592 5922656
-1922.52 634.12811 2405.9666 6316641
-1908.5822 634.2345 2406.3704 6580067
-1884.2792 630.87225 2393.6135 6974826
-1883.7645 635.48395 2411.1108 7106153
-1862.9951 633.28101 2402.7527 5000777
-1846.6367 632.55511 2399.9985 5527377
-1831.1102 632.1051 2398.291 5790036
-1823.9163 634.54694 2407.5557 5855825
-1818.9509 637.80878 2419.9316 5000255
-1810.2189 639.7912 2427.4531 4737340
-1780.7545 634.41919 2407.071 6645081
-1766.7788 634.52301 2407.4648 6053201
-1766.1056 639.44495 2426.1394 5789772
-1738.833 634.73785 2408.28 5461061
-1723.215 634.24243 2406.4004 5066302
-1712.5432 635.5744 2411.4541 5987405
-1701.6862 636.85956 2416.3301 6908761
-1729.1598 652.63348 2476.1785 3026717
-1691.2458 643.78711 2442.6143 5198147
-1698.2831 652.04681 2473.9526 4934716
-1682.3551 651.55615 2472.0911 5591878
-1670.2101 652.53485 2475.8044 5460034
-1655.8591 652.66156 2476.2849 4802615
-1642.4048 653.14697 2478.1267 6315852
-1608.1371 645.28943 2448.3142 4605235
-1595.9283 646.22089 2451.8484 5855302
-1603.8352 655.38959 2486.6355 7499874
-1594.7682 657.72778 2495.5071 6118475
-1574.4543 655.4278 2486.7805 6315852
-1553.7651 652.92664 2477.2908 5065785
-1512.863 641.80286 2435.0857 4276522
-1509.4187 646.50854 2452.9397 6118210
-1497.2263 647.5224 2456.7864 4868144
-1495.6229 653.18066 2478.2546 5589814
-1481.3982 653.3844 2479.0276 6311740
-1476.6798 657.82715 2495.8838 2561543
-1446.0659 650.70709 2468.8696 3154969
-1446.281 657.45593 2494.4756 6248262
-1442.0942 662.32245 2512.9397 6446155
-1427.6844 662.54626 2513.7891 6380108
-1420.3566 666.09607 2527.2573 5393468
-1395.5963 661.45923 2509.6646 5525566
-1377.8226 660.06952 2504.3918 7630685
-1368.8815 662.927 2515.2334 6315340
-1352.8972 662.39899 2513.23 4999479
-1340.1465 663.45996 2517.2556 6183753
-1328.7598 665.22778 2523.9629 3552037
-1306.4843 661.52246 2509.9043 7433820
-1295.3469 663.43628 2517.1658 4209710
-1283.7091 665.1355 2523.6128 3486243
-1268.7018 665.10834 2523.5098 4275761
-1243.623 659.73767 2503.1328 4012587
-1244.6918 668.27588 2535.5278 5328188
-1240.8597 674.35944 2558.6096 4209446
-1227.7678 675.49884 2562.9326 5919812
-1228.7241 684.49274 2597.0566 3024665
-1203.1022 678.72076 2575.1572 4077607
-1191.9849 681.0885 2584.1406 5591103
-1147.5902 664.25586 2520.2754 6907475
-1151.3621 675.22711 2561.9016 7696734
