# .PCD v0.7 - Point Cloud Data file format
VERSION 0.7
FIELDS x y z rgb
SIZE 4 4 4 4
TYPE F F F U
COUNT 1 1 1 1
WIDTH 1336
HEIGHT 1
VIEWPOINT 0 0 0 1 0 0 0
POINTS 1336
DATA ascii
2420.1179 1314.8545 2565.7412 4605248
2416.4641 1304.6725 2545.8726 5263178
2416.7786 1296.746 2530.405 5262663
0 0 0 0
0 0 0 0
0 0 0 0
0 0 0 0
0 0 0 0
0 0 0 0
0 0 0 0
0 0 0 0
0 0 0 0
0 0 0 0
0 0 0 0
0 0 0 0
0 0 0 0
0 0 0 0
0 0 0 0
0 0 0 0
-1254.189 773.49799 1492.1104 4802362
-1252.11 777.69891 1500.2141 1775885
-1239.4302 775.32867 1495.6417 4209966
-1244.426 784.06079 1512.4865 7631458
-1239.6835 786.73944 1517.6537 2696734
-1243.1754 794.72131 1533.0509 4998972
-1227.871 790.71631 1525.3251 4998971
-1218.7051 790.63416 1525.1667 7499362
-1208.9957 790.19562 1524.3208 3947311
-1194.9801 786.91479 1517.9919 5788995
-1186.6256 787.34039 1518.8129 5524794
-1173.6991 784.71582 1513.7499 5920066
-1171.6069 789.3501 1522.6897 4473650
-1164.1879 790.4397 1524.7916 5920842
-1164.6139 796.91449 1537.2816 3420453
-1150.3899 793.38763 1530.4783 4406578
-1136.6545 790.14453 1524.2222 4604983
-1134.161 794.72668 1533.0614 4539190
-1121.3876 792.12152 1528.0359 6776664
-1108.5717 789.44366 1522.8701 7960939
-1103.416 792.22156 1528.2288 7500391
-1094.1792 792.09119 1527.9773 4868929
-1080.2198 788.51129 1521.0715 5527112
-1066.2764 784.88275 1514.072 5724754
0 0 0 0
0 0 0 0
-954.57117 720.85498 1390.5597 1291
-953.979 726.68121 1401.7987 1295
-951.00867 730.78223 1409.7098 1554
-944.06696 731.87732 1411.8223 1299
-938.48163 734.05286 1416.0189 1299
-933.79517 736.97705 1421.6599 1299
-932.22998 742.44037 1432.1989 1299
-927.57257 745.5188 1438.1372 1300
-922.88843 748.63257 1444.1438 1042
-911.1051 745.992 1439.05 780
-905.22638 748.18176 1443.2742 776
-920.38593 767.96753 1481.4418 1251095
-950.37708 800.62909 1544.4473 6185053
-949.67041 807.81342 1558.3063 3158059
-943.03027 810.0423 1562.6058 4474174
-934.70551 810.85382 1564.1714 4737858
-924.64716 810.1629 1562.8384 7436142
-913.56189 808.54895 1559.725 7961202
-904.47754 808.69098 1559.999 8026997
-905.4787 817.94653 1577.8534 4539711
-904.85138 825.90881 1593.213 5658447
-897.22125 827.57983 1596.4365 7631980
-886.38568 826.29828 1593.9642 7960944
-876.21405 825.61469 1592.6456 2697246
-876.6264 834.99762 1610.7457 6249296
-862.29517 830.38904 1601.8556 2367513
-853.95068 831.50732 1604.0128 4012334
-827.76904 815.08691 1572.3372 6973790
-840.78949 837.33356 1615.2518 4802877
-837.85461 844.0199 1628.15 7303011
-825.18536 840.94171 1622.212 5066052
-813.11121 838.4046 1617.3179 6579290
-812.77484 848.05426 1635.9325 7171428
-797.25159 841.89954 1624.0597 7303012
-788.23035 842.54425 1625.3035 7171427
-780.81702 844.94513 1629.9348 7763563
-774.84027 848.98004 1637.7184 8618872
-764.02734 847.75122 1635.3479 6184530
-768.34875 863.49939 1665.7268 6118736
-757.51874 862.40808 1663.6217 6645083
-740.422 854.05945 1647.5168 5395016
-728.92065 852.02814 1643.5984 7631978
-724.76483 858.64423 1656.361 6645083
-717.03381 861.14832 1661.1914 7632237
-709.51862 863.98468 1666.663 7237222
-700.86578 865.49652 1669.5792 6842464
-690.53302 864.9472 1668.5197 6644827
-682.19635 866.91858 1672.3226 6645339
-669.06158 862.76099 1664.3024 7829869
-658.34546 861.64435 1662.1484 4737599
-650.89404 864.83173 1668.2969 8487799
-634.96588 856.6806 1652.5731 7566698
-623.31091 854.12982 1647.6526 6711389
-620.4212 863.70013 1666.114 6908768
-613.31616 867.61688 1673.6696 6842975
-600.01031 862.74628 1664.274 6973789
-591.05585 864.07422 1666.8357 6711128
-583.34766 867.30029 1673.059 6052172
-578.88074 875.54022 1688.9541 9078651
-564.76221 869.21545 1676.7533 5065277
-554.7428 869.08594 1676.5035 5723462
-545.8609 870.76648 1679.7454 6578772
-537.04767 872.62085 1683.3225 6776409
-532.77795 882.06775 1701.546 10526611
-523.32947 883.13965 1703.6138 7895403
-514.44067 885.2171 1707.6211 7434597
-503.99069 884.63733 1706.5028 3750194
-487.935 873.99292 1685.9692 8355955
-480.05151 877.84753 1693.405 8224369
-472.3454 882.19812 1701.7975 8092015
-461.11035 880.00366 1697.5643 7631206
-452.82629 883.46887 1704.2488 7368290
-442.91693 883.84875 1704.9816 6184015
-431.76724 881.7135 1700.8625 8026473
-415.36758 868.49896 1675.3712 6842195
-406.24118 870.21735 1678.686 5394493
-400.41019 879.25848 1696.1267 6380879
-390.08844 878.65002 1694.953 5657671
-382.86761 885.17859 1707.5469 7236703
-372.08945 883.61395 1704.5286 6512977
-361.59857 882.66315 1702.6946 3749671
-348.57867 875.30731 1688.5049 8750456
-341.68204 883.34711 1704.0139 5855308
-331.89499 884.17645 1705.6138 7237474
-324.7243 892.24689 1721.1819 5855567
-316.41122 897.59991 1731.5082 5921359
-307.4874 901.52112 1739.0724 6973535
-297.49448 902.47137 1740.9053 3946800
-290.90076 914.17194 1763.4762 2762526
-279.93103 912.48004 1760.2126 722692
-270.15219 914.68964 1764.4749 2104343
-261.07574 919.5509 1773.8525 1643536
-251.96196 924.68304 1783.7527 854279
-242.71091 929.73895 1793.5057 3420205
-236.11913 945.91113 1824.7025 4538941
-224.30722 941.71973 1816.6172 4802367
-213.06836 939.63293 1812.5917 4999746
-201.23386 934.55829 1802.8024 5920590
-192.3837 943.55151 1820.1506 5986637
-180.12177 935.88586 1805.3633 4408118
-170.362 941.07397 1815.3713 4144948
-158.78322 936.23602 1806.0388 5855824
-147.11913 930.15924 1794.3165 6842460
-136.10506 927.56573 1789.3135 7697253
-125.13799 924.88123 1784.135 5986382
-115.04142 928.72882 1791.5571 4538937
-104.06037 925.49225 1785.3137 6842719
-94.27861 933.39673 1800.5618 6250584
-83.767761 935.1792 1804.0002 5723983
-72.960205 933.68622 1801.1201 6382425
-62.770821 940.948 1815.1285 6448219
-51.289925 927.84961 1789.8611 5527115
-40.645123 926.98969 1788.2023 3881519
-30.840931 951.45648 1835.3998 5198147
-20.00946 953.62494 1839.5828 3684652
-9.1270256 955.64838 1843.4861 4079411
1.779703 945.99384 1824.8621 7434852
12.617826 947.7666 1828.2817 6184788
23.574724 952.70129 1837.801 5527372
34.719036 959.69775 1851.2975 3223846
45.488464 955.46002 1843.1227 4342581
55.711689 943.61206 1820.2675 6316369
66.742279 947.06445 1826.9272 6513495
77.785316 949.70496 1832.021 6118226
89.356239 957.35437 1846.7771 5328966
100.35368 957.86072 1847.7537 5526604
111.55283 960.0033 1851.887 8355703
123.03979 964.01703 1859.6295 5131592
134.88927 969.97778 1871.1281 5394764
145.69821 968.11877 1867.542 4934213
156.06883 963.81555 1859.2408 5196612
169.89604 980.01843 1890.4969 5460038
180.06847 974.4389 1879.7338 4078645
190.507 970.8656 1872.8407 3947319
209.78102 1010.2344 1948.7849 6711137
220.51613 1006.5199 1941.6194 4211002
230.75545 1001.0231 1931.0157 5658192
247.36317 1022.3667 1972.1885 5066055
256.95633 1014.1006 1956.243 3026728
266.73206 1007.2378 1943.0043 7500393
278.82428 1009.3286 1947.0375 3355178
287.66055 999.93524 1928.9172 1184015
302.46332 1011.2073 1950.6615 9538951
312.65451 1006.7994 1942.1584 7104866
327.13501 1016.0263 1959.9576 5854799
343.71329 1030.9125 1988.6737 5854288
349.81946 1014.4435 1956.9044 3749424
361.95471 1015.9542 1959.8187 6183765
371.9339 1011.5074 1951.2405 5591627
383.56439 1011.6842 1951.5815 6841950
393.96906 1008.712 1945.8481 6644831
410.19965 1020.4014 1968.3973 6513498
436.16263 1054.9847 2035.1102 7500393
443.6709 1044.2701 2014.4413 6381912
461.20758 1057.1025 2039.1954 6579033
467.62622 1044.4474 2014.7831 5066051
488.27466 1063.4133 2051.3691 6184275
500.97937 1064.5775 2053.615 6973536
510.46341 1059.005 2042.8652 6052947
528.98108 1071.9976 2067.9285 8487287
537.24463 1064.0918 2052.678 3421228
550.23602 1065.6931 2055.7671 3684401
554.69263 1051.053 2027.5256 5658447
569.90924 1056.99 2038.9783 6973278
581.02808 1055.238 2035.5988 7433828
597.29401 1062.7153 2050.0227 5591622
609.94019 1063.5825 2051.6956 6249295
619.88373 1059.7952 2044.3896 4934204
632.44147 1060.5367 2045.8202 2893856
640.53357 1053.9028 2033.0232 8223857
655.14191 1058.0376 2040.9991 1578511
661.51093 1048.9573 2023.4829 6380627
672.81854 1047.892 2021.428 3025439
681.70099 1043.1531 2012.2863 4736570
698.88763 1051.0657 2027.55 6578773
714.07922 1055.7612 2036.608 3814183
728.52771 1059.2202 2043.2805 4077357
734.80322 1050.8776 2027.1873 4209969
754.28058 1061.3802 2047.4473 6117968
767.37537 1062.7113 2050.0151 6776153
787.67834 1073.8278 2071.4592 5328707
807.11768 1083.4436 2090.0085 6315602
811.67456 1073.0931 2070.042 7368290
823.41852 1072.4114 2068.7268 3354917
840.45868 1078.546 2080.5608 5986637
856.6358 1083.4117 2089.947 5197121
868.76312 1083.09 2089.3262 5920846
882.16278 1084.3411 2091.7397 5723210
902.24365 1093.6561 2109.709 7302242
921.09705 1101.2493 2124.3562 4538937
948.82495 1119.1045 2158.7998 6315091
963.07574 1120.8004 2162.0713 3552042
974.14929 1118.8027 2158.2178 5130818
984.01428 1115.4868 2151.8213 6117201
1002.5023 1121.9059 2164.2039 4736059
1023.0135 1130.3983 2180.5862 4275506
1035.2574 1129.6578 2179.1577 3551526
1088.0378 1172.6233 2262.0398 2367511
1096.6798 1167.5521 2252.2573 4341301
1103.0312 1160.1936 2238.0625 2828061
1130.7369 1175.2041 2267.0183 5657159
1140.4922 1171.4248 2259.7278 1973522
1145.2793 1162.6895 2242.877 6052430
1156.9824 1161.095 2239.8013 3815467
1171.1096 1161.942 2241.4353 3815210
1187.1052 1164.603 2246.5684 2762013
1203.5339 1167.6251 2252.3982 1577993
1208.7423 1159.8148 2237.3318 3617577
1227.8943 1165.4081 2248.1213 3683887
1241.2518 1165.4406 2248.1841 5065539
1247.9817 1159.3157 2236.3689 6381142
1278.5786 1175.2579 2267.1221 6315350
1286.1749 1169.9463 2256.876 5854543
1302.0548 1172.2017 2261.2266 7236195
1312.2222 1169.3207 2255.6689 4472631
1333.54 1176.3336 2269.1973 4735804
1357.2784 1185.3206 2286.5334 4735291
1363.72 1179.1737 2274.6758 4800828
1364.006 1167.8766 2252.8833 4077359
1384.2479 1173.7195 2264.1545 2695450
1403.741 1178.8212 2273.9958 6708823
1411.8002 1174.3156 2265.3042 3155741
1428.7828 1177.2469 2270.9592 3945515
1449.1613 1182.8958 2281.856 4472115
1464.8002 1184.6072 2285.1572 4866873
1472.6222 1180.0236 2276.3152 5262401
1491.793 1184.5343 2285.0166 3749162
1432.5861 1127.2892 2174.5884 5920587
1532.052 1194.8099 2304.8389 2893852
1566.4424 1210.8351 2335.752 2433301
1546.7234 1185.12 2286.1465 3683367
1571.4883 1193.6396 2302.5813 4801335
1605.1442 1208.7079 2331.6484 4603444
1596.109 1191.6461 2298.7356 4143407
1623.626 1201.9315 2318.5767 4866874
1638.0909 1202.4633 2319.6025 3682599
1663.2866 1210.7979 2335.6802 5591368
1651.2769 1192.1345 2299.6777 6117457
1663.7888 1191.3351 2298.1357 4342329
1705.5725 1211.3381 2336.7224 4473659
1734.8777 1222.2278 2357.729 5065023
1752.2325 1224.5918 2362.2893 2235412
1755.752 1217.3256 2348.2725 4998461
1760.7976 1211.2236 2336.5015 4866616
1755.5298 1198.1776 2311.3352 4932409
1759.8239 1191.8093 2299.0505 4801080
1785.6573 1200.014 2314.8777 5064506
1809.826 1206.9834 2328.322 6578260
1812.1903 1199.4158 2313.7236 5459009
1899.6769 1247.8778 2407.209 4011565
1907.8208 1243.8865 2399.5095 4406066
1916.1656 1240.0842 2392.1748 6117200
1952.7076 1254.4521 2419.8911 3551271
1980.2159 1262.8496 2436.0901 4275252
2020.3661 1279.1292 2467.4941 1971985
2015.4027 1266.8177 2443.7451 1511181
2050.7766 1279.856 2468.8962 2300696
2072.9189 1284.5103 2477.8745 4208694
2087.1689 1284.243 2477.3591 3353638
2097.7229 1281.7211 2472.4941 4603193
2112.3752 1281.7211 2472.4941 5195583
2106.7373 1269.4943 2448.9082 3287844
2149.8745 1286.625 2481.9539 4208947
2124.1882 1262.6144 2435.6365 3354152
2148.9648 1268.7203 2447.4153 4670527
2172.769 1274.1744 2457.9363 4933443
2195.3765 1278.8585 2466.9722 5460559
2239.9675 1296.202 2500.4285 5986901
2256.166 1296.9956 2501.9595 5855315
2254.3967 1287.5172 2483.675 5197386
2225 1262.4856 2435.3882 5263179
2241.2673 1263.52 2437.3833 5263178
2249.4133 1259.9919 2430.5776 6250073
2326.4695 1294.8627 2497.8447 3289388
2341.1375 1294.7881 2497.7009 4868420
2375.0339 1305.2822 2517.9446 5921108
2381.1077 1300.4498 2508.6226 5131592
2394.4771 1299.6372 2507.0549 5591373
0 0 0 0
0 0 0 0
0 0 0 0
0 0 0 0
0 0 0 0
0 0 0 0
0 0 0 0
0 0 0 0
0 0 0 0
0 0 0 0
0 0 0 0
0 0 0 0
0 0 0 0
0 0 0 0
0 0 0 0
0 0 0 0
-1247.519 778.18011 1484.1753 4013103
-1240.6219 779.37268 1486.4498 4209971
-1233.7075 780.57135 1488.736 4407606
-1230.8885 784.39722 1496.0328 657668
-1230.3612 789.74957 1506.2411 4209969
-1220.5228 789.15985 1505.1163 7039067
-1203.8607 784.11688 1495.4983 7960166
-1203.0775 789.41827 1505.6093 2827803
-1187.3694 784.93268 1497.0541 3682593
-1193.2246 794.74158 1515.762 4932660
-1191.615 799.68958 1525.1991 4735540
-1157.2733 782.57904 1492.5652 7762018
-1145.6127 780.66052 1488.9061 2433558
-1153.838 792.36841 1511.2358 4604470
-1147.9141 794.46686 1515.238 4736312
-1139.0841 794.57123 1515.4371 5722694
-1135.776 798.55975 1523.0441 4604984
-1119.9128 793.71393 1513.802 4143920
-1112.2242 794.63031 1515.5497 3093288
-1104.5106 795.54346 1517.2914 10395283
-1092.5547 793.39099 1513.186 6974050
-1088.686 797.12421 1520.3062 3881776
-1082.8062 799.43494 1524.7134 3421485
0 0 0 0
0 0 0 0
0 0 0 0
-955.76208 730.00531 1392.2944 1291
-952.01746 733.47723 1398.9163 1555
-950.0733 738.40955 1408.3234 1299
-944.15686 740.31458 1411.9567 1301
-938.97961 742.83844 1416.7703 1301
-934.98682 746.35333 1423.4741 1301
-931.63025 750.44482 1431.2775 1301
-926.17645 752.90656 1435.9727 1299
-917.97192 753.15704 1436.4504 1041
-911.42346 754.78369 1439.5529 1035
-913.94385 764.02234 1457.1731 517
-928.22113 783.35925 1494.0532 5988705
-949.94659 809.4151 1543.7478 4079418
-941.33362 809.87585 1544.6266 1776148
-932.92151 810.5202 1545.8556 5593169
-917.56122 805.08087 1535.4816 4803397
-916.7973 812.46802 1549.5706 7895666
-907.23804 812.13123 1548.9282 4276538
-894.87061 809.24823 1543.4296 9211269
-891.36237 814.39978 1553.2549 5987412
-889.40259 821.08844 1566.0117 5790035
-882.1297 822.96136 1569.584 7302762
-873.28149 823.38898 1570.3994 6513245
-866.31897 825.6228 1574.6599 5855826
-854.90857 823.6203 1570.8406 5921874
-847.7326 825.698 1574.8033 7303526
-838.29749 825.59705 1574.6107 6382424
-836.56146 833.16168 1589.0383 6382423
-832.23138 838.28552 1598.8108 8026735
-825.17072 840.74536 1603.5023 7566183
-823.85992 849.18915 1619.6064 8092527
-811.31323 846.11407 1613.7416 6447701
-798.3197 842.49408 1606.8375 8092527
-790.27917 844.07684 1609.8562 7105632
-779.65448 842.90454 1607.6204 8026992
-769.44928 842.16248 1606.205 6776669
-761.09857 843.45679 1608.6736 7039841
-756.46161 848.9519 1619.1541 5395016
-751.57318 854.30225 1629.3585 7303012
-746.14606 859.17163 1638.6455 7303013
-734.72369 857.17505 1634.8375 5526602
-720.27698 851.5495 1624.1083 7434599
-711.26196 852.28021 1625.502 8026737
-707.72003 859.67926 1639.6136 5066052
-703.50385 866.45374 1652.5343 7829101
-693.57855 866.28894 1652.2198 6251094
-683.6264 866.08521 1651.8314 6053203
-671.80243 863.46985 1646.8431 6184789
-661.46136 862.71136 1645.3966 6645597
-655.46991 867.68811 1654.8884 5724240
-643.24005 864.43237 1648.679 7435110
-629.12744 858.50702 1637.3779 7698282
-619.94537 859.22974 1638.7562 7369319
-612.31207 862.15594 1644.3374 7369319
-603.20477 863.06793 1646.0767 5198407
-588.78204 856.27954 1633.1296 7632234
-589.54736 871.7218 1662.5817 7105632
-577.96381 869.1192 1657.6178 7303009
-569.92096 871.84302 1662.8129 7171680
-559.66748 871.22131 1661.6272 6644566
-551.57654 874.00415 1666.9347 6249809
-540.12909 871.47296 1662.1072 6052429
-534.36066 878.18073 1674.9004 9474180
-526.81085 882.15942 1682.4888 8684664
-523.09186 892.8302 1702.8405 6579287
-508.51062 885.01605 1687.937 8092527
-502.57938 892.24481 1701.724 8815735
-486.01767 880.51074 1679.3442 7368546
-474.75375 878.08453 1674.7169 8223599
-463.94647 876.41742 1671.5372 7236704
-455.28769 878.82465 1676.1284 8420721
-444.88174 877.89154 1674.3489 6841689
-436.70563 881.41632 1681.0715 8420720
-428.1189 884.25775 1686.4907 7631461
-415.27795 878.23804 1675.0098 7170910
-407.00894 881.82904 1681.8586 6381393
-398.06155 884.09381 1686.178 6973783
-386.10736 879.62494 1677.6549 6907734
-378.94 886.11359 1690.0303 7631464
-367.5943 882.91852 1683.9365 5460292
-360.15878 889.19904 1695.9149 6447955
-346.65668 880.43243 1679.1948 9079677
-338.55783 885.27606 1688.433 7040095
-325.23987 876.35211 1671.4128 7171680
-320.52921 890.78827 1698.946 4803135
-314.15219 901.37952 1719.146 1776148
-305.24319 905.17242 1726.3799 1644049
-297.17465 911.80688 1739.0336 197378
-288.52124 917.05927 1749.0511 65536
-279.16058 920.3714 1755.368 65536
-265.82849 910.33948 1736.2349 65536
-258.27411 920.08258 1754.8171 65537
-246.70212 915.73004 1746.516 65537
-238.04076 922.27344 1758.9957 65536
-228.1553 924.4563 1763.1589 591622
-220.34726 935.6701 1784.5463 1314572
-208.76956 931.20032 1776.0214 1380108
-195.41628 917.91559 1750.6843 2959139
-184.49088 915.18494 1745.4762 3157029
-177.62152 933.44537 1780.3032 8026223
-167.82718 937.6698 1788.3604 6183762
-155.54788 927.64435 1769.2393 4867902
-144.45828 923.77728 1761.8639 5657673
-133.13979 917.73004 1750.3304 8223602
-124.01318 927.04596 1768.0981 5921618
-111.59921 911.23938 1737.951 5395017
-102.21682 919.48895 1753.6849 5658188
-93.056061 931.8252 1777.2131 6316119
-82.381989 930.2226 1774.1566 4408120
-71.807457 929.43939 1772.663 4342327
-61.622017 934.28717 1781.9088 5000770
-51.878304 949.22229 1810.3937 6513755
-40.786095 940.83887 1794.4044 3157798
-30.515398 952.17578 1816.0266 3815729
-19.814238 955.11633 1821.6349 7697514
-9.0085182 954.02313 1819.5499 2434074
1.7517583 941.78467 1796.2083 7303265
12.404981 942.43115 1797.4413 4144945
23.191074 947.91125 1807.8931 5066305
33.999146 950.54236 1812.9114 6250323
44.202744 939.06824 1791.0273 5460808
55.136013 944.53735 1801.4584 4868671
66.652016 956.5957 1824.4565 7368805
77.616531 958.47766 1828.0459 7434600
88.541771 959.47302 1829.9441 3158055
99.288445 958.52722 1828.1404 4736832
110.30668 960.13129 1831.1996 5197640
121.53642 963.12402 1836.9075 7302762
134.6615 979.40979 1867.9684 6184537
145.92429 980.70563 1870.4398 6315865
156.42166 977.03766 1863.4441 3091752
168.12859 980.91016 1870.83 6184280
179.55035 982.74274 1874.3252 4144953
190.23564 980.5658 1870.1731 4078904
200.37839 975.98572 1861.438 5263178
215.11768 993.10406 1894.0867 6381659
226.75095 994.89648 1897.5051 6973797
237.42123 992.49384 1892.9229 5723729
252.82013 1009.1833 1924.7535 7894898
263.73828 1007.3182 1921.1963 4934214
277.46613 1015.8945 1937.5535 7039590
288.74399 1015.1756 1936.1824 4868164
298.82474 1010.4636 1927.1954 8158071
308.66821 1005.3257 1917.3964 5789008
320.52307 1006.871 1920.3436 6052179
336.31442 1020.2524 1945.865 6579037
345.1723 1012.4102 1930.9081 5855056
358.55673 1017.9219 1941.4202 5789519
372.34021 1024.1885 1953.3721 6645085
382.30167 1019.881 1945.1567 6118485
391.02112 1012.6094 1931.2881 6184535
409.00366 1029.0573 1962.6581 6974051
426.02551 1042.2455 1987.811 6644831
439.59747 1046.5109 1995.9463 6709856
451.90213 1047.615 1998.052 4342078
461.16125 1041.7826 1986.9283 5065800
468.16876 1031.281 1966.8992 6381660
485.66092 1043.824 1990.8215 6973797
500.65973 1050.5402 2003.631 5986902
514.8736 1055.3363 2012.7783 7105382
516.36078 1034.42 1972.8861 6973795
545.2782 1068.1639 2037.2438 8487290
549.2851 1052.705 2007.7599 6381911
563.73926 1057.4993 2016.9036 6776668
579.55719 1064.5995 2030.4456 6841947
589.20245 1060.303 2022.251 5460293
605.65643 1068.1862 2037.286 4801852
608.84302 1052.819 2007.9771 3157026
621.70227 1054.4464 2011.0811 4275508
630.02985 1048.4712 1999.6849 5723212
645.21381 1053.9161 2010.0697 5393989
660.73553 1059.7053 2021.1111 4867644
672.0791 1058.7065 2019.2064 4143922
683.14856 1057.3186 2016.5591 4341299
691.91699 1052.4783 2007.3274 3091231
706.48859 1056.4795 2014.9589 7038554
719.67383 1058.3092 2018.4484 3157025
729.86768 1055.7518 2013.5709 5130814
743.97174 1058.842 2019.4647 6906969
769.75452 1078.1926 2056.3708 7236191
780.59424 1076.3356 2052.8291 4143920
788.10461 1070.0154 2040.7749 4736315
793.04352 1060.4475 2022.5267 6709849
818.25208 1077.8654 2055.7468 4539193
835.79114 1084.8176 2069.0063 5525575
850.26666 1087.6499 2074.4082 4933695
856.18158 1079.6069 2059.0684 4472888
867.81653 1078.9014 2057.7227 5789005
893.6286 1095.5967 2089.5645 4078387
911.90192 1102.7192 2103.1489 7236450
924.36841 1102.7227 2103.1555 6511959
940.86896 1107.4741 2112.2178 5985870
956.96906 1111.636 2120.1553 2893855
966.2558 1107.8778 2112.9875 3617838
981.19812 1110.6173 2118.2124 6512473
1022.3975 1142.6326 2179.2732 4933438
1037.9076 1145.4968 2184.7361 4670265
1057.194 1152.4067 2197.915 4472884
1074.3763 1156.8832 2206.4526 4604471
1088.5286 1158.0281 2208.6362 5656902
1121.8851 1179.3339 2249.2712 4406835
1128.6348 1172.498 2236.2339 6775640
1135.2009 1165.6326 2223.1396 5065023
1151.0046 1168.301 2228.229 5723465
1163.2799 1167.368 2226.4497 5986893
1181.1976 1172.0548 2235.3884 7038812
1193.3712 1171.001 2233.3787 788738
1201.3672 1165.9161 2223.6807 2367251
1218.2974 1169.5182 2230.5505 4275507
1231.0997 1169.1228 2229.7964 4604219
1239.6199 1164.7123 2221.3845 4407351
1254.4333 1166.2455 2224.3086 5986640
1264.9331 1163.778 2219.6025 6051919
1286.5825 1171.5138 2234.3564 7104353
1311.275 1181.8345 2254.0408 5854540
1309.5623 1168.3885 2228.396 4143410
1324.6842 1170.0809 2231.6238 6117199
1350.3816 1180.9886 2252.4275 4998461
1356.3378 1174.587 2240.218 3748394
1370.6681 1175.4912 2241.9426 3551015
1391.9513 1182.2836 2254.8972 2366487
1396.683 1175.0221 2241.0479 4735289
1423.2592 1186.1021 2262.1799 2235412
1436.5826 1186.0338 2262.0498 4604472
1436.9884 1175.4005 2241.7695 4341042
1450.58 1175.6488 2242.2432 5460293
1446.6747 1161.8407 2215.9077 4144175
1454.4199 1157.5535 2207.731 4867643
1466.1162 1156.4594 2205.644 4406835
1528.5122 1195.0225 2279.1934 1972750
1542.5735 1195.4521 2280.0127 3749162
1554.2869 1194.0704 2277.3774 2959649
1559.4376 1187.7144 2265.2549 5393989
1573.8728 1188.4775 2266.7104 1775630
1595.0983 1194.312 2277.8384 4012595
1623.9954 1205.7445 2299.6428 3091493
1633.9929 1203.0714 2294.5444 4538937
1663.1077 1214.4016 2316.1541 4341048
1659.9651 1202.1852 2292.8542 4473146
1665.8896 1196.6803 2282.355 5591115
1694.6268 1207.519 2303.0273 4275254
1738.5784 1228.9395 2343.8811 3880494
1719.6553 1205.9287 2299.9941 5262403
1731.5607 1204.7286 2297.7053 4932666
1727.203 1192.3207 2274.0403 4603697
1717.1954 1176.2347 2243.3606 5392959
1759.7427 1196.118 2281.2827 5392959
1775.0065 1197.2947 2283.5269 5524288
1788.6469 1197.3668 2283.6646 4668725
1847.6874 1227.6017 2341.3296 4866616
1865.9683 1230.507 2346.8706 4603701
1850.1611 1211.0563 2309.7737 5459010
1899.5475 1234.2515 2354.0125 5919304
1950.1478 1257.8916 2399.0999 4143151
1969.5414 1261.2062 2405.4214 3682601
2004.3132 1274.2499 2430.2988 3024417
2029.637 1281.1434 2443.4465 2564122
2059.4797 1290.7717 2461.8101 1906454
2070.7419 1288.7013 2457.8611 3484971
2086.4153 1289.3857 2459.1665 3024672
2073.2273 1272.3484 2426.6724 3617067
2078.5381 1266.8203 2416.1289 3288101
2096.3186 1268.916 2420.1257 3353639
2090.6682 1256.8964 2397.2017 5393736
2096.1765 1251.7026 2387.2959 4473148
2146.9937 1273.4525 2428.7781 4012341
2160.9543 1273.1975 2428.2917 4276540
2167.1694 1268.4125 2419.1655 4736835
2169.3186 1261.3263 2405.6506 4407870
2202.1936 1272.0811 2426.1626 5855316
2217.5398 1272.637 2427.2227 3947319
2240.7109 1277.647 2436.7781 5065800
2257.1604 1278.785 2438.9485 4736835
2302.2964 1296.0575 2471.8911 5460556
2326.4446 1301.3711 2482.0256 4407870
2330.9177 1295.6813 2471.1736 6447453
2341.6536 1293.522 2467.0554 6118487
2352.3284 1291.3561 2462.9246 6183509
0 0 0 0
0 0 0 0
0 0 0 0
0 0 0 0
0 0 0 0
0 0 0 0
0 0 0 0
0 0 0 0
0 0 0 0
0 0 0 0
0 0 0 0
0 0 0 0
0 0 0 0
0 0 0 0
0 0 0 0
0 0 0 0
-1246.6123 786.40356 1483.0964 1052683
-1236.8232 785.76837 1481.8984 2828065
-1229.4545 786.67267 1483.6039 2039064
-1227.3241 790.96594 1491.7007 7631975
-1224.3524 794.77527 1498.8849 7499875
-1210.5177 791.53735 1492.7783 3288350
-1199.4559 790.07812 1490.0264 3945509
-1206.6385 800.70398 1510.0659 5985093
-1196.5551 799.94543 1508.6354 4670001
-1177.0736 792.8454 1495.2452 2761497
-1170.5231 794.41351 1498.2026 6315599
-1151.4662 787.453 1485.0756 7433823
-1147.5409 790.81287 1491.4121 854789
-1147.8729 797.18164 1503.423 6710357
-1128.8114 790.07611 1490.0226 5459779
-1117.4305 788.27686 1486.6293 5657415
-1125.8008 800.4928 1509.6676 4802363
-1113.4308 798.03906 1505.04 3420712
-1094.7325 790.97345 1491.7148 6776928
-1093.0405 796.18036 1501.5347 8619132
-1084.3417 796.32684 1501.811 4605759
-1073.4548 794.85565 1499.0364 3948598
-1070.3777 799.19104 1507.2126 6185304
-1063.079 800.42084 1509.532 4542022
0 0 0 0
0 0 0 0
-954.78101 737.4986 1390.8654 1549
-951.44916 741.32477 1398.0813 1810
-947.68976 744.88208 1404.7902 1299
-941.16913 746.31293 1407.4886 1298
-939.48499 751.63885 1417.5328 1298
-936.76501 756.22467 1426.1814 1555
-931.89777 759.14478 1431.6885 1555
-928.72546 763.51196 1439.9247 1298
-921.40808 764.52094 1441.8274 1295
-914.9101 766.23486 1445.0598 780
-911.43066 770.5332 1453.1661 263
-930.81177 794.42444 1498.2231 260
-930.59204 801.88593 1512.2949 0
-926.72369 806.31787 1520.6533 2829867
-913.99146 803.04895 1514.4883 6711137
-906.45117 804.3222 1516.8896 5921619
-906.77905 812.67255 1532.6377 1908241
-893.53778 808.9079 1525.5378 5856083
-893.48181 817.12469 1541.0342 6974820
-880.48975 813.55853 1534.3086 5658705
-877.71564 819.45758 1545.4338 7105895
-871.50391 822.23804 1550.6774 8355962
-869.35419 828.95074 1563.337 6974308
-857.90668 826.84686 1559.3694 7171686
-849.92914 828.078 1561.6913 6447964
-842.49713 829.87354 1565.0775 7698285
-837.82098 834.45398 1573.7158 2763555
-831.66235 837.64423 1579.7324 9540488
-823.07062 838.42877 1581.2119 8290421
-819.82764 844.74255 1593.1193 7698284
-811.79657 846.21252 1595.8915 6908510
-800.55206 844.32788 1592.3372 8553334
-796.9469 850.55139 1604.0743 8948348
-781.05261 843.65125 1591.0612 7237218
-777.16187 849.70636 1602.4807 6776669
-768.78284 850.94348 1604.8137 6316118
-760.14984 851.92694 1606.6685 6974048
-753.7887 855.51367 1613.4327 8750458
-745.4187 856.88348 1616.0161 6184532
-742.38776 864.5061 1630.3917 4605504
-732.79846 864.59198 1630.5537 5921360
-714.06348 853.74536 1610.0979 7500392
-703.63049 852.66541 1608.0612 8816252
-697.54553 856.89709 1616.0417 6579034
-698.888 870.49774 1641.6917 7434599
-683.06525 862.80054 1627.1753 6316631
-669.58392 857.88287 1617.9009 6974307
-666.07648 865.78662 1632.8066 4539966
-657.41888 867.13037 1635.3409 7632237
-647.49817 866.8233 1634.762 6645086
-635.02979 863.04456 1627.6354 6513756
-623.98486 861.11353 1623.9937 7566701
-610.81317 856.14124 1614.6162 6908767
-606.30835 863.35168 1628.2146 5987666
-597.6283 864.75385 1630.8591 6777182
-590.02795 867.79028 1636.5856 7039839
-582.58881 871.16919 1642.9578 8092527
-572.95923 871.33185 1643.2646 6645081
-561.75861 869.06964 1638.9982 7500133
-554.32898 872.66437 1645.7776 8026219
-546.00415 874.95325 1650.0944 6973788
-537.83575 877.58099 1655.0499 7039325
-529.76141 880.46259 1660.4845 8092526
-520.92889 882.16931 1663.7034 7039839
-513.57404 886.49268 1671.8568 7763819
-502.28467 884.06091 1667.2706 6842460
-492.6763 884.54962 1668.1924 7237217
-478.78015 877.20264 1654.3364 8026734
-465.42896 870.56757 1641.8232 6710874
-457.6951 874.38062 1649.0144 7237218
-449.1127 876.70361 1653.3954 6776667
-441.17847 880.42377 1660.4113 7369060
-428.94724 875.54285 1651.2062 8026733
-418.27676 873.69409 1647.7196 5658441
-408.22275 873.07538 1646.5529 9145469
-401.42709 879.56567 1658.7931 5789768
-391.60129 879.57605 1658.8125 5065786
-381.68604 879.38068 1658.4441 7829352
-366.22705 866.06506 1633.3318 7500389
-362.12259 879.60699 1658.8708 6776665
-356.92703 891.18036 1680.6973 7763305
-346.3215 889.52264 1677.5712 5395270
-334.75793 885.23364 1669.4824 10066320
-327.37253 892.0686 1682.3726 6118739
-321.04361 902.30225 1701.6725 4342330
-313.13736 908.62274 1713.5924 197378
-306.14719 918.11426 1731.4926 196608
-295.43619 916.71851 1728.8604 65538
-287.66382 924.66846 1743.8533 65539
-277.8096 926.26971 1746.8732 4
-261.48315 905.57983 1707.8536 4
-254.80298 917.97644 1731.2328 4
-244.85785 919.15704 1733.4594 4
-234.172 917.53894 1730.4076 4
-224.87405 921.45966 1737.8018 65538
-214.95187 923.07611 1740.8503 131074
-204.58481 922.84869 1740.4214 131073
-195.48521 928.61798 1751.3019 196864
-184.04036 923.26892 1741.2139 3946801
-175.01672 930.15234 1754.1954 5131075
-164.14671 927.47253 1749.1416 5393991
-155.72623 939.20477 1771.2678 4078387
-143.40363 927.39801 1749.0011 4802109
-133.51733 930.73474 1755.2939 855306
-122.84369 928.68292 1751.4243 8487032
-111.87221 923.79303 1742.2024 3158057
-101.51174 923.46735 1741.5883 6645085
-91.304031 924.61493 1743.7523 3421487
-81.592018 931.7157 1757.1439 7303015
-70.513245 923.00366 1740.7136 4934724
-60.24921 923.79803 1742.2118 6776928
-50.1245 927.49896 1749.1914 8092786
-39.851707 929.67517 1753.2955 6118739
-29.501139 930.93219 1755.6663 4934464
-19.219505 936.91943 1766.9578 5921359
-8.9124975 954.52228 1800.1554 6184532
1.7394633 945.74457 1783.6013 6974305
12.302362 945.19885 1782.5721 7039841
22.788799 941.99689 1776.5333 5592395
33.23774 939.75824 1772.3115 5000256
43.989212 945.09454 1782.3752 5855566
54.650467 946.80139 1785.5942 6250325
66.267677 961.82941 1813.936 6184532
76.645935 957.18982 1805.1862 5526346
87.158867 955.16254 1801.3628 3618607
98.850197 965.08246 1820.071 4868420
107.60329 947.18646 1786.3206 6579038
121.7524 975.74084 1840.1719 6908004
133.6996 983.40472 1854.6254 6118744
145.2464 987.18286 1861.7507 5263434
155.25874 980.73486 1849.5902 6711137
164.1974 968.80225 1827.0862 7303272
174.64078 966.67493 1823.0742 4079158
188.69258 983.60516 1855.0035 4013364
200.31175 986.68878 1860.8188 4671294
211.39906 986.96759 1861.3446 5855314
221.58183 983.20496 1854.2488 7368555
233.19724 985.85455 1859.2456 6644831
245.24864 990.02515 1867.111 6381659
255.42474 986.5921 1860.6365 5855570
273.11111 1011.2514 1907.1422 5066308
284.35275 1011.0364 1906.7366 592137
296.35605 1013.4424 1911.2742 2892572
307.37674 1012.4348 1909.3739 2959398
315.29001 1001.6269 1888.991 393987
325.77838 999.46033 1884.905 2762532
341.69333 1013.5338 1911.4464 8025961
353.08942 1013.7303 1911.817 1052170
362.98914 1009.7521 1904.3145 5657420
376.03113 1014.4912 1913.2521 5921108
386.9072 1013.2806 1910.969 7368554
398.02292 1012.7485 1909.9655 7369324
417.06058 1031.8456 1945.9811 6184793
430.22937 1035.7854 1953.4114 6710623
452.53281 1060.9344 2000.8406 4671041
452.64212 1034.0951 1950.2235 3157802
455.4126 1014.5203 1913.307 8684159
476.51602 1035.7449 1953.3348 9539985
490.08566 1039.9756 1961.3137 5526611
501.78156 1040.1265 1961.5981 6447711
516.36023 1046.1106 1972.8839 4803142
527.52545 1045.0677 1970.917 7236969
545.27496 1056.8312 1993.1021 6184281
554.94592 1052.7703 1985.4436 6184022
570.89716 1060.5448 2000.1057 7828591
579.21613 1054.1133 1987.9762 1117964
596.38989 1063.7314 2006.1155 5065799
595.66467 1041.6729 1964.5146 6973796
604.97406 1037.6716 1956.9686 3486511
617.51471 1039.2592 1959.9625 6973538
635.59351 1049.9364 1980.099 9342084
647.06659 1049.5125 1979.2994 5986126
655.04456 1043.5356 1968.0276 6183502
676.98322 1059.6191 1998.3599 3353633
691.21783 1063.2987 2005.2992 3156510
701.99512 1061.6251 2002.1432 4143405
713.89679 1061.6796 2002.2457 4735542
725.93567 1061.9327 2002.7233 5130557
743.12946 1069.5975 2017.1783 5788745
748.48492 1060.2501 1999.5499 6051916
766.23291 1068.475 2015.0613 1315596
783.51038 1075.8013 2028.8782 4670521
789.63495 1067.8241 2013.8339 6710619
807.86188 1076.2067 2029.6427 6973534
821.75153 1078.6503 2034.2511 6315348
840.25787 1086.9955 2049.9895 5262660
851.95111 1086.4147 2048.8943 5064513
865.56879 1088.2699 2052.3931 3880496
872.28351 1081.5148 2039.6533 4078386
877.8299 1073.5156 2024.5676 6775901
918.16876 1107.7069 2089.0498 5328455
929.92413 1106.9633 2087.6472 6841696
948.7597 1114.5565 2101.9675 6973281
966.97107 1121.2291 2114.5515 6446423
977.42108 1118.8468 2110.0586 5986128
997.75677 1127.6976 2126.7507 5591625
1026.1104 1145.2766 2159.9033 3420196
1020.6516 1125.1486 2121.9434 4077612
1042.8864 1135.6676 2141.7815 4669751
1083.7554 1165.9818 2198.9517 4802106
1067.1107 1134.4335 2139.4539 4407348
1090.3787 1145.5583 2160.4346 6249296
1104.4843 1146.9109 2162.9854 3617576
1129.2572 1159.1823 2186.1282 5393986
1153.6686 1170.8082 2208.054 5788745
1171.725 1175.7966 2217.4617 5262658
1182.4082 1173.3575 2212.8618 1117702
1199.8033 1177.5594 2220.7861 3683627
1207.0531 1171.8208 2209.9636 788486
1214.7177 1166.6038 2200.1248 5327939
1229.163 1167.9406 2202.6458 4077619
1250.1088 1175.3612 2216.6404 4932413
1265.6046 1177.5565 2220.7808 7367522
1280.0695 1178.7573 2223.0454 5327684
1291.1847 1176.8806 2219.5061 4472629
1310.7339 1182.6516 2230.3896 4143150
1314.5576 1174.2601 2214.564 5919563
1323.3402 1170.4205 2207.3228 4932669
1333.6018 1167.9512 2202.6658 4143152
1361.881 1181.1564 2227.5698 4735033
1367.6007 1174.7302 2215.4504 3748397
1379.6365 1173.7998 2213.6958 2958879
1401.9207 1181.5243 2228.2637 4406581
1409.9155 1177.1741 2220.0596 4209972
1392.7161 1152.0634 2172.7026 3617578
1407.0366 1153.2474 2174.9358 7236194
1393.1349 1131.4882 2133.8994 4012851
1408.6783 1133.8204 2138.2979 5460294
1459.3745 1164.1525 2195.5017 4604728
1490.5983 1178.5526 2222.6592 3420198
1507.9097 1181.7969 2228.7776 2301718
1525.7151 1185.3685 2235.5134 2696733
1558.922 1200.7416 2264.5059 5657419
1570.1583 1199.0741 2261.3611 2959904
1588.5337 1202.8402 2268.4639 4867902
1607.3339 1206.8624 2276.0493 5262659
1621.1558 1207.1108 2276.5178 3749420
1637.85 1209.4761 2280.9785 6183762
1638.9587 1200.3877 2263.8386 4933695
1652.6251 1200.5698 2264.1819 4473144
1660.0811 1196.2733 2256.0791 4407094
1687.7911 1206.5244 2275.4119 4603446
1703.267 1207.9366 2278.0752 4734519
1705.4207 1199.9529 2263.0186 3945258
1699.7241 1186.6134 2237.8613 4866359
1718.3242 1190.3113 2244.8352 5129532
1738.6173 1195.1158 2253.8962 5063738
1756.2336 1198.0214 2259.376 5129787
1786.3553 1209.3489 2280.7388 4537651
1805.2345 1212.9524 2287.5347 4669236
1824.9601 1217.0667 2295.2937 3419427
1847.1062 1222.7223 2305.96 4537651
1854.0499 1218.3053 2297.6296 4208686
1878.3361 1225.2655 2310.7561 4011307
1911.8269 1238.0857 2334.9341 5853770
1928.7444 1240.0662 2338.6689 4472886
1966.3063 1255.1965 2367.2039 4209716
2011.9381 1275.2277 2404.981 3485738
2036.7489 1281.8728 2417.5132 3485741
2047.8824 1279.8772 2413.7495 2828066
2054.167 1274.8998 2404.3625 2433565
2069.1257 1275.3373 2405.1877 1643536
2074.6646 1270.0027 2395.127 4077620
2088.9092 1270.0333 2395.1848 5064772
2121.0469 1280.869 2415.6201 3683632
2108.9673 1265.0363 2385.7607 3617584
2116.5037 1261.1025 2378.342 3684404
2119.4036 1254.4763 2365.8455 4407870
2132.219 1253.7676 2364.509 4539456
2105.2815 1229.8458 2319.3943 6447453
2186.7729 1269.1647 2393.5466 7500141
2207.0603 1272.6836 2400.1831 1118220
2251.4658 1289.9762 2432.7954 6381659
2285.1023 1300.9177 2453.4304 3618353
2322.259 1313.7123 2477.5601 6184280
2337.5413 1314.0494 2478.1958 4737091
2347.9255 1311.6461 2473.6633 6250074
2319.2175 1287.5696 2428.2568 4078133
0 0 0 0
0 0 0 0
0 0 0 0
0 0 0 0
0 0 0 0
0 0 0 0
0 0 0 0
0 0 0 0
0 0 0 0
0 0 0 0
0 0 0 0
0 0 0 0
0 0 0 0
0 0 0 0
0 0 0 0
0 0 0 0
-1246.5979 795.18353 1483.0793 3026468
-1233.8937 792.66846 1478.3884 5394248
-1225.7561 793.0719 1479.1409 5460039
-1223.2305 797.13837 1486.7252 1512977
-1205.21 791.09308 1475.4503 4078129
-1200.3075 793.63293 1480.1873 4604730
-1211.9812 807.25092 1505.5859 854790
-1196.5354 802.87372 1497.4221 2170131
-1184.7727 800.92096 1493.78 5986124
-1179.6528 803.4632 1498.5216 3026208
-1156.1687 793.44122 1479.8298 8026218
-1148.0334 793.88007 1480.6482 4407344
-1140.4768 794.72888 1482.2313 5196861
-1127.7042 791.92786 1477.0072 6776405
-1123.5726 795.19867 1483.1074 6710613
-1100.9923 785.36115 1464.7598 4144943
-1122.5327 807.08966 1505.2852 3683880
-1112.2845 806.1275 1503.4907 8815992
-1090.2028 796.50415 1485.5425 6579286
-1079.8734 795.38049 1483.4467 4276787
-1078.6577 801.00598 1493.9386 7434854
-1076.8671 806.29407 1503.8014 5591112
-1062.4487 802.13684 1496.0477 3815473
0 0 0 0
0 0 0 0
-961.27106 744.38403 1388.3342 200209
-955.29529 746.14282 1391.6145 1549
-956.08698 753.26404 1404.8961 1554
-951.03546 755.86621 1409.7495 1555
-943.99274 756.91803 1411.7112 1554
-938.94971 759.60638 1416.7252 1555
-936.67651 764.60431 1426.0466 1555
-933.84265 769.23138 1434.6765 1555
-908.6748 755.3772 1408.8374 1554
-897.18933 752.74573 1403.9296 1294
-916.09351 775.80078 1446.929 1035
-916.65314 783.6095 1461.4928 521
-920.75372 794.62299 1482.0338 259
-915.76215 797.92639 1488.1949 5197906
-913.48151 803.67914 1498.9243 3224109
-909.04803 807.6322 1506.2971 8947840
-903.47784 810.64386 1511.9139 2368536
-897.85724 813.66998 1517.558 4539960
-893.66205 818.06232 1525.75 6513495
-881.54718 815.22052 1520.45 5987666
-873.70483 816.31201 1522.4856 11185571
-863.6452 815.33295 1520.6595 3882037
-862.94385 823.26123 1535.4463 6316379
-857.45215 826.73962 1541.9338 5921364
-847.78918 826.22784 1540.9794 6250585
-844.87097 832.34973 1552.3971 5066310
-840.66187 837.32062 1561.6682 8224627
-833.88794 839.81915 1566.3281 5921108
-825.88263 841.11975 1568.7539 8224115
-817.55444 842.11749 1570.6147 7040096
-815.92456 850.11707 1585.5347 7105631
-808.87524 852.59088 1590.1484 7171426
-794.59454 847.41083 1580.4873 6908255
-790.63556 853.24634 1591.371 7895150
-783.5379 855.79474 1596.1239 6250840
-775.7724 857.66693 1599.6157 6447962
-767.87048 859.43286 1602.9093 4539708
-755.41327 856.08057 1596.6571 6579291
-748.09351 858.53918 1601.2427 4210746
-742.05261 862.54755 1608.7185 5197637
-733.46863 863.66577 1610.8041 8092272
-725.18665 865.17377 1613.6166 3750192
-712.68402 861.61938 1606.9873 7829355
-702.63196 860.97156 1605.7792 7829356
-694.46368 862.646 1608.902 3487020
-691.98145 871.5282 1625.468 6053459
-673.93903 860.78717 1605.4352 5921617
-663.19922 859.19922 1602.4736 6579548
-658.34924 865.30658 1613.8643 6974562
-649.81482 866.67987 1616.4255 6908767
-642.49878 869.74365 1622.1398 7698284
-637.7063 876.36841 1634.4955 6908768
-626.52582 874.28351 1630.6069 7106147
-607.26611 860.6825 1605.24 5658701
-593.41479 854.43585 1593.5896 7961454
-588.78363 861.47766 1606.7231 7106146
-583.13287 867.23474 1617.4603 7105632
-576.27759 871.36279 1625.1597 6776667
-569.23749 875.34698 1632.5903 6644824
-559.45331 875.17633 1632.2721 6907739
-546.086 869.29584 1621.3046 8355185
-543.52826 880.72021 1642.6118 7237217
-532.1225 877.96277 1637.469 5855820
-520.3045 874.40997 1630.8428 6053456
-502.64648 860.72247 1605.3145 8553080
-503.55658 878.91583 1639.2466 5789772
-496.89886 884.35614 1649.3932 7039582
-484.40692 879.42303 1640.1925 7894890
-474.2402 878.59564 1638.6494 6513238
-465.20502 879.87378 1641.0332 5328706
0 0 0 0
-444.01004 876.42987 1634.6101 7500900
-435.36981 878.54224 1638.5498 6052944
-425.69104 878.6076 1638.6716 7961196
-413.1658 872.66382 1627.5861 7895403
-408.74768 883.96851 1648.6702 6973786
-398.35916 882.59888 1646.1157 5394755
-389.61249 884.88947 1650.3879 6841945
-377.03998 878.38519 1638.2568 7499875
-369.95126 884.65009 1649.9414 6513235
-358.81708 881.31873 1643.7283 6842715
-352.44284 889.81915 1659.5822 6710874
-344.49182 894.71234 1668.7083 8421237
-334.58417 894.66272 1668.6158 4539710
-321.17505 884.96234 1650.5238 6513502
-318.65173 905.58917 1688.9945 263171
-311.63904 914.38171 1705.3932 0
-305.06061 925.08038 1725.3472 65538
-296.155 929.21948 1733.0669 4
-278.31705 904.62286 1687.1921 4
-268.05554 903.73657 1685.5393 4
-259.49982 908.75543 1694.8998 5
-252.91769 921.36816 1718.4235 6
-242.49612 920.46545 1716.7399 6
-232.9808 923.07422 1721.6053 6
-223.0144 924.05273 1723.4305 6
-213.61087 927.56958 1729.9896 65540
-203.63609 928.83551 1732.3506 65539
-193.14058 927.73431 1730.2969 65538
-183.78641 932.29944 1738.8113 65536
-171.70265 922.73804 1720.9784 1381650
-160.48419 916.91272 1710.1138 5329227
-151.74248 925.40674 1725.9557 2762787
-142.73396 933.38379 1740.8335 4934466
-133.42635 940.49548 1754.0975 5921362
-120.71397 922.78204 1721.0604 7105634
-110.40194 921.84119 1719.3057 4276535
-100.44318 923.95898 1723.2555 8750715
-90.922508 931.04199 1736.4659 4473912
-80.04583 924.27539 1723.8457 3750190
-70.554947 933.87146 1741.7432 6776667
-60.478516 937.67798 1748.8425 6118741
-50.074596 936.93127 1747.4498 6184532
-39.970829 942.87561 1758.5365 3750189
-29.715391 948.1731 1768.4167 5592904
-19.07946 940.48743 1754.0825 5724491
-8.7461338 947.17389 1766.5532 5329221
1.7133001 941.93066 1756.7742 8158320
12.155897 944.38409 1761.35 3420968
22.543968 942.29144 1757.447 5592393
32.976215 942.7843 1758.3663 6381909
43.36834 942.16895 1757.2185 4605499
53.794487 942.38782 1757.6268 4079155
65.685234 964.03101 1797.9929 5658445
76.678986 968.30499 1805.9644 5789775
86.72348 961.01318 1792.3645 5855311
97.062012 958.21527 1787.1462 3618607
107.22768 954.42932 1780.0852 9145991
122.20899 990.34625 1847.073 7106152
132.96089 988.90149 1844.3784 7171688
142.06566 976.3562 1820.9805 7829362
148.12245 946.11371 1764.5759 6184537
162.23926 967.94733 1805.2971 6052438
172.85905 967.50635 1804.4747 4276281
184.9937 975.1015 1818.6404 5526604
198.55231 988.95294 1844.4744 3223597
207.79614 980.98914 1829.6212 5460558
218.08041 978.48352 1824.9481 7763312
233.16452 996.73297 1858.9847 6118487
242.46625 989.73242 1845.9281 5460557
253.84705 991.4566 1849.1438 6776417
267.0296 999.78381 1864.6748 5197128
278.97424 1002.9987 1870.6709 7039076
290.06555 1003.0172 1870.7053 4078648
303.08475 1009.4551 1882.7126 5329229
313.44382 1006.8907 1877.9298 1973528
323.84238 1004.6247 1873.7035 2631460
336.31638 1008.734 1881.3676 1184272
348.09323 1010.5557 1884.7651 591105
357.46103 1005.4876 1875.3129 2565153
368.02829 1003.9975 1872.5336 7630954
384.69263 1018.7408 1900.031 6842718
398.67258 1025.739 1913.0831 4802881
409.08853 1023.4339 1908.7839 7039590
422.19916 1027.8127 1916.951 5592400
436.06851 1033.7609 1928.0447 6908255
446.48654 1031.4325 1923.702 2763299
451.75629 1017.6229 1897.946 7895158
467.57678 1027.6735 1916.691 3947578
481.52567 1033.2313 1927.0569 4934471
488.79486 1024.5306 1910.8296 7105640
509.8494 1044.4645 1948.0077 6842725
520.79907 1043.2733 1945.7861 6645345
536.86768 1052.1659 1962.3716 6447453
546.42535 1048.1919 1954.9595 7763312
556.25403 1044.8917 1948.8044 5395020
574.25146 1056.7582 1970.9364 4934469
582.69934 1050.9286 1960.0638 8618362
592.70532 1048.082 1954.7546 6118226
605.14551 1049.5664 1957.5232 6578777
615.54584 1047.5237 1953.7133 6183764
625.44177 1044.7137 1948.4727 8091759
633.2016 1038.5024 1936.8882 5920845
650.51147 1047.8962 1954.4083 3552295
672.12488 1063.7726 1984.0189 1907215
685.9317 1066.96 1989.9636 4472883
697.43073 1066.5104 1989.1251 1906960
709.78137 1067.3566 1990.7032 3419939
720.54083 1065.8214 1987.8401 5920329
734.05682 1068.3474 1992.5513 5920330
745.8703 1068.3549 1992.5651 4604728
759.31201 1070.658 1996.8605 4012593
775.77972 1077.0916 2008.8599 4538937
772.96729 1056.9669 1971.3257 5789004
785.10461 1057.5796 1972.4684 7104866
801.69006 1064.0782 1984.5889 8815483
820.68787 1073.5446 2002.2443 3420457
837.46484 1079.8774 2014.0557 6446933
845.82831 1075.3359 2005.5853 6117713
861.42725 1079.9915 2014.2682 5459784
879.78772 1087.9347 2029.083 6184020
898.36578 1095.9292 2043.9933 8090991
939.57166 1130.9476 2109.3054 1644051
949.10352 1127.4216 2102.7292 4274739
941.31305 1103.6766 2058.4431 3550760
960.38788 1111.6356 2073.2871 3551274
962.85828 1100.4169 2052.3633 3485992
976.96161 1102.6071 2056.4482 4801850
994.15735 1108.1904 2066.8616 5986377
1022.5767 1125.9966 2100.0713 5262144
1037.076 1128.231 2104.2388 5262145
1058.4159 1137.7657 2122.0217 4012077
1078.418 1145.655 2136.7361 4143407
1099.7532 1154.7614 2153.72 4340529
1111.9945 1154.2196 2152.7095 4800823
1130.2797 1159.892 2163.2891 5525575
1153.1274 1170.0671 2182.2664 2499099
1162.942 1166.9382 2176.4309 2959647
1175.0815 1166.1857 2175.0271 4538678
1201.9226 1179.8811 2200.5703 4275508
1210.0195 1175.0798 2191.6155 5525574
1226.0686 1178.0209 2197.1008 3354154
1230.9562 1170.2888 2182.6799 2367001
1250.7202 1176.7137 2194.6628 1446671
1265.7612 1178.6085 2198.1968 3946034
1286.2258 1185.4635 2210.9819 5590858
1293.3746 1180.0314 2200.8506 2564637
1297.5925 1172.0603 2185.9839 2695965
1319.5228 1180.0875 2200.9553 6116942
1312.2585 1162.1035 2167.4138 4867135
1337.3962 1172.8845 2187.5212 3354154
1362.558 1183.4794 2207.2815 3419946
1360.4119 1170.3795 2182.8491 5393992
1360.1984 1159.1733 2161.9487 1775121
1371.8606 1158.2024 2160.1379 4012337
1381.5137 1155.569 2155.2263 3222820
1377.4098 1141.5822 2129.1399 7500135
1389.2626 1140.954 2127.9683 6776412
1418.0139 1154.0905 2152.4688 5986383
1440.0542 1161.5792 2166.436 5722956
1463.5461 1170.0966 2182.3213 2893602
1482.0258 1174.4922 2190.5195 3749166
1486.8483 1168.0825 2178.5649 2499354
1530.6143 1192.1141 2223.3857 2630684
1556.2095 1201.704 2241.2717 2828320
1564.9225 1198.2054 2234.7466 5394245
1569.8928 1191.924 2223.0312 3420456
1597.0225 1202.4314 2242.6284 3420458
1608.5393 1201.1072 2240.1587 2104854
1617.6425 1198.0171 2234.3953 3289129
1623.4932 1192.5879 2224.2695 3683371
1645.5331 1199.0427 2236.3083 4538680
1669.967 1207.125 2251.3823 5459013
1682.8365 1206.786 2250.75 4801336
1688.1826 1201.0996 2240.1445 4405552
1706.4858 1204.6488 2246.7639 4932153
1718.1481 1203.4912 2244.605 4273966
1738.6173 1208.4729 2253.8962 4405552
1753.4001 1209.4565 2255.7307 4405809
1778.3541 1217.3878 2270.5232 4603188
1799.0835 1222.3297 2279.7402 5129532
1811.1453 1221.3529 2277.9185 4011052
1816.2408 1215.7278 2267.427 4143150
1806.2712 1200.1752 2238.4202 3879464
1815.9061 1197.7804 2233.9539 5722183
1855.339 1214.933 2265.9448 5064254
1887.7853 1227.2969 2289.0044 3617319
1895.2141 1223.3361 2281.6172 4275250
1946.0776 1247.2693 2326.2544 6776156
1978.2404 1258.9642 2348.0667 2696478
1998.0504 1262.6897 2355.0146 4078131
2026.3828 1271.7118 2371.8418 3618353
2073.4353 1292.2769 2410.1973 2894372
2075.1384 1284.4899 2395.6738 2169880
2077.5508 1277.2446 2382.1609 7038813
2095.4983 1279.5836 2386.5232 3090724
2126.2639 1289.6659 2405.3274 3617327
2129.2046 1282.8494 2392.614 3485998
2105.4172 1260.1259 2350.2329 4604479
2113.0112 1256.3597 2343.209 5065543
2138.3591 1263.1299 2355.8359 5460558
2177.9534 1278.1732 2383.8928 5460558
2197.3032 1281.2184 2389.5723 6184281
2244.6987 1300.4728 2425.4832 5855316
2234.0762 1286.0831 2398.6455 4013112
2256.5513 1290.8082 2407.458 5197899
2255.7898 1282.2655 2391.5251 4671042
2315.9775 1308.2587 2440.0044 4868163
2322.3704 1303.73 2431.5581 5065285
0 0 0 0
0 0 0 0
0 0 0 0
0 0 0 0
0 0 0 0
0 0 0 0
0 0 0 0
0 0 0 0
0 0 0 0
0 0 0 0
0 0 0 0
0 0 0 0
0 0 0 0
0 0 0 0
0 0 0 0
0 0 0 0
0 0 0 0
-1227.7875 797.46356 1471.0723 3026466
-1215.5076 795.13348 1466.7738 6645080
-1210.3549 797.46558 1471.076 7368289
-1207.797 801.55377 1478.6173 5591877
-1199.1825 801.65277 1478.7999 1907731
-1190.0458 801.40155 1478.3365 5723463
-1178.3728 799.42596 1474.6923 4342060
-1157.4642 791.10852 1459.3491 6315596
-1151.173 792.73169 1462.3434 3618086
-1148.4243 796.83759 1469.9175 8223339
-1133.856 792.74243 1462.3632 2104848
-1120.5868 789.49945 1456.381 5986634
-1124.3473 798.29749 1472.6105 7697250
-1114.4025 797.42596 1471.0029 5855301
-1107.0114 798.38257 1472.7676 4078888
-1103.2297 801.97833 1479.4005 7631459
-1090.8829 799.35522 1474.5618 6382421
-1084.1884 800.86523 1477.3472 6514007
-1078.5922 803.21753 1481.6865 7237986
-1069.2145 802.76941 1480.8599 7369061
-1071.6708 811.27228 1496.545 2565661
-1064.0989 812.26233 1498.3713 1907479
0 0 0 0
0 0 0 0
-957.7243 749.83466 1383.2117 595997
-962.32501 759.94104 1401.8549 1040
-956.69647 762.07526 1405.7917 1300
-949.64948 763.10706 1407.6951 1554
-943.59851 764.9646 1411.1217 1555
-939.76862 768.67206 1417.9608 1555
-936.54529 772.94708 1425.8469 1555
-931.06958 775.42401 1430.4161 1555
-927.87701 779.86542 1438.6091 1554
-921.69702 781.8551 1442.2794 782
-915.63348 783.98169 1446.2024 779
-911.74542 788.02875 1453.668 519
