# .PCD v0.7 - Point Cloud Data file format
VERSION 0.7
FIELDS x y z rgb
SIZE 4 4 4 4
TYPE F F F U
COUNT 1 1 1 1
WIDTH 1321
HEIGHT 1
VIEWPOINT 0 0 0 1 0 0 0
POINTS 1321
DATA ascii
-385.50278 633.7807 2517.8767 4603440
-376.51797 643.93384 2558.2129 4011817
-354.82751 632.29761 2511.9846 5196091
-348.19513 647.65051 2572.9785 6577746
-331.46915 644.77557 2561.5569 4933177
-317.46542 647.17413 2571.0859 6446160
-304.44937 651.9295 2589.978 5459266
-289.27954 652.33301 2591.5811 4998714
-274.54541 653.8194 2597.4861 5788487
-258.27011 651.59412 2588.6455 6052171
-243.0146 651.823 2589.5549 2499609
-234.80713 672.2616 2670.7532 3288868
-217.95413 669.11316 2658.2451 4538937
-205.33807 679.495 2699.4897 3552041
-187.28944 672.13483 2670.2495 2630680
-170.69853 669.13043 2658.3135 3420197
-155.50729 671.55957 2667.9641 5065021
-141.9735 682.50629 2711.4531 5657158
-124.88499 676.97791 2689.49 4342066
-108.95891 677.05493 2689.7961 4407602
-92.794365 675.42285 2683.312 2959647
-76.947952 675.91003 2685.2476 4538677
-61.130116 676.96777 2689.4497 5591364
-45.697891 684.54797 2719.5645 6051916
-29.618872 685.42041 2723.0303 5328193
-13.499839 686.34698 2726.7114 5656902
2.6741865 690.20599 2742.0425 7499362
19.091995 696.32898 2766.3677 5788993
35.602993 698.62311 2775.4819 4538163
51.949181 697.25525 2770.0476 3813670
68.323982 696.83618 2768.3828 1642762
84.678482 696.41241 2766.6992 4735031
101.69137 700.66248 2783.5837 4603187
117.01472 693.7099 2755.9626 4800823
133.47433 694.37158 2758.5913 3222048
150.09261 695.62421 2763.5679 4866614
172.18808 719.51782 2858.4919 5723465
190.91727 726.3244 2885.5332 4736568
205.55904 717.74011 2851.4297 5196347
222.69142 718.49579 2854.4319 5130038
238.62509 715.55023 2842.7297 5590586
254.19774 711.98199 2828.5537 5393462
281.4256 739.48077 2937.8005 2432530
296.89865 734.68756 2918.7583 2564892
316.68567 740.50958 2941.8879 4603187
334.34506 741.00861 2943.8704 3550754
350.51193 738.31415 2933.166 5590335
367.66257 737.84875 2931.3169 6248520
387.34839 742.28351 2948.9353 6643022
407.83157 747.79749 2970.8411 7892830
427.93106 752.1806 2988.2544 6379594
449.01056 757.86945 3010.855 4143143
472.05219 766.30878 3044.3826 3814954
490.78375 767.38745 3048.668 6117712
506.7674 764.24548 3036.1855 6710102
526.0188 766.07806 3043.4661 6578773
549.01898 773.06775 3071.2346 2499098
572.86914 780.7674 3101.8235 5656903
586.46954 774.45294 3076.7378 6315348
604.83356 774.6203 3077.4026 5328453
623.30286 774.90863 3078.5481 3881006
655.03729 791.20319 3143.283 4472372
673.27112 790.74054 3141.4448 3945772
672.1236 768.15234 3051.7068 5525058
696.27582 774.90466 3078.5322 5787974
721.23212 782.18414 3107.4521 3024926
741.39301 784.03003 3114.7854 4142892
765.20728 789.55585 3136.7383 3089948
780.44666 786.18164 3123.3333 3155998
805.94824 793.06189 3150.667 1445639
834.86188 802.91199 3189.7993 3221534
854.46631 803.57129 3192.4187 4603444
878.21899 808.01862 3210.0869 4340528
914.48987 823.55066 3271.7927 3353890
923.74866 814.617 3236.301 3814185
939.89087 811.99335 3225.8779 3945772
964.52991 816.66876 3244.4521 4274993
978.383 812.20734 3226.7278 4472116
1004.538 817.93372 3249.4775 3353637
1039.1942 830.23639 3298.3535 2235154
1061.9308 832.73767 3308.2905 4077101
1075.1792 827.84302 3288.845 2827032
1093.0546 826.62158 3283.9924 2761239
1106.7964 822.37164 3267.1084 3945514
1142.9567 834.63879 3315.8435 4669238
1154.7727 829.01447 3293.499 3156001
1167.826 824.45062 3275.3679 3089949
1194.2782 829.34045 3294.7944 3418914
1213.9055 829.41003 3295.0706 985346
1230.5773 827.48987 3287.4419 1971468
1249.4937 827.11536 3285.9543 2168847
1271.0967 828.50348 3291.4692 2234383
1288.0177 826.84418 3284.877 3287070
1304.7939 825.14258 3278.1169 3813671
1338.1937 833.84943 3312.7073 4274478
1381.5586 848.42389 3370.6089 4142636
1395.5771 844.8183 3356.2842 4011562
1421.8523 848.62909 3371.4241 4800567
1456.3965 857.20148 3405.4802 4273966
1461.4117 848.39685 3370.5015 2892312
1518.3185 869.54834 3454.5315 2694936
1533.4893 866.55249 3442.6296 4208432
1558.2797 868.99988 3452.3528 3418915
1580.45 869.94159 3456.094 3221535
1610.4607 875.11975 3476.6658 2760984
1622.854 870.71472 3459.1655 2629398
1634.7733 866.16846 3441.1042 3155997
1657.2081 867.23712 3445.3499 4471857
1678.4863 867.68188 3447.1167 4669236
1730.0846 883.60126 3510.3608 4866872
1730.7871 873.45728 3470.0608 4406576
1727.5229 861.57324 3422.8481 5590591
1830.6174 902.39392 3585.0203 3221531
1870.6748 911.56067 3621.4377 2827031
1876.866 904.2041 3592.2117 4668980
1897.83 904.04968 3591.5979 4471602
1918.498 903.75928 3590.4443 1839884
1941.6267 904.62164 3593.8704 3089952
1982.8302 913.7951 3630.3147 3813671
1996.3561 910.15332 3615.8464 5655876
2067.9456 932.7793 3705.7349 4932409
2047.8187 913.99438 3631.1064 2958618
2094.5027 925.1095 3675.2642 3419425
2176.6106 951.48096 3780.0325 3945771
2184.2864 945.10944 3754.7197 3683113
2218.2725 950.13568 3774.6882 5262146
2248.5342 953.48242 3787.9839 4604475
2270.49 953.27557 3787.1621 3485994
2329.7671 968.58893 3847.9988 4077874
2397.6335 987.14172 3921.7053 3485995
2406.575 981.31097 3898.541 3551531
2431.0591 981.86859 3900.7563 3156773
2424.6382 970.05121 3853.8081 2893601
2494.7151 988.77405 3928.1902 4538172
2554.4636 1003.0948 3985.0837 4341562
2593.7773 1009.2025 4009.3477 5986387
2613.884 1007.7937 4003.7512 4604479
2632.3577 1005.7864 3995.7769 4472893
2702.7832 1023.4882 4066.1021 4736068
2672.2524 1002.9847 3984.646 3288619
2658.416 989.05145 3929.2922 4143671
2713.2139 1000.6736 3975.4644 3748912
2711.7427 991.5213 3939.1045 3354155
2759.6396 1000.4223 3974.4661 4670015
2837.4185 1019.9137 4051.9014 3288362
2797.76 997.21918 3961.7407 3354154
2875.4355 1016.3762 4037.8477 4143928
2910.1614 1020.161 4052.884 5393994
2948.5483 1025.1567 4072.731 4670018
2986.2129 1029.8223 4091.2659 4736066
3143.3806 1075.2924 4271.9092 4538688
3200.1318 1085.9597 4314.2886 4604737
3206.6418 1079.5439 4288.7998 4801603
3268.7029 1091.7838 4337.4258 3748918
3339.9033 1106.8615 4397.3262 4012346
3350.9688 1101.9307 4377.7373 4670020
3411.1084 1113.0894 4422.0684 4604229
3452.0352 1117.8562 4441.0063 4669765
3416.6838 1098.0372 4362.2695 4801351
3540.1812 1129.1824 4486.0029 4209472
3518.6707 1113.9561 4425.5117 3025453
3764.3147 1182.9064 4699.4365 3684156
3757.3391 1172.0431 4656.2793 5922668
3752.6782 1162.0549 4616.5986 6844298
3815.1895 1172.8615 4659.5303 8095908
3847.1777 1174.1967 4664.835 7635872
3851.1855 1167.0339 4636.3789 7701668
3835.1604 1153.9451 4584.3794 7898535
3917.0796 1170.303 4649.3662 8293294
3973.4316 1178.847 4683.3101 7964328
4026.0251 1186.1654 4712.3843 7832741
4068.709 1190.4833 4729.5381 7832741
4119.5615 1197.116 4755.8882 7766949
4170.2593 1203.6136 4781.7021 7701156
4209.9932 1206.8806 4794.6816 7701156
4215.7788 1200.4371 4769.083 7832740
4240.6602 1199.4807 4765.2832 7701154
4273.3008 1200.7173 4770.1958 7635361
4533.9067 1265.5704 5027.8438 7635361
4657.9834 1291.7158 5131.7134 7635361
4671.5601 1287.0774 5113.2861 7635617
4758.8857 1302.6868 5175.2988 7635361
4884.3643 1328.4731 5277.7432 7635363
4902.6392 1324.9595 5263.7837 7701155
5034.9253 1352.1072 5371.6357 7766947
5104.77 1362.2509 5411.9346 7832740
5278.5449 1399.8292 5561.2256 7767203
6052.2358 1595.0474 6336.7856 7766948
0 0 0 0
0 0 0 0
0 0 0 0
0 0 0 0
0 0 0 0
0 0 0 0
0 0 0 0
0 0 0 0
0 0 0 0
0 0 0 0
0 0 0 0
0 0 0 0
0 0 0 0
-1700.0178 510.28436 1980.621 6842199
-1663.985 502.9411 1952.1187 7105113
-1645.1942 500.74292 1943.5868 6776404
-1639.3011 502.4671 1950.2789 6052423
-1661.3289 512.83459 1990.5194 5591615
-1688.7253 525.01947 2037.8138 6907476
-1663.863 521.01581 2022.2739 7433820
-1647.401 519.60345 2016.7922 5920838
-1582.632 502.82285 1951.6597 7500638
-1623.0583 519.46307 2016.2472 7960933
-1593.3348 513.73206 1994.0028 10329485
-1574.1156 511.32748 1984.6696 4276268
-1571.9784 514.47742 1996.8958 5657922
-1564.1958 515.81335 2002.0812 6775891
-1556.7982 517.29779 2007.8428 5196859
-1562.4272 523.16687 2030.623 6907477
-1540.927 519.97253 2018.2245 7038549
-1543.8732 525.04199 2037.9011 5590847
-1536.551 526.67175 2044.2269 4801331
-1537.6697 531.24365 2061.9724 5130296
-1521.7449 529.95331 2056.9641 5458745
-1501.4603 527.11157 2045.9342 4669485
-1512.3916 535.27167 2077.6067 5722430
-1511.584 539.37677 2093.5405 4077349
-1502.1096 540.43182 2097.6355 6972498
-1489.6652 540.427 2097.6167 7762273
-1487.8926 544.32623 2112.7512 5722689
-1486.0708 548.2735 2128.072 5591104
-1463.728 544.6524 2114.0173 4735279
-1431.2822 537.17706 2085.0024 3616801
-1422.8206 538.65143 2090.7251 4932658
-1422.0887 543.10382 2108.0066 5591873
-1424.8615 548.98535 2130.8352 6578511
-1404.4629 545.9646 2119.1104 6446924
-1397.4326 548.13293 2127.5266 7433821
-1337.7316 529.49292 2055.177 6578512
-1382.8699 552.38849 2144.0442 5196858
-1360.4889 548.48804 2128.9048 5723460
-1341.7533 545.99792 2119.2397 5657667
-1331.2695 546.8504 2122.5486 5789511
-1340.2953 555.80957 2157.3228 2630680
-1327.7144 555.8949 2157.6541 6512207
-1291.6302 546.04578 2119.4255 6183757
-1291.9397 551.53992 2140.7505 6710357
-1258.2168 542.47021 2105.5474 6184014
-1257.4969 547.59045 2125.4209 7499875
-1253.6377 551.43329 2140.3367 8026218
-1232.7535 547.78949 2126.1936 4275504
-1227.5946 551.13031 2139.1606 5525826
-1225.5234 555.94153 2157.835 5855560
-1219.707 559.13739 2170.2393 7170392
-1207.8965 559.62415 2172.1287 6643791
-1201.2386 562.53448 2183.4248 4275243
-1202.188 569.10938 2208.9446 460035
-1185.8262 567.54376 2202.8679 525570
-1160.9207 561.80872 2180.6079 1906699
-1142.6987 559.21545 2170.5422 4406825
-1145.426 566.93195 2200.4932 6183495
-1121.6115 561.53784 2179.5566 3617570
-1126.046 570.32599 2213.6667 5261881
-1110.625 569.14612 2209.0872 4735537
-1093.4049 567.00519 2200.7773 6643277
0 0 0 0
0 0 0 0
0 0 0 0
0 0 0 0
0 0 0 0
0 0 0 0
-711.51562 402.58405 1562.5922 1
-702.46112 402.70197 1563.0499 0
0 0 0 0
0 0 0 0
-955.11652 570.09503 2212.7705 4604983
-952.69183 576.56378 2237.8782 4078121
-947.9425 581.78845 2258.1572 7827807
-921.7597 573.81976 2227.2275 5854790
-920.03217 581.06482 2255.3486 7565918
-913.06372 585.16467 2271.2617 5328444
-903.30316 587.57104 2280.6018 5131066
-886.6355 585.48938 2272.5222 7433562
-875.39648 586.98364 2278.322 5854786
-863.71991 588.22675 2283.147 5459513
-843.92914 583.89532 2266.335 6051650
-836.24371 587.93463 2282.0132 6775374
-824.31512 589.07458 2286.4377 6051652
-811.76416 589.80042 2289.2549 7894113
-813.06787 600.78827 2331.9033 6973011
-800.4173 601.66687 2335.3135 7104600
-793.21362 606.74274 2355.0151 6052169
-781.46472 608.46149 2361.6863 6117962
-759.27039 601.96161 2336.4575 5920586
-760.18811 613.88428 2382.7341 7960426
-752.21448 618.94208 2402.3657 5986383
-736.27148 617.51123 2396.812 6512724
-724.6825 619.74762 2405.4922 4604469
-709.30908 618.7724 2401.707 4209451
-698.06232 621.43085 2412.0254 4603953
-686.85846 624.23944 2422.9268 4932919
-673.65454 625.3114 2427.0874 3946024
-657.69952 623.82074 2421.3018 4011817
-641.44366 621.97186 2414.1255 4077611
-626.72516 621.56342 2412.54 4406576
-616.09595 625.28613 2426.9895 4406575
-596.75647 620.13538 2406.9973 4274989
-597.31348 635.91455 2468.2427 2169355
-580.95703 634.02753 2460.9182 4011301
-565.2724 632.79535 2456.1357 5393722
-543.61884 624.63947 2424.4795 5459515
-544.12177 642.19055 2492.6025 4669744
-525.26123 637.2301 2473.3489 5854020
-508.43002 634.51746 2462.8201 3880486
-500.58167 643.18634 2496.4675 1709065
-480.85141 636.65149 2471.103 4603954
-463.33243 632.72577 2455.8657 4274987
-456.63876 643.80792 2498.8801 5261882
-438.44495 638.87567 2479.7361 5657154
-423.52164 638.5321 2478.4026 5986118
-412.96381 644.98212 2503.4375 6117705
-405.01413 656.13794 2546.738 3748388
-388.24313 653.31354 2535.7751 3287582
-371.96857 651.13062 2527.3025 4143403
-358.36621 653.63855 2537.0366 4208938
-344.29684 655.47693 2544.1721 7039069
-331.61877 660.25378 2562.7131 4407602
-316.05084 659.45935 2559.6296 7104088
-301.59396 661.01996 2565.687 6314574
-287.96616 664.65985 2579.8149 5591107
-271.25436 661.19061 2566.3494 5591363
-255.71159 660.328 2563.0012 6446161
-241.01125 661.66931 2568.2073 5920075
-228.71388 670.23322 2601.4473 5460036
-213.05473 669.47137 2598.4905 4209971
-196.40727 665.24353 2582.0803 4209974
-184.4283 677.44958 2629.457 4407094
-170.68431 684.82709 2658.092 2893855
-153.42744 678.17712 2632.281 3748905
-138.02109 679.12732 2635.969 3880489
-120.53072 668.7569 2595.7173 6380367
-107.3098 682.50671 2649.0857 3288100
-91.728867 683.38666 2652.5012 5196607
-76.136322 684.52625 2656.9243 6249293
-60.315113 683.66803 2653.5933 5393729
-44.922382 688.77423 2673.4126 6643796
-29.585302 700.76251 2719.9441 6182988
-13.368055 695.64838 2700.0938 4867128
2.6442399 698.54486 2711.3362 6314317
18.699615 698.0752 2709.5134 5853510
34.309784 689.09766 2674.668 4603958
51.235458 703.86615 2731.9905 4406065
66.804962 697.38501 2706.8345 4406322
83.768913 705.15192 2736.981 2958875
100.84467 711.18738 2760.4072 5064508
116.75257 708.4516 2749.7886 5459266
133.13376 708.90607 2751.5525 5196094
149.57088 709.52673 2753.9614 5524546
165.78325 709.06396 2752.1653 4142893
185.11104 720.81543 2797.7776 4340271
202.65891 724.27362 2811.2002 5261881
218.27954 720.8421 2797.8809 3156246
237.03137 727.50537 2823.7439 6446155
247.98222 710.92566 2759.3914 5327673
276.04361 742.41595 2881.6179 5063993
292.17996 740.03326 2872.3696 4142635
309.6102 741.00964 2876.1594 3879464
327.68167 743.33875 2885.1997 3155997
352.2041 759.34503 2947.3264 4603442
358.8812 737.18243 2861.3044 5524796
373.96344 733.5058 2847.0339 4340266
394.198 739.81628 2871.5276 6643537
421.6998 758.67889 2944.741 6775122
439.65945 759.55743 2948.1509 5985606
469.18039 779.57861 3025.8613 6709587
480.21283 768.53668 2983.0032 5064254
495.13635 764.2851 2966.501 7828069
506.68341 755.29187 2931.5945 5722695
531.25476 765.66602 2971.8608 5328196
552.28168 770.42999 2990.3518 6315090
574.3772 776.3421 3013.2991 6512469
596.85535 782.39923 3036.8091 4604472
615.89661 783.72839 3041.968 6840921
633.9057 783.70569 3041.8801 5196093
654.59473 786.90601 3054.3018 4603956
673.51624 787.86652 3058.03 4208942
687.69128 783.36975 3040.5762 4603188
714.43115 793.05023 3078.1501 4405295
740.94049 801.99908 3112.8843 2365712
757.78027 800.30103 3106.2935 2103311
769.98566 793.90515 3081.4685 3287583
795.26178 800.97021 3108.8909 854020
817.22778 804.45685 3122.4238 2169105
839.84473 808.41577 3137.79 3155742
867.93689 817.35925 3172.5034 4142894
884.55798 815.34998 3164.7046 4142893
894.16083 807.08942 3132.6418 3748392
912.30811 806.72021 3131.209 4866873
940.49365 815.06537 3163.5999 3616808
962.66498 817.974 3174.8894 2958878
976.43982 813.7735 3158.5854 2498842
1013.3547 828.6532 3216.3398 6315091
1020.1075 818.77454 3177.9963 2696733
1041.4009 820.71301 3185.5208 3551527
1056.1355 817.50574 3173.072 3155998
1074.718 817.33722 3172.4177 3814185
1115.0469 833.42834 3234.874 3879979
1127.4141 828.42914 3215.47 3353637
1144.4053 826.9375 3209.6804 4274738
1168.3109 830.40924 3223.1555 1840653
1188.9102 831.45697 3227.2222 3485476
1221.0974 840.4472 3262.1169 1708553
1217.9326 825.20453 3202.9541 4734774
1239.6322 827.01807 3209.9929 2958363
1285.5726 844.70447 3278.6411 1576710
1303.3219 843.61664 3274.4187 2168847
1334.9154 851.39026 3304.5916 3550499
1352.0359 849.84204 3298.582 3747365
1375.969 852.55902 3309.1277 3550498
1389.8647 849.06775 3295.5769 4603186
1375.5269 828.66443 3216.3833 4734774
1440.6925 856.05981 3322.7161 5063995
1456.0759 853.53473 3312.9148 5326911
1488.0582 860.67737 3340.6387 3682086
1526.0659 871.07178 3380.9834 3221535
1564.8807 881.65143 3422.0474 2694934
1563.66 869.69312 3375.6323 4405809
1566.5017 860.26782 3339.0488 4405808
1598.2416 866.74951 3364.2068 2958618
1601.8018 857.97754 3330.1594 3550755
1641.6549 868.62219 3371.4756 3550499
1667.4535 871.66382 3383.2815 3484706
1707.8738 882.18585 3424.1216 3550243
1728.9229 882.57233 3425.6218 5984584
1757.5122 886.75427 3441.8535 5064251
1790.4216 892.99487 3466.0759 5787974
1810.321 892.67871 3464.8486 4932409
1867.282 910.43988 3533.7869 3814185
1851.2552 892.61475 3464.6003 3024925
1887.0608 899.89838 3492.8711 3550756
1926.0697 908.53485 3526.3931 4471601
1961.1202 915.1391 3552.0264 5919048
1955.2185 902.6958 3503.729 4537651
2011.4257 918.88751 3566.5757 2826776
2045.2001 924.60095 3588.752 4142637
2093.9707 936.90674 3636.5154 4800823
2163.8843 958.32526 3719.6497 2695707
2167.1523 950.09393 3687.7004 3419427
2190.1584 950.59393 3689.6414 4603703
2224.8215 956.09357 3710.9875 2498327
2273.3665 967.39276 3754.844 2892829
2277.3508 959.69452 3724.9641 2432279
2340.9104 977.00854 3792.1672 3221795
2353.1143 972.76337 3775.6897 3945775
2382.8987 975.7973 3787.4658 2893601
2429.7769 985.70929 3825.938 3946291
2434.3552 978.43634 3797.709 3090982
2470.3867 983.82281 3818.616 6051923
2589.3323 1021.832 3966.1453 3551789
2625.9871 1026.975 3986.1069 5130565
2624.3787 1017.1955 3948.1492 5591116
2590.2324 995.08899 3862.3445 3485740
2573.9849 980.18555 3804.4983 3946804
2604.1709 983.06952 3815.6921 3025446
2700.6301 1010.7065 3922.9626 4538685
2721.5344 1009.8367 3919.5867 4538429
2720.8684 1001.0458 3885.4651 3025446
2762.0571 1007.6719 3911.1838 3683120
2806 1015.1843 3940.3425 3157033
2836.855 1017.8766 3950.7925 4275257
2891.2878 1028.9155 3993.6392 3880245
2898.6064 1023.1448 3971.2405 4472382
2989.6084 1046.7676 4062.9302 4143417
3017.6143 1048.132 4068.2258 4012345
3094.8425 1066.436 4139.2715 3814966
3146.3074 1075.6443 4175.0122 4012344
3213.8247 1090.1541 4231.3306 3748916
3165.5808 1065.476 4135.5449 3946808
3213.1816 1073.1888 4165.4819 2959657
3254.5378 1078.7142 4186.9282 3814966
3273.8535 1076.9061 4179.9102 3486516
3306.584 1079.5046 4189.9961 3223604
3381.8635 1095.8521 4253.4468 4407877
3345.2144 1075.9567 4176.2246 3683897
3435.5381 1096.8929 4257.4873 5262931
3487.2202 1105.2769 4290.0283 4275782
3560.1477 1120.2244 4348.0454 4210248
3615.6719 1129.5201 4384.1265 5525855
3701.2158 1147.9945 4455.833 5065563
3689.9414 1136.3901 4410.7915 5855340
3750.7227 1146.9835 4451.9092 3618896
3834.6912 1164.4705 4519.7827 4672614
3847.6125 1160.2897 4503.5557 7436950
3958.6885 1185.5623 4601.6484 7766687
3965.916 1179.6008 4578.5098 7964582
3969.5684 1172.6642 4551.5859 7964327
4012.2429 1177.2712 4569.4678 8030119
4053.479 1181.3971 4585.4819 8030119
4127.8179 1195.0516 4638.481 7964326
4191.1602 1205.3632 4678.5039 7766950
4283.7974 1223.9087 4750.4868 7701157
4369.4409 1240.2269 4813.8247 7635363
4438.0776 1251.5378 4857.7266 7635362
4520.0322 1266.4342 4915.5454 7701156
4592.8213 1278.5881 4962.7197 7766947
4644.7129 1284.8069 4986.8574 7766948
4741.8057 1303.3713 5058.9136 7832740
4820.5161 1316.6816 5110.5762 7832740
4958.6968 1345.968 5224.2485 7832740
5569.6475 1502.4215 5831.5078 7701413
0 0 0 0
0 0 0 0
0 0 0 0
0 0 0 0
0 0 0 0
0 0 0 0
0 0 0 0
0 0 0 0
0 0 0 0
0 0 0 0
0 0 0 0
0 0 0 0
0 0 0 0
0 0 0 0
-1659.3354 513.07214 1946.6641 6710356
-1614.4521 502.68896 1907.2689 7302749
-1601.0143 502.01953 1904.729 6184012
-1602.4177 506.02731 1919.9351 5855046
-1585.8986 504.39209 1913.731 7368539
-1643.1582 526.36768 1997.1091 7105369
-1629.0632 525.63855 1994.3428 6381903
-1608.9985 522.95844 1984.1742 6907734
-1559.5472 510.6174 1937.3506 5986376
-1554.0016 512.5752 1944.7786 5460031
-1558.674 517.9577 1965.2006 5657409
-1541.3351 516.05176 1957.9692 7302235
-1531.2068 516.54938 1959.8571 5920582
-1544.5204 525.02307 1992.0077 7696737
-1535.5193 525.98358 1995.6517 6446925
-1528.6036 527.67889 2002.084 6644559
-1515.9114 527.39099 2000.9917 6907217
-1510.6283 529.69653 2009.7394 4143399
-1515.2007 535.52203 2031.842 3879969
-1516.6223 540.3183 2050.0398 5787967
-1497.1306 537.68127 2040.0344 5261879
-1502.1106 543.86157 2063.4834 5985858
-1504.6405 549.24896 2083.9238 5065013
-1482.9708 545.81866 2070.9089 3353625
-1489.5051 552.79852 2097.3914 3156252
-1479.2795 553.62341 2100.521 4274985
-1462.5658 552.01343 2094.4126 6577742
-1439.9426 548.1264 2079.6648 5065276
-1428.8361 548.59406 2081.439 4802361
-1430.4432 553.99371 2101.926 6709589
-1419.1882 554.46313 2103.707 5920841
-1385.3116 546.02448 2071.6897 4801843
-1365.6785 543.09918 2060.5908 7104087
-1355.0435 543.73175 2062.991 7038548
-1341.1431 543.05371 2060.4182 6249031
-1337.7906 546.6734 2074.1519 2761755
-1335.3888 550.75232 2089.6279 3748902
-1324.816 551.50616 2092.488 5459265
-1329.4899 558.68127 2119.7112 4209196
-1307.7521 554.78851 2104.9417 4143402
-1282.1591 549.16956 2083.6226 5393470
-1279.1044 553.18872 2098.8718 6578513
-1251.9808 546.77533 2074.5386 5526337
-1239.7202 546.7901 2074.5945 6446670
-1219.7739 543.38141 2061.6616 6907221
-1232.2058 554.47339 2103.7458 9670529
-1231.3171 559.73682 2123.7161 4802103
-1221.7474 561.12195 2128.9714 6248779
-1199.4812 556.64386 2111.9812 4933175
-1207.0481 566.06207 2147.7151 4932660
-1197.0913 567.37549 2152.6982 5854017
-1187.7555 569.01459 2158.9172 5196345
-1201.2435 581.74268 2207.2092 3289123
-1144.4249 560.32776 2125.9583 5196348
-1160.9598 574.75092 2180.6816 3091485
-1132.0547 566.74969 2150.324 6841945
-1129.6444 571.98169 2170.1748 3091739
-1117.0051 572.09521 2170.6055 4539185
-1108.12 574.15656 2178.4265 5196343
-1100.6652 577.0163 2189.2769 4472620
-1084.0577 575.08881 2181.9636 6841169
-1038.1309 557.37323 2114.7483 5196859
0 0 0 0
0 0 0 0
0 0 0 0
0 0 0 0
0 0 0 0
-711.98816 412.1178 1563.6299 256
-703.5351 412.59476 1565.4396 395013
0 0 0 0
0 0 0 0
-950.21466 580.21527 2201.4141 5854273
-942.82886 583.7196 2214.71 4669742
-925.56531 581.12115 2204.8511 5854017
-914.19055 582.19843 2208.9385 6051652
-908.71332 587.11737 2227.6018 6906960
-906.51831 594.33337 2254.98 5328186
-885.40997 589.17969 2235.4263 5788479
-874.22302 590.57172 2240.708 7367511
-858.08643 588.61151 2233.2705 5262133
-847.25916 590.28882 2239.6345 5262391
-831.3269 588.40637 2232.4922 7499611
-841.89459 605.52271 2297.4341 5920322
-820.43188 599.78564 2275.6667 6906959
-807.88196 600.48145 2278.3066 6183494
-791.80182 598.53235 2270.9116 6249031
-780.22247 599.97693 2276.3926 5854017
-771.58521 603.77466 2290.8015 5064758
0 0 0 0
-747.11188 605.94678 2299.043 5328448
-727.83661 601.27869 2281.3315 5657412
-735.3147 618.95361 2348.3926 5788743
-723.08453 620.40094 2353.884 7235931
-710.79498 621.85327 2359.3943 4669747
-693.17603 618.60779 2347.0806 4603951
-681.46301 620.60803 2354.6697 5195832
-664.71515 618.01068 2344.8149 4538415
-643.62292 611.17706 2318.8875 4603696
-638.24213 619.29028 2349.6699 5327674
-628.34778 623.28809 2364.8381 4406571
-625.23871 634.35254 2406.8181 4801073
-602.14386 625.18311 2372.0281 3814176
-592.05054 629.39697 2388.0161 4537385
-583.94336 635.98035 2412.9941 4471592
-569.19446 635.47906 2411.0923 5656123
-544.53894 623.60693 2366.0479 4998450
-542.42621 637.60553 2419.1604 5657149
-528.01251 637.51227 2418.8066 5459515
-510.59085 633.68079 2404.2693 3354141
-498.97113 637.0365 2417.0015 2959126
-481.64859 633.09467 2402.0457 3419421
-467.24326 632.86407 2401.1707 3353885
-444.4433 620.89148 2355.7451 4932917
-453.35587 653.8819 2480.915 4472108
-436.5134 650.69183 2468.8115 4537900
-419.06888 646.35193 2452.3455 5853760
-408.52896 652.73212 2476.5527 5525309
-388.01141 643.05182 2439.8245 5985605
-380.52991 655.06317 2485.397 4932918
-367.63422 658.34613 2497.853 5590848
-351.66437 656.16858 2489.5911 5262138
-340.01193 662.20886 2512.5088 4801585
-326.21265 664.42981 2520.9353 5064757
-309.81308 661.31342 2509.1113 8486513
-295.008 661.45789 2509.6594 3222561
-279.76663 660.58759 2506.3574 5723972
-265.93936 663.14587 2516.064 5131060
-251.05786 663.22314 2516.3569 5327928
-238.18645 668.95551 2538.1064 4407085
-221.65524 664.48914 2521.1604 6906966
-208.15833 669.13098 2538.7722 5064765
-192.65131 667.53113 2532.7021 7104606
-175.04248 657.76294 2495.6404 5591366
-163.34001 670.43457 2543.7183 3025443
-149.19124 674.62115 2559.6025 2367768
-135.67393 682.9339 2591.1423 6578003
-120.16519 682.06494 2587.8455 4998969
-104.77565 681.71747 2586.5269 6248780
-89.609161 682.95074 2591.2063 3223331
-74.119667 681.72327 2586.5491 5789260
-58.804123 681.87286 2587.1167 3748642
-42.873184 672.47528 2551.4609 5393984
-28.902987 700.34833 2657.2151 5524802
-13.31694 708.92859 2689.7695 4011563
2.6215694 708.48596 2688.0903 3484962
18.494644 706.3045 2679.8135 4800823
34.260937 703.9447 2670.8601 3813929
50.200768 705.51508 2676.8184 5657156
66.346489 708.53015 2688.2578 4406834
82.167267 707.57935 2684.6504 5722434
99.530556 718.06543 2724.436 2695702
113.9877 707.58435 2684.6694 6512210
129.99731 708.12738 2686.7297 3617572
147.34709 715.0556 2713.0164 5261627
164.54605 719.96063 2731.6267 6643024
182.01857 725.07672 2751.0378 3616800
198.44485 725.52667 2752.7449 4932402
216.87471 732.67688 2779.8738 3549209
231.65068 727.34491 2759.6438 3747357
249.63162 732.11566 2777.7446 5852734
267.71616 736.58124 2794.6875 4799791
288.11282 746.51733 2832.3865 2431761
304.58124 745.74146 2829.4424 4142124
320.98032 744.8855 2826.1951 3221535
339.02075 747.73468 2837.0051 4208942
353.60565 743.05322 2819.2432 4801076
364.07748 730.5412 2771.7708 4077353
379.43536 728.4903 2763.9893 5788485
409.29434 753.29803 2858.1133 5525570
427.67499 755.84814 2867.7886 6051657
447.89526 761.33026 2888.5886 4275760
464.31152 760.18073 2884.2271 3618091
483.98938 764.26318 2899.7163 8288879
499.12805 761.14349 2887.8801 5920333
525.66113 775.0307 2940.5698 4341301
542.6098 774.34888 2937.9829 7630692
560.07831 774.42828 2938.2842 6644053
577.95728 775.05328 2940.6555 8683635
601.13477 782.53912 2969.0579 7762535
626.25275 792.05347 3005.1565 5986126
646.65204 795.23871 3017.2419 6379857
666.78375 797.93237 3027.4619 3616808
687.96948 801.71313 3041.8064 5261119
706.67963 802.48956 3044.7524 3682344
721.39587 798.80481 3030.7722 3025441
745.65588 805.61035 3056.593 4077613
760.4762 802.13623 3043.4116 4143663
787.08472 810.96893 3076.9243 4143406
803.33258 808.96838 3069.334 1117450
831.00641 818.30774 3104.7686 2563863
847.05182 816.03973 3096.1638 3090464
854.81006 806.05353 3058.2747 4866876
878.62463 811.30811 3078.2114 4011823
902.56836 816.46588 3097.7805 3419430
928.77576 823.4248 3124.1836 2038033
932.97827 810.98425 3076.9822 2498587
956.12018 815.16779 3092.8552 5261633
979.55249 819.43695 3109.0532 2893085
995.79614 817.64594 3102.2578 3485222
1023.4295 825.10242 3130.5486 3419426
1047.7253 829.65039 3147.8044 3485220
1062.9469 826.97961 3137.6709 3156512
1063.556 813.22742 3085.4932 4208943
1112.8912 836.56787 3174.05 4340529
1131.4351 836.37103 3173.3032 4537908
1155.0953 839.901 3186.6963 5722697
1178.842 843.37915 3199.8928 3814700
1196.1124 842.18713 3195.3704 2695706
1221.1991 846.45001 3211.5444 4274738
1250.696 853.5921 3238.6423 2629913
1272.8474 855.58063 3246.1873 2432277
1310.8618 868.01422 3293.3616 3682601
1325.3591 864.73895 3280.9351 3221535
1339.1433 861.09991 3267.1279 3024412
1357.1703 860.25385 3263.918 4142891
1361.3171 850.75714 3227.8862 3748134
1391.7413 857.71826 3254.2976 5524545
1410.4004 857.3374 3252.8523 2366482
1419.0166 850.94434 3228.5962 3813929
1466.9435 867.98132 3293.2368 5063738
1497.8564 874.63599 3318.4858 1708296
1499.1379 864.03992 3278.2827 2958363
1505.2616 856.47015 3249.5618 4011052
1539.2539 864.74805 3280.9692 4734774
1554.6296 862.49109 3272.4062 2826776
1588.0964 870.20282 3301.6658 4274478
1632.4165 883.60175 3352.5027 4669236
1651.5392 883.20331 3350.9912 5787461
1678.6617 887.04169 3365.5544 2760725
1711.1798 893.6076 3390.4663 2760727
1737.8862 897.02136 3403.4187 3879208
1735.2332 885.37653 3359.2366 3418913
1787.5204 901.71039 3421.2095 4142893
1810.8872 903.25269 3427.061 4800567
1833.27 904.27533 3430.9412 5195582
1835.4622 895.42554 3397.364 4208943
1869.5868 902.17706 3422.98 4603958
1926.1389 919.48993 3488.6675 4011307
1947.7944 919.95319 3490.425 4340529
1957.5999 914.86871 3471.134 3616548
1975.1233 913.45947 3465.7871 4142636
2047.5212 937.19647 3555.8484 4274223
2075.7856 940.45465 3568.2104 3418657
2099.9573 941.81158 3573.3589 2893083
2122.8745 942.58459 3576.2917 4603703
2164.3918 951.51929 3610.1912 4208945
2190.2163 953.44763 3617.5076 4472117
2235.3411 963.65894 3656.2505 4537910
2289.0576 977.34265 3708.1685 2432535
2332.0676 986.23828 3741.9197 3682602
2303.574 965.01196 3661.3843 3748653
2321.8933 963.60974 3656.064 3551531
2397.6987 985.87018 3740.5232 3617325
2424.5278 987.76947 3747.729 3354153
2468.8232 996.68561 3781.5581 3485740
2486.5806 994.82404 3774.4951 3222568
2549.3352 1010.8376 3835.2527 3222568
2572.249 1010.9104 3835.5291 3748913
2539.2231 989.18988 3753.1184 4275256
2574.824 994.34894 3772.6924 5065285
2638.1365 1010.0287 3832.1836 5196871
2655.2273 1007.8956 3824.0903 5393480
2636.7712 992.41962 3765.3723 4537915
2693.0515 1005.0963 3813.4692 4472122
2750.252 1017.9026 3862.0581 1182473
2767.8757 1015.9705 3854.7278 1182216
2841.1843 1034.3424 3924.4329 3418921
2867.1797 1035.3312 3928.1843 3287333
2908.7607 1041.8866 3953.0569 3484713
2938.2148 1044.0284 3961.1829 3879728
2956.6646 1042.257 3954.4617 4142644
3005.2065 1051.0378 3987.7776 3353384
3074.5935 1066.9152 4048.0183 3616555
3092.8228 1064.9318 4040.4932 3550506
3131.0088 1069.7976 4058.9548 3814192
3100.0896 1051.1576 3988.2322 3880499
3120.0964 1049.9368 3983.6001 4341305
3162.844 1056.3291 4007.8535 4472893
3261.7007 1081.2258 4102.3149 4406843
3297.5225 1085.0133 4116.6851 3551281
3360.9736 1097.7694 4165.0835 2038042
3382.5981 1096.7777 4161.3208 3156782
3394.4954 1092.6691 4145.7324 3419954
3436.915 1098.374 4167.3779 4012605
3480.3442 1104.3177 4189.9292 4012605
3536.1636 1114.0811 4226.9722 3748920
3514.949 1099.6078 4172.0586 3551541
3576.23 1110.9641 4215.146 4012095
3732.0884 1151.3398 4368.3369 3354423
3711.3376 1137.0511 4314.1235 4606034
3876.2139 1179.4398 4474.9517 4804705
3835.2273 1159.0388 4397.5479 6845582
3885.9875 1166.4529 4425.6777 8030375
3928.8057 1171.3994 4444.4458 8096168
3972.353 1176.4961 4463.7832 8227498
4009.9185 1179.7654 4476.1875 8030121
4066.563 1188.5682 4509.5864 7964329
4142.5884 1202.8835 4563.9009 7898536
4222.7427 1218.2045 4622.0303 7832742
4269.2104 1223.6724 4642.7764 7832742
4315.0527 1228.892 4662.5801 7766949
4413.4287 1248.9113 4738.5361 7832742
4468.7935 1256.5831 4767.644 7766949
4535.5103 1267.3306 4808.4209 7766949
4649.6797 1291.1205 4898.6831 7635363
5178.3564 1429.0009 5421.8198 7701157
0 0 0 0
0 0 0 0
0 0 0 0
0 0 0 0
0 0 0 0
0 0 0 0
0 0 0 0
0 0 0 0
0 0 0 0
0 0 0 0
0 0 0 0
0 0 0 0
0 0 0 0
0 0 0 0
-1623.1892 513.18066 1904.2589 5591619
-1615.1118 514.20184 1908.0483 7236700
-1599.3481 512.77313 1902.7467 7039321
-1589.6346 513.27771 1904.619 5920841
-1572.2238 511.28632 1897.2295 6446928
-1570.1873 514.30194 1908.4196 6117964
-1587.3077 523.68152 1943.2244 6644049
-1577.9635 524.40326 1945.9026 5723203
-1561.1631 522.63947 1939.3577 6907478
-1543.0332 520.40118 1931.052 6973270
-1530.3859 519.99219 1929.5345 7762786
-1514.7566 518.55627 1924.2063 8026217
-1512.891 521.84619 1936.4141 6052426
-1516.6718 527.14886 1956.0906 7105112
-1506.1273 527.51581 1957.4523 6315338
-1500.8181 529.73633 1965.692 5788992
-1517.3738 539.76947 2002.922 5656896
-1509.1569 541.07916 2007.7817 4801328
-1507.1754 544.66302 2021.0804 3353628
-1484.0282 540.59406 2005.9819 5064247
-1477.5197 542.56952 2013.312 4406060
-1486.8739 550.44952 2042.5524 3024666
-1479.3884 552.17358 2048.95 4933171
-1471.9998 553.96259 2055.5884 4801330
-1458.7722 553.5658 2054.116 4340779
-1445.7157 553.22772 2052.8616 1446154
-1459.9824 563.42841 2090.7131 4998455
-1441.6534 561.11688 2082.1357 3682596
-1423.3855 558.78937 2073.499 4867126
-1409.3575 558.10028 2070.9421 5656380
-1380.4926 551.47217 2046.3473 6051394
-1361.3132 548.63 2035.8008 5656381
-1349.3273 548.66199 2035.9194 4998451
-1342.6361 550.86694 2044.1013 5458747
-1338.1028 554.00543 2055.7473 5590590
-1315.6163 549.70026 2039.7722 3353627
-1320.6001 556.89948 2066.4863 5064500
-1314.8727 559.67438 2076.783 7104338
-1290.9092 554.66608 2058.1987 4341287
-1276.1189 553.54132 2054.0251 787712
-1255.5475 549.8631 2040.3763 2958873
-1251.8113 553.55792 2054.0869 5722175
-1247.3702 557.01062 2066.8987 3419673
-1229.1481 554.31683 2056.9028 6249546
-1214.4604 553.17902 2052.6807 6578770
-1216.0393 559.50238 2076.145 5789255
-1215.0559 564.7641 2095.6694 5394238
-1201.2172 564.0976 2093.1963 4276014
-1182.4019 561.05579 2081.9089 5328703
-1185.1476 568.28845 2108.7473 8289134
-1175.7145 569.77325 2114.2568 5460806
-1182.4281 579.19922 2149.2339 6118223
-1167.729 578.22754 2145.6284 5525572
-1139.7603 570.59143 2117.293 4143405
-1155.7954 585.05988 2170.981 6249037
-1132.369 579.65393 2150.9211 3946024
-1121.0585 580.39746 2153.6802 1906447
-1109.6492 581.10651 2156.3113 4274990
-1096.2274 580.76587 2155.0471 6051397
-1094.9244 586.91315 2177.8582 5393720
-1084.9294 588.49243 2183.7183 6183238
-1057.3245 580.44244 2153.8472 3880229
0 0 0 0
0 0 0 0
0 0 0 0
0 0 0 0
0 0 0 0
-714.36322 422.78986 1568.8458 256
-705.83698 423.25223 1570.5615 460292
-701.36578 426.19104 1581.4666 3354404
0 0 0 0
-945.30109 590.19354 2190.0305 5327671
-934.63373 591.65662 2195.4597 3222813
-911.69464 585.28296 2171.8088 6446668
-895.96887 583.42377 2164.9099 5591358
-879.93359 581.30603 2157.0518 5986371
-884.43091 592.89026 2200.0374 7039059
-863.24908 587.34912 2179.4758 5064756
-869.72864 600.74628 2229.1885 6380616
-856.49933 600.73315 2229.1399 6906960
-841.57422 599.51166 2224.6072 4341033
-824.55774 596.73773 2214.314 6972496
-829.8504 610.2804 2264.5667 5985857
-808.2688 604.17987 2241.9294 5854016
-803.00311 610.27527 2264.5479 7696476
-777.92206 601.26251 2231.1042 5788479
-770.51447 605.83423 2248.0684 4801328
-766.23828 613.07227 2274.9265 5525308
-739.6944 602.43396 2235.4512 6446410
-737.12909 611.29279 2268.3235 5262137
-732.91541 619.08832 2297.2505 3749411
-714.66339 615.09656 2282.438 4142890
-703.52997 617.19568 2290.2273 5591103
-689.45673 616.74762 2288.5647 4735535
-675.35486 616.25549 2286.7385 5459513
-662.37616 616.78906 2288.7185 7235665
-650.40936 618.30688 2294.3506 5919807
-635.02454 616.5708 2287.9087 6117188
-628.43921 623.48926 2313.5808 5656380
-611.6076 620.32391 2301.8352 2169355
-596.49036 618.7926 2296.1531 3484955
-584.01343 619.99286 2300.6067 4077348
-576.22455 626.34625 2324.1824 4537642
-562.63336 626.54938 2324.936 4471593
-540.414 616.91321 2289.1792 5129523
-527.95703 618.21198 2293.9985 3879456
-526.01367 632.21576 2345.9624 5261366
-518.09186 639.59937 2373.3606 4932657
-503.1123 638.43884 2369.0542 1840903
-483.55029 631.22974 2342.3035 4143399
-471.85513 634.16748 2353.2046 4406828
-459.57413 636.47278 2361.7588 3880998
-440.55109 629.29248 2335.1147 6841171
-427.10867 629.8764 2337.2817 2827802
-418.4328 637.76459 2366.5522 3945765
-405.40054 639.32965 2372.3599 4274729
-392.37015 641.01025 2378.5959 4801073
-382.94394 648.92365 2407.9602 4735024
-367.9223 647.60077 2403.0515 5459518
-354.99893 650.01337 2412.0039 5854021
-341.19931 650.95673 2415.5044 5196091
-328.4715 654.117 2427.2312 4472368
-321.10046 668.72278 2481.429 4735283
-305.41458 666.58301 2473.4888 4142891
-292.5618 670.7226 2488.8496 5853764
-275.98782 666.31763 2472.5042 4801075
-260.86243 665.11212 2468.0308 5393721
-251.59407 679.58398 2521.7314 5656893
-235.32373 675.776 2507.6013 5590590
-218.54591 669.89917 2485.7942 5722948
-204.35114 671.66278 2492.3384 5131069
-190.02156 673.22363 2498.1301 5854279
-174.162 669.16962 2483.0869 2893334
-160.02237 671.58563 2492.052 5722693
-145.28667 671.737 2492.6138 3156768
-130.78862 673.14575 2497.8411 4801080
-116.48309 676.03131 2508.5488 4670262
-103.30649 687.27185 2550.2588 4868155
-87.326691 680.51996 2525.2046 6183759
-73.66996 692.82251 2570.8557 5986123
-58.403049 692.4494 2569.4712 5328194
-42.351604 679.23077 2520.4209 5393986
-28.032387 694.5257 2577.1758 4933436
-12.920465 703.28772 2609.689 5788230
2.5906241 715.86511 2656.3599 4932666
18.360201 716.93585 2660.333 2499101
34.177677 718.02362 2664.3694 3551783
49.356983 709.25342 2631.8259 4603189
65.305962 713.09937 2646.0972 4142893
81.428238 716.98193 2660.5042 4142637
97.22242 717.18457 2661.2561 5195580
113.38931 719.69629 2670.5762 2958876
129.56122 721.62061 2677.7168 3682597
145.25575 720.75635 2674.5098 4209452
163.82169 732.90814 2719.6016 4274733
179.89702 732.73865 2718.9727 7170138
196.78098 735.61993 2729.6641 6314315
214.20695 739.93579 2745.679 3485219
230.38791 739.64514 2744.6003 3813921
247.2979 741.57898 2751.7764 5722431
264.25806 743.41486 2758.5886 6512204
281.77615 746.51483 2770.0918 5195833
298.95981 748.43622 2777.2214 4472113
316.15469 750.18378 2783.7061 2498581
333.3092 751.66687 2789.2095 2761752
346.89197 745.33569 2765.7163 3353888
360.56955 739.7702 2745.0645 7169626
373.655 733.52283 2721.8823 6577490
393.25656 740.05493 2746.1211 3156255
413.65787 747.51318 2773.7964 5195579
432.17636 751.12897 2787.2134 7367260
449.55573 752.57147 2792.5662 7828837
462.34756 746.50464 2770.054 6907225
489.29376 762.92377 2830.9805 5196350
508.72995 766.93262 2845.8562 3880492
524.81848 765.79944 2841.6511 6249297
543.4964 768.39758 2851.292 6710359
565.5321 775.44318 2877.436 6973275
595.03845 792.01996 2938.9478 4537651
612.29877 791.81757 2938.1965 5656646
633.65662 796.77875 2956.606 5656389
662.43079 810.54742 3007.6975 4603703
682.53314 813.2619 3017.77 3748650
696.09363 808.24188 2999.1421 1578256
709.96674 803.82574 2982.7554 3683114
724.65363 800.52325 2970.5007 5196097
737.94025 795.86713 2953.2231 5591113
781.25372 823.06049 3054.1294 5460039
794.44159 818.00317 3035.3635 3683627
815.39539 820.98907 3046.4434 5262658
830.02411 817.61517 3033.9238 4144179
848.92505 818.50336 3037.2197 4274737
868.13562 819.64716 3041.4636 2827292
879.81293 813.77649 3019.6794 2300692
889.24127 806.1012 2991.1987 2169364
931.81018 828.18079 3073.1296 2629915
944.05945 822.98279 3053.8413 1511433
959.48059 820.69342 3045.3459 1774604
980.19556 822.93304 3053.6567 2300435
1009.9062 832.50684 3089.1824 3155998
1021.5101 827.07947 3069.043 3616549
1041.4614 828.48236 3074.2488 4801080
1072.3158 838.36127 3110.9062 4801080
1101.996 847.00385 3142.9761 3682598
1108.2401 837.64514 3108.249 4603700
1136.4426 844.91821 3135.2368 5919562
1151.6953 842.48407 3126.2048 4932668
1183.5017 852.04474 3161.6814 3156000
1210.3459 857.79059 3183.0027 3617578
1223.7332 853.9693 3168.823 3748654
1271.8231 874.11432 3243.5752 3485739
1308.0507 885.62805 3286.2991 4407095
1290.0698 860.64008 3193.5762 2630683
1296.1373 852.18591 3162.2056 3485219
1329.9279 861.94037 3198.4014 3880234
1349.9985 862.65369 3201.0481 3155742
1377.1892 867.83392 3220.2705 2563605
1394.4562 866.70453 3216.0796 2366227
1403.8243 860.76245 3194.0303 2695448
1433.641 867.34973 3218.4739 4076843
1449.6116 865.49725 3211.5996 4998457
1500.1771 884.0802 3280.5552 3024923
1519 883.72034 3279.2202 4603700
1485.884 853.53455 3167.2097 5064250
1481.7987 840.5697 3119.1013 6708819
1533.5951 859.23358 3188.3572 4998456
1584.754 877.09027 3254.6179 5261113
1629.5927 891.06165 3306.4614 5326648
1669.1626 901.85425 3346.5095 3879203
1716.333 916.45184 3400.6768 4602929
1731.8076 913.98267 3391.5144 2234383
1727.8817 901.44879 3345.0051 4142637
1778.3925 917.27704 3403.739 2168848
1792.8967 914.3869 3393.0144 4208688
1786.225 900.88074 3342.897 5063739
1849.4846 922.55377 3423.3193 4273967
1880.4891 927.84167 3442.9409 3418916
1948.1401 950.9035 3528.5166 4208943
1915.6716 925.12531 3432.8616 2563605
1929.5133 922.01831 3421.3323 3681829
1960.3954 927.03394 3439.9436 5853255
2012.7528 941.99707 3495.4673 2432019
2043.799 946.78296 3513.2263 3090204
2043.3113 937.01172 3476.9685 1708296
2050.6621 930.99432 3454.6396 4076844
2128.4646 956.76447 3550.2646 4340016
2112.7563 940.40753 3489.5693 3024412
2187.8765 964.40454 3578.6147 2958877
2200.0432 960.4577 3563.9692 4143152
2246.123 971.25012 3604.0168 3025441
2271.6768 973.04724 3610.6855 3090977
2275.0681 965.40643 3582.3325 5525576
2272.4048 955.36139 3545.0586 3288359
2362.7991 984.2652 3652.3118 4406840
2379.7815 982.3407 3645.1707 3288359
2433.2075 995.35907 3693.478 4012082
2475.6194 1003.6799 3724.3538 3748912
2472.1655 993.42267 3686.2925 4011828
2540.5498 1011.9601 3755.0793 4275256
2563.8271 1012.3644 3756.5796 4603451
2581.5686 1010.5947 3750.0127 4077108
2620.8882 1017.2302 3774.6348 3945778
2595.5959 998.88806 3706.5728 4208694
2650.1782 1011.3348 3752.759 5129795
2694.832 1019.8171 3784.2344 3879728
2724.6401 1022.5876 3794.5146 2037268
2721.4092 1013.0143 3758.9912 2103317
2775.6208 1024.8053 3802.7439 3221798
2797.5874 1024.5968 3801.9702 2629915
2851.8389 1036.1212 3844.7341 3090211
2910.2974 1048.9795 3892.447 4800828
2914.2043 1042.1276 3867.0217 3616812
2962.1797 1051.0187 3900.0139 3155749
2978.252 1048.54 3890.8167 3090211
2995.9822 1046.6788 3883.9102 3287590
3021.7764 1047.6418 3887.4832 3419430
3066.0891 1054.9618 3914.6455 3814189
3063.8613 1046.2789 3882.4258 4209463
3132.207 1061.6459 3939.448 4275256
3269.6208 1100.0225 4081.8518 4275257
3249.5325 1085.235 4026.9802 3485741
3254.9705 1079.126 4004.3115 3222058
3355.8389 1104.5145 4098.521 2301214
3358.6587 1097.4993 4072.489 3617331
3353.1345 1087.8768 4036.7834 3617588
3352.6533 1080.0154 4007.6118 4670276
3420.0273 1093.9695 4059.3914 4472384
3376.5874 1072.53 3979.8362 4340799
3550.5322 1119.9585 4155.8286 4078142
3569.3674 1118.1438 4149.0947 4078139
3583.7241 1114.9606 4137.2827 5657945
3670.5134 1134.2024 4208.6836 4145477
3715.3997 1140.3239 4231.3984 4804190
3843.0188 1171.5852 4347.3999 7569050
3889.302 1177.7991 4370.4575 7701150
3917.9866 1178.6367 4373.5659 7832738
3967.6702 1185.7389 4399.9199 7372189
4042.2598 1200.1428 4453.3687 7964327
4030.761 1188.9662 4411.8955 7701412
4063.8555 1191.0027 4419.4521 7635620
4159.2788 1211.1628 4494.2607 7898535
4192.4902 1213.066 4501.3228 7964328
4215.0469 1211.8817 4496.9282 7898535
4288.8032 1225.3403 4546.8691 7701156
4336.7354 1231.2988 4568.9795 7766949
4640.5845 1309.3934 4858.7646 7701156
0 0 0 0
0 0 0 0
0 0 0 0
0 0 0 0
0 0 0 0
0 0 0 0
0 0 0 0
0 0 0 0
0 0 0 0
0 0 0 0
0 0 0 0
0 0 0 0
0 0 0 0
0 0 0 0
-1617.4794 522.62079 1897.5603 5262915
-1590.8752 517.62354 1879.4159 6118222
-1593.5659 522.15466 1895.8678 4407602
-1578.7109 520.96014 1891.5308 6775893
-1561.8943 519.09662 1884.7646 5263164
-1553.0903 519.88849 1887.6398 5788995
-1548.5612 522.13318 1895.7899 4736561
-1540.6692 523.26855 1899.9122 5197110
-1529.818 523.4082 1900.4192 6249800
-1538.2974 530.21265 1925.1252 5986374
-1519.7191 527.72302 1916.0858 7762528
-1510.2335 528.37708 1918.4606 4933686
-1505.1837 530.6048 1926.5491 7368283
-1485.7407 527.75391 1916.198 7960420
-1467.4785 525.2818 1907.222 7565149
-1514.3444 546.26471 1983.408 2960153
-1509.1034 548.63257 1992.0052 4802611
-1512.5099 554.2063 2012.2427 4209705
-1488.131 549.60675 1995.5424 5985860
-1480.9707 551.34369 2001.849 4077607
-1475.6375 553.79437 2010.7472 4473643
-1477.1704 558.88281 2029.2224 6644561
-1462.6067 557.91467 2025.7073 5855301
-1454.9833 559.59979 2031.8257 3157017
-1440.5544 558.67371 2028.4633 3156760
-1432.6335 560.27728 2034.2854 3024922
-1419.3574 559.79584 2032.5376 2432786
-1417.3779 563.7998 2047.0753 1840911
-1411.6862 566.38342 2056.4561 3485472
-1360.5092 550.60394 1999.1632 3814435
-1355.2682 553.30121 2008.9564 6511432
-1335.1234 549.90759 1996.6348 4537902
-1325.1252 550.66986 1999.4025 3946017
-1322.4424 554.51324 2013.3573 5985858
-1304.1113 551.80548 2003.5256 6446666
-1301.5537 555.78345 2017.9691 3289121
-1301.4106 560.87579 2036.4586 4274984
-1294.7551 563.23047 2045.0081 8288612
-1285.455 564.46832 2049.5027 6116930
-1266.819 561.59119 2039.056 4209703
-1249.7356 559.35352 2030.9315 4538412
-1228.2349 555.07605 2015.4006 4998964
-1223.3981 558.31934 2027.1765 8091242
-1215.0536 560.01031 2033.3164 6183242
-1210.2479 563.38263 2045.5607 6117449
-1212.0078 569.9104 2069.262 3946026
-1194.6879 567.50818 2060.5398 3288096
-1183.0917 567.80328 2061.6116 5130042
-1179.149 571.8161 2076.1814 4669491
-1174.9386 575.78235 2090.5823 5524543
-1146.9785 568.07056 2062.5818 5064247
-1153.6677 577.53827 2096.9578 3024921
-1142.7537 578.30396 2099.7378 4800816
-1142.9054 584.74805 2123.1355 7037780
-1128.6216 583.86774 2119.9392 6906450
-1118.1488 584.96136 2123.9099 5787715
-1120.5151 592.87317 2152.6365 2432527
-1097.8789 587.58575 2133.4387 4274987
-1076.439 582.82294 2116.1455 6117191
-1073.3824 588.01862 2135.0103 4735539
-1060.2734 587.7655 2134.0913 4209196
-1036.1241 581.31219 2110.6604 5328190
0 0 0 0
0 0 0 0
0 0 0 0
0 0 0 0
0 0 0 0
-713.84564 431.77414 1567.7092 512
-705.23584 432.19131 1569.224 1052686
-711.69781 441.97952 1604.7635 4802103
0 0 0 0
-930.3551 593.63544 2155.4043 5130553
-926.71356 599.5434 2176.855 3419681
-906.47998 594.73224 2159.3865 5196087
-888.09094 591.0108 2145.8745 6249031
-873.57867 589.79865 2141.4734 7367767
-874.9212 599.41302 2176.3816 4867635
-858.96332 597.2851 2168.6555 4670514
-843.92841 595.74408 2163.0603 6052163
-842.90588 604.19965 2193.7612 5657149
-834.28223 607.38629 2205.3315 6051394
-817.72504 604.80652 2195.9648 4012070
-795.47284 597.8631 2170.7542 5788478
-786.28015 600.66803 2180.9385 6841167
-784.92712 609.65582 2213.5718 5459515
-769.14258 607.54956 2205.9243 4801328
-765.29077 614.95923 2232.8276 5854270
-750.92163 614.02954 2229.4521 6775374
-736.297 612.85388 2225.1836 6907219
-723.97845 613.58984 2227.8557 5131064
-711.49261 614.2088 2230.103 6644305
-697.76788 613.76129 2228.4783 6118218
-684.51172 613.71667 2228.3164 6183238
-676.03882 618.04327 2244.0256 5656894
-668.21417 623.14807 2262.5603 7103826
-658.24188 626.41809 2274.4333 5261622
-646.07074 627.68848 2279.0459 6380103
-631.35132 626.48456 2274.6746 4537642
-612.24139 620.77637 2253.949 6708813
-604.10394 626.18707 2273.5945 3024404
-596.35974 632.26166 2295.6504 3287833
-576.72668 625.72101 2271.9021 3090196
-562.47937 624.85052 2268.7417 4932144
-552.5127 628.80927 2283.1152 4076322
-538.94421 628.76453 2282.9529 4537642
-528.62616 632.60748 2296.906 5458745
-511.33548 628.08881 2280.4993 4866607
-497.52533 627.71606 2279.146 5590074
-491.89023 637.92456 2316.2117 2958355
-480.83115 641.48303 2329.1318 4734767
-463.82819 637.08765 2313.1729 3945253
-452.78104 640.85425 2326.8489 1709579
-433.21295 632.4184 2296.2195 3353371
-416.96027 628.43219 2281.7461 5261368
-408.74997 636.70636 2311.7883 4603435
-397.76923 641.08929 2327.7021 4603179
-384.81985 642.50024 2332.8252 4537643
-369.23779 639.45703 2321.7756 4801072
-361.61865 650.50244 2361.8799 4142885
-345.60229 646.72351 2348.1594 8157288
-336.50241 656.11346 2382.2529 6052169
-326.52435 664.53845 2412.8428 6116933
-314.41357 669.19598 2429.7534 5722175
-301.33008 672.13074 2440.4092 4406573
-286.44064 671.13019 2436.7764 5525568
-271.31403 669.43817 2430.6328 5721917
-257.4469 670.8382 2435.7163 4932657
-244.70354 675.50684 2452.6672 4800559
-230.88599 677.61255 2460.3127 4998452
-214.79114 672.8681 2443.0864 4998711
-199.22162 669.20245 2429.7771 6446159
-185.27681 670.84833 2435.7529 4801078
-170.91014 671.11578 2436.7241 5459010
-157.22417 674.35229 2448.4753 5327937
-144.58536 683.19489 2480.5815 4801594
-130.28683 685.30908 2488.2578 5130301
-115.98361 687.93494 2497.792 4274991
-101.312 688.82452 2501.022 5393985
-86.435783 688.38947 2499.4424 6117452
-71.973572 691.7536 2511.657 3683370
-57.654289 698.60376 2536.5291 6776152
-42.815662 701.7735 2548.0378 5789257
-27.778801 703.37762 2553.8621 5130814
-12.649288 703.66797 2554.9163 5590596
2.5372493 716.53394 2601.6309 4867129
17.836437 711.79974 2584.4417 6445904
33.450092 718.19159 2607.6494 6512211
48.389046 710.63519 2580.2134 5195836
63.860729 712.65271 2587.5386 5327166
79.387421 714.38391 2593.8245 4932406
95.26413 718.1922 2607.6519 3090203
111.97446 726.34491 2637.2532 5129528
128.71178 732.65411 2660.1609 2893339
144.75684 734.07593 2665.3232 2761237
159.88951 731.04639 2654.3235 5458752
178.46007 742.87036 2697.2546 3156770
193.03835 737.49786 2677.7478 4406318
211.07422 745.14789 2705.5239 6511950
228.74739 750.52771 2725.0571 5064759
