# .PCD v0.7 - Point Cloud Data file format
VERSION 0.7
FIELDS x y z rgb
SIZE 4 4 4 4
TYPE F F F U
COUNT 1 1 1 1
WIDTH 1342
HEIGHT 1
VIEWPOINT 0 0 0 1 0 0 0
POINTS 1342
DATA ascii
-1916.0962 514.50836 2380.2742 6314823
-1907.0648 515.8811 2386.6248 5657152
-1923.9625 524.34082 2425.7622 5854786
-1911.4425 524.85034 2428.1194 6446667
-1891.1239 523.21002 2420.5305 5261879
-1883.1989 524.99969 2428.8101 7038289
-1883.9858 529.26428 2448.5396 4998706
-1894.563 536.36682 2481.3982 6972753
-1879.7356 536.33197 2481.2368 6314823
-1880.0402 540.64813 2501.2048 6906961
-1856.7169 538.1842 2489.8057 6052166
-1807.0996 527.99817 2442.6821 5656894
-1797.6871 529.4895 2449.5815 6709840
-1791.48 531.95697 2460.9966 6907219
-1777.2445 532.06146 2461.48 2499348
-1746.1478 527.078 2438.425 7301724
-1726.2386 525.41663 2430.739 7038552
-1716.2678 526.77765 2437.0354 5920070
-1699.3191 526.00177 2433.4463 5591362
-1725.9962 538.83209 2492.8032 6512464
-1722.0951 542.25543 2508.6406 6117963
-1695.861 538.64484 2491.937 5788998
-1704.8008 546.24109 2527.0796 6775893
-1695.9431 548.21887 2536.2292 5854791
-1665.8105 543.29333 2513.4421 5394242
-1646.2164 541.74701 2506.2883 6710101
-1656.8831 550.22156 2545.4944 6446928
-1644.4163 551.09906 2549.5537 5986376
-1639.7108 554.61798 2565.8335 7499615
-1656.6216 565.58282 2616.5603 6381135
-1643.1182 566.27307 2619.7534 6841685
-1622.1899 564.39325 2611.0569 5723206
-1588.847 558.11633 2582.0178 4473395
-1601.0117 567.85822 2627.0869 8683892
-1620.1127 580.27582 2684.5347 6710360
-1599.4574 578.55908 2676.5923 7170911
-1578.8938 576.84137 2668.6458 6973533
-1572.7235 580.40063 2685.1121 5526085
-1560.8303 581.89911 2692.0444 7368290
-1564.4465 589.27045 2726.1465 5000255
-1570.2811 597.63977 2764.8655 2236692
-1562.6206 600.99536 2780.3894 5591621
-1550.7375 602.78107 2788.6509 2499608
-1536.6454 603.73743 2793.0752 3683623
-1519.6354 603.5556 2792.2341 3814954
-1487.5968 597.33527 2763.4568 2959645
-1467.5898 595.86139 2756.6382 2827287
-1461.6434 600.12732 2776.3738 3748645
-1427.6633 592.84924 2742.7031 4274989
-1410.3678 592.41162 2740.6787 5064505
-1412.2113 600.0968 2776.2324 5261883
-1404.6707 603.92834 2793.9585 3419936
-1396.5692 607.60736 2810.9788 5065018
-1382.1985 608.61475 2815.6392 6447187
0 0 0 0
0 0 0 0
0 0 0 0
0 0 0 0
0 0 0 0
0 0 0 0
0 0 0 0
0 0 0 0
0 0 0 0
-645.79901 323.40213 1496.1578 256
-634.22327 322.02652 1489.7938 65792
0 0 0 0
0 0 0 0
-1189.8837 630.49353 2916.8572 5788486
-1192.1246 640.99292 2965.4307 5788741
-1189.3103 649.04767 3002.6943 4998711
-1168.4498 647.34918 2994.8364 5393466
-1154.7773 649.64197 3005.4436 4998452
-1138.7968 650.68768 3010.2817 6249288
-1121.1691 650.81067 3010.8506 5788995
-1111.2938 655.51056 3032.5935 5196602
-1107.0591 663.74664 3070.6965 4077867
-1088.3119 663.41168 3069.1465 5262139
-1072.3281 664.77844 3075.4697 6051656
-1048.2444 661.08417 3058.3789 4407344
-1043.7292 669.81805 3098.7847 5526081
-1057.1014 690.54974 3194.6958 6051914
-1029.8225 684.99799 3169.0115 5722951
-1015.3321 687.90442 3182.4575 4143919
-968.00665 668.25354 3091.5466 5394241
-943.01099 663.55701 3069.8188 4012331
-942.45496 676.21106 3128.3606 5920329
-931.53119 681.78479 3154.1465 5525572
-910.94537 680.37048 3147.6033 5788744
-891.19312 679.53259 3143.7271 6051916
-881.31848 686.35144 3175.2729 5657156
-856.98083 681.9585 3154.95 7170652
-840.8338 684.0329 3164.5466 5657157
-819.17932 681.61932 3153.3809 4538418
-813.96539 693.0921 3206.4575 3682852
-805.2757 702.08307 3248.0525 4867380
-774.70746 691.97241 3201.2773 5722688
-756.84692 692.98956 3205.9832 4669486
-737.14886 692.33337 3202.9473 4406314
-731.84998 705.52356 3263.9692 4998451
-710.84113 703.87408 3256.3381 5590846
-703.93549 716.48712 3314.6899 6841426
-684.21283 716.4043 3314.3069 5131324
-664.07642 715.87061 3311.8376 5131068
-648.53595 720.40955 3332.8364 6052170
-628.08936 719.61273 3329.1501 6710358
-606.9837 717.98462 3321.6179 6973787
-604.55322 739.07825 3419.2034 5986892
-592.71283 749.73193 3468.4907 7631461
-571.73328 749.17566 3465.9172 4933949
-558.56567 759.1958 3512.2734 5262657
-548.10876 773.81866 3579.9233 4604469
-522.93628 768.00702 3553.0371 4538675
-505.26263 773.18311 3576.9829 5723205
-479.48596 765.86963 3543.1487 5131068
-453.01035 756.71875 3500.8137 7039322
-440.28412 770.75909 3565.7688 6710358
-426.00226 783.35461 3624.0396 5328706
-404.4874 783.28094 3623.6987 4407605
-386.20474 789.80902 3653.8999 5591623
-371.08011 803.95465 3719.3418 8223088
-351.6416 809.95044 3747.0803 2499095
-329.32993 809.69073 3745.8784 3354404
-308.16852 812.42566 3758.5315 5591366
-285.42429 811.08911 3752.3481 3814957
-260.67468 803.34644 3716.5281 3749160
-236.73793 796.91083 3686.7551 4867385
-216.00571 801.05048 3705.9062 6183498
-194.49084 802.8963 3714.4456 4341034
-172.96558 805.16486 3724.9404 6117446
-151.64977 809.2149 3743.6772 4143402
-130.24304 814.08466 3766.2061 4538160
-107.31345 809.48138 3744.9102 2695958
-86.486267 822.47144 3805.0061 2564373
-63.426704 815.90723 3774.6382 3288096
-40.590759 806.63409 3731.7378 3616803
-18.646881 814.10846 3766.3164 4275504
3.7203684 824.58209 3814.7708 4538931
26.877316 841.802 3894.4353 5197118
50.439758 849.94409 3932.103 3618086
73.147995 843.09497 3900.4167 3025435
97.154617 850.90662 3936.5559 3420451
122.90699 868.02234 4015.7388 4209198
146.59685 867.38184 4012.7754 5524802
171.50008 873.09723 4039.2166 5261886
198.63271 887.37225 4105.2573 3748648
224.12065 891.98633 4126.603 3484962
246.9631 886.19934 4099.8311 2695705
273.33429 892.97748 4131.1885 3945769
298.82544 896.00232 4145.1826 4537650
322.7038 894.09924 4136.3784 4537907
348.81787 898.22198 4155.4512 5591108
378.28818 909.87335 4209.3545 4209969
406.23697 916.65009 4240.7056 5328451
432.18796 918.39185 4248.7632 4473143
463.45563 930.61774 4305.3242 1907221
492.33316 937.01886 4334.9375 3485738
515.04523 931.63257 4310.019 4406326
534.71057 921.50476 4263.1646 4669496
567.55975 933.98639 4320.9087 3287843
594.42133 935.9624 4330.0503 3287585
629.30933 949.89001 4394.4839 4668980
655.2959 949.80884 4394.1079 3418913
682.40393 951.29706 4400.9932 4077101
712.78992 957.07721 4427.7339 4933436
760.59009 984.99902 4556.9087 6512468
786.65247 983.81995 4551.4536 4736058
823.19159 995.38715 4604.9673 4078129
851.99512 997.15863 4613.1626 5524548
882.21686 1000.428 4628.2881 3484965
914.0921 1005.3188 4650.9146 4340272
938.40039 1001.8448 4634.8428 4078127
963.33771 999.22095 4622.7036 4275506
994.34772 1002.8668 4639.5703 5130814
1017.328 998.43579 4619.0713 5065021
1052.819 1006.1936 4654.9614 5262144
1152.714 1073.5356 4966.5063 3946800
1184.1578 1075.3619 4974.9556 4144180
1210.1552 1072.2738 4960.6689 5395019
1220.9114 1056.1478 4886.0649 5789522
1263.5614 1067.7195 4939.5991 3881525
1280.5502 1057.5741 4892.6636 5789522
1328.3959 1072.7977 4963.0928 4473919
1372.6504 1084.5245 5017.3442 5657422
1399.7939 1082.5214 5008.0771 3485999
1436.853 1088.1102 5033.9331 3420463
1468.37 1089.3601 5039.7153 4407098
1528.0919 1111.068 5140.1426 4341048
1560.8344 1112.694 5147.6646 4077619
1613.0519 1127.8749 5217.8965 4406842
1655.4333 1135.7367 5254.2676 4670015
1700.6564 1145.2214 5298.147 5459788
1730.2124 1144.0037 5292.5132 4407101
1775.3566 1152.9525 5333.9131 4735809
1796.4445 1146.2388 5302.8535 4144444
1898.76 1190.693 5508.5122 4013119
2099.2729 1294.1821 5987.2852 5132118
2093.6792 1269.2803 5872.0815 6251377
2150.0339 1282.1346 5931.5498 6976136
2213.9519 1299.0129 6009.6338 7107986
2273.7471 1312.9762 6074.2319 7898787
2332.4844 1325.9027 6134.0342 8030631
2408.7529 1348.2454 6237.3979 8294060
2446.218 1348.5216 6238.6758 8293804
2500.9846 1358.1852 6283.3828 8228269
2592.7725 1387.3752 6418.4248 8359597
2652.3516 1398.7356 6470.9814 8294061
2700.4395 1403.7985 6494.4043 8425391
2781.6309 1425.6859 6595.6621 8359596
2856.6602 1443.8522 6679.7051 8425389
2908.5364 1449.9796 6708.0522 8425390
3028.1799 1489.27 6889.8213 8359597
3070.3105 1489.9008 6892.7397 8294061
3128.0649 1497.9972 6930.1963 8293802
3174.0247 1500.3083 6940.8887 8228009
3258.1729 1520.3809 7033.75 8096423
3291.1672 1516.3774 7015.229 8030373
3363.519 1530.3812 7080.0146 8029861
3303.2031 1484.4207 6867.3872 7964322
0 0 0 0
0 0 0 0
4628.3276 2005.7787 9279.3496 7108758
4722.208 2022.4342 9356.4033 5990019
4405.1748 1864.7585 8626.9473 3489883
4767.0049 1994.7747 9228.4414 1842996
5034.5439 2082.832 9635.8223 1250865
5023.1045 2054.7932 9506.1055 1646908
5333.1465 2157.4253 9980.9141 1910080
5473.2808 2189.8271 10130.814 1909567
5611.2939 2220.6863 10273.579 1909311
5724.8247 2241.2979 10368.935 1843518
5823.3232 2255.6494 10435.328 1777982
5914.5703 2266.9194 10487.468 1843518
6035.7026 2289.2908 10590.964 1843261
6200.7388 2327.6824 10768.575 1843261
6388.6865 2373.8052 10981.953 1843518
6525.334 2400.1282 11103.732 1777726
6607.7305 2406.1707 11131.686 1843518
6683.5225 2409.7124 11148.071 1843519
7244.1206 2586.2686 11964.874 1909053
7360.002 2602.1694 12038.438 1975101
7489.7085 2622.6062 12132.983 2303293
7803.9932 2706.6721 12521.898 2632767
7906.7412 2716.4775 12567.262 3092801
8164.9561 2779.0146 12856.577 3816007
8217.9951 2771.2078 12820.46 3948107
8295.8418 2771.8323 12823.35 3750729
8606.1611 2849.4153 13182.271 2895682
9260.8525 3038.5947 14057.475 2698561
9455.5186 3074.8071 14225.004 2501187
9666.2891 3115.5698 14413.586 2500934
9822.2695 3138.114 14517.881 2304070
10105.354 3200.5222 14806.602 2238278
10372.893 3256.9749 15067.769 2304070
10666.084 3320.4495 15361.422 2304070
11318.903 3493.8582 16163.664 2369863
11257.137 3445.6331 15940.559 2500934
11184.338 3394.8613 15705.674 1777208
11342.446 3414.4385 15796.243 1119275
11929.411 3561.7378 16477.695 526615
12224.312 3620.1526 16747.939 262933
13023.649 3825.8083 17699.367 66067
13554.543 3949.9507 18273.688 460569
12379.734 3579.0034 16557.572 460822
12408.296 3559.051 16465.266 1250593
12457.758 3545.3582 16401.918 3224127
13012.892 3674.6726 17000.166 5066847
13489.019 3779.8606 17486.799 5856618
13686.066 3805.8381 17606.979 6448752
13859.927 3825.0237 17695.736 6316911
13898.459 3806.8535 17611.676 6185325
14344.48 3899.7361 18041.379 6251372
14678.234 3960.9482 18324.566 6251373
15314.101 4102.1885 18977.986 6119531
15294.334 4067.0247 18815.309 6185323
15021.614 3965.5925 18346.053 5527138
14959.195 3920.7371 18138.537 4408138
14207.333 3697.1111 17103.975 2631468
13555.257 3502.4365 16203.349 1315606
13116.108 3365.1299 15568.127 1250329
13100.273 3337.5903 15440.721 1644317
13023.318 3294.9695 15243.542 1381658
13303.961 3342.7854 15464.755 1645086
13459.851 3358.8169 15538.922 2171687
13721.238 3400.7778 15733.045 2237223
13836.387 3406.1719 15757.999 2039844
14099.193 3447.5994 15949.656 1908259
14291.957 3471.4619 16060.053 2368809
14774.474 3564.9236 16492.434 1974053
14936.345 3580.2966 16563.555 1908004
14694.634 3499.3604 16189.118 1907748
14268.905 3375.9365 15618.122 1908259
15121.596 3554.6208 16444.77 1842467
15565.798 3635.6084 16819.443 1842466
14959.672 3471.8071 16061.649 1908259
15926.24 3672.7573 16991.307 1316123
0 0 0 0
0 0 0 0
0 0 0 0
0 0 0 0
0 0 0 0
0 0 0 0
0 0 0 0
0 0 0 0
0 0 0 0
0 0 0 0
0 0 0 0
0 0 0 0
0 0 0 0
0 0 0 0
-2039.5039 520.50916 2343.7776 4670514
-2030.4257 521.74554 2349.3447 3222552
-2004.495 518.63861 2335.3547 4472366
-1961.8057 511.12228 2301.5098 8354409
-1961.3057 514.56946 2317.032 4998964
-1930.897 510.16315 2297.1909 6249030
-1949.6821 518.78406 2336.0095 5985858
-1911.1625 512.17114 2306.2327 6512454
-1909.0198 515.28186 2320.2395 5525305
-1902.2172 517.17078 2328.7451 4867376
-1900.8129 520.56567 2344.032 5986114
-1921.0284 529.9751 2386.4011 5986115
-1895.0143 526.6756 2371.5439 7499098
-1903.38 532.95331 2399.8115 6577996
-1895.0321 534.61029 2407.2729 5459257
-1884.7697 535.74835 2412.3975 6117444
-1887.7123 540.68597 2434.6309 6775374
-1864.4619 538.13965 2423.165 6512203
-1852.9639 538.97217 2426.9138 5854531
-1824.3177 534.79083 2408.0857 4472879
-1827.5729 539.96899 2431.4023 6841427
-1827.5428 544.2511 2450.6841 7433565
-1772.1705 531.98865 2395.468 6249547
-1770.5504 535.79431 2412.6042 5986376
-1765.8179 538.71234 2425.7439 6446927
-1733.7471 533.26959 2401.2358 4012587
-1716.4712 532.32513 2396.9829 6973272
-1716.1293 536.66034 2416.5039 5920584
-1709.5066 539.08783 2427.4346 4012073
-1693.5549 538.58978 2425.1919 6709071
-1690.0277 542.0683 2440.855 6117191
-1674.9752 541.87823 2439.9993 4736049
-1686.7126 550.42731 2478.4944 5788995
-1676.3317 551.84509 2484.8787 6973018
-1664.0593 552.65997 2488.5481 6512722
-1649.1311 552.59955 2488.2756 4802102
-1631.0961 551.48749 2483.2683 5328446
-1624.5525 554.27588 2495.8242 6907221
-1626.5503 560.05658 2521.8538 4341551
-1628.9396 566.08057 2548.9788 5591619
-1619.4746 568.05914 2557.8882 5460032
-1584.0811 560.89435 2525.626 6710103
-1587.6702 567.52747 2555.4941 6841945
-1559.5802 562.85541 2534.4565 6447188
-1537.7943 560.38977 2523.354 8092526
-1545.593 568.76245 2561.0552 6316114
-1541.892 573.02753 2580.2603 7433824
-1556.8777 584.39233 2631.4341 6184013
-1520.3274 576.44672 2595.6562 5789257
-1525.8602 584.45801 2631.73 6841688
-1517.7534 587.35632 2644.7805 6250321
-1505.1351 588.55103 2650.1602 7170910
-1500.5422 592.9422 2669.9329 6578515
-1490.3879 595.20587 2680.126 4802105
-1503.8259 607.04169 2733.4209 3091233
-1494.2791 609.7561 2745.6436 2038544
-1463.0892 603.60144 2717.9299 1906958
-1448.4906 604.23065 2720.7632 4077869
-1432.9479 604.47577 2721.8669 3485730
-1420.3778 605.99475 2728.7068 3288350
-1404.8162 606.25769 2729.8906 3222042
-1388.96 606.39807 2730.5229 6906452
-1398.2222 617.63745 2781.1321 3551267
-1377.9672 615.95074 2773.5371 3025435
-1359.96 615.24017 2770.3376 6644050
0 0 0 0
0 0 0 0
0 0 0 0
0 0 0 0
0 0 0 0
0 0 0 0
0 0 0 0
0 0 0 0
0 0 0 0
-644.32117 331.50833 1492.734 256
-635.09235 331.30875 1491.8353 855307
0 0 0 0
0 0 0 0
0 0 0 0
-1179.5682 651.63019 2934.1965 4011817
-1165.0526 653.24109 2941.4502 3814437
-1155.4385 657.69098 2961.4873 4669488
-1134.8788 655.9516 2953.6553 3814180
-1110.8302 652.10956 2936.355 4670001
-1098.6709 655.23596 2950.4326 5986377
-1087.2347 658.90173 2966.9392 6315599
-1074.6105 661.95605 2980.6924 4933945
-1065.5026 667.31488 3004.8223 4736310
-1058.8508 674.42017 3036.8167 3683366
-1033.3816 669.57843 3015.0149 4538421
-1034.2378 681.92395 3070.605 4670007
-1024.0135 687.27496 3094.6997 4801848
-994.54193 679.6676 3060.4448 5064761
-978.3656 681.03229 3066.5898 4406574
-959.98175 680.88293 3065.9172 6446414
-935.38293 676.23468 3044.9871 2499091
-922.25562 679.86005 3061.3115 3485473
-907.07117 682.08398 3071.3257 3682852
-885.83759 679.75714 3060.8481 4537905
-884.45294 692.88275 3119.9509 4801075
-861.31628 689.16443 3103.2078 5327676
-851.79675 696.41699 3135.865 5459775
-831.21069 694.74341 3128.3291 6315342
-813.08264 695.09491 3129.9119 6841687
-796.51489 696.82782 3137.7148 5591618
-791.60309 709.08441 3192.9045 5986375
-765.38867 702.39209 3162.7698 5854531
-746.74664 702.48724 3163.1985 5393466
-729.66833 704.09631 3170.4438 4143142
-713.54193 706.73322 3182.3176 3682591
-698.03607 710.14459 3197.6785 4669487
-677.92902 708.93481 3192.2307 6249032
-656.17468 705.88342 3178.491 5130810
-645.2019 714.59277 3217.7078 3420704
-634.31995 723.93628 3259.7803 6183754
-621.92133 732.08142 3296.4568 4144171
-604.06219 734.11871 3305.6306 5460029
-584.60364 734.28363 3306.373 5788739
-568.67133 739.04272 3327.8025 5525569
-547.19427 736.67902 3317.1589 5262653
-537.75604 750.95062 3381.4221 4801847
-529.93524 768.67322 3461.2244 6446417
-509.22025 768.36688 3459.845 5130814
-482.6308 758.79889 3416.7617 5920330
-465.25931 763.5202 3438.021 7038556
-439.50519 754.28748 3396.4475 6183502
-426.96921 767.94257 3457.9343 5657671
-417.05673 787.93097 3547.9392 6907738
-391.04712 778.01538 3503.2908 5460036
-378.24988 794.74872 3578.6384 6183758
-362.87186 807.72534 3637.0703 5723207
-343.46756 812.81274 3659.978 3683627
-319.34692 806.67236 3632.3291 5262402
-292.04379 791.02448 3561.8687 4736057
-275.13956 803.29895 3617.1392 6183503
-254.25124 805.0329 3624.9468 4011815
-232.07317 802.62622 3614.1099 3156505
-210.64018 802.56921 3613.8528 4932406
-191.23094 811.08246 3652.187 3813924
-173.06274 827.70441 3727.0332 5327676
-147.81546 810.37958 3649.022 5854019
-125.7977 807.85657 3637.6614 5327420
-104.50031 809.87286 3646.7402 5590849
-85.242004 832.86353 3750.2642 2959130
-63.038357 833.14398 3751.5269 3353888
-40.490879 826.7099 3722.5552 3814438
-18.600859 834.36407 3757.0208 3156253
3.6651828 834.62268 3758.1851 3879976
26.420712 850.18823 3828.2749 4011819
50.060551 866.68146 3902.5413 4209197
73.585884 871.39502 3923.7656 3617317
94.620186 851.42963 3833.8645 3616546
117.52377 852.75958 3839.853 4471855
144.77016 880.05792 3962.7737 4933432
169.99706 889.17291 4003.8169 4341295
195.95651 899.41748 4049.947 5788486
217.56754 889.64532 4005.9443 4736052
242.66252 894.64056 4028.4373 4406576
266.89322 895.8399 4033.8376 5130043
292.32889 900.5542 4055.0652 4406064
313.10382 891.28485 4013.3269 3616804
341.56964 903.67175 4069.1033 4340528
362.31061 895.33545 4031.5659 4932922
386.54871 896.138 4035.1797 2696473
420.18344 917.36218 4130.749 4538421
447.61249 923.44678 4158.1475 4472888
469.60828 918.27228 4134.8472 2696993
496.58267 922.86346 4155.5205 4999233
528.9856 936.63245 4217.5205 3683116
559.22931 945.50842 4257.4878 4011568
575.08588 930.34332 4189.2017 4340531
601.32886 932.54065 4199.0957 2893085
624.63757 930.1936 4188.5273 5130045
665.82629 953.63495 4294.0801 4735288
673.85803 929.60913 4185.8955 2630940
717.96307 955.2868 4301.5181 6052173
757.97675 973.94647 4385.54 3683368
797.86755 991.21631 4463.3037 6315090
822.46173 988.98425 4453.2529 4472885
857.62354 999.203 4499.2666 4472884
882.66364 997.36847 4491.0059 4341298
920.12592 1009.2671 4544.5835 4670263
932.38861 993.63391 4474.1899 5656902
965.43475 1000.4017 4504.6641 5065022
994.19623 1002.4848 4514.0439 3749162
1054.639 1035.5671 4663.0093 4867642
1079.1759 1032.6036 4649.665 4999229
1116.6704 1041.8776 4691.4238 4802109
1149.3888 1046.3528 4711.5752 4999488
1179.4095 1048.2183 4719.9756 4670526
1193.8369 1036.4595 4667.0273 5460557
1205.8942 1023.2223 4607.4219 5131335
1289.0183 1069.5374 4815.9722 5920851
1307.0563 1061.012 4777.5835 3946547
1338.3156 1063.3529 4788.124 4275512
1359.652 1057.8762 4763.4634 5065028
1425.5566 1086.5931 4892.772 5130822
1458.7961 1089.7634 4907.0474 5459529
1486.1375 1088.49 4901.313 4406840
1523.5365 1094.4906 4928.3325 3946289
1592.8579 1122.7666 5055.6558 4143411
1613.3971 1116.248 5026.3037 4472635
1687.1365 1146.1057 5160.7485 4077878
1699.8389 1134.1749 5107.0259 4209723
1780.4972 1167.2103 5255.7793 4275259
1822.09 1173.9404 5286.084 4670273
1863.2946 1180.1973 5314.2573 3420207
1869.751 1164.6025 5244.0366 3354671
1916.3798 1174.1306 5286.9404 4933448
2024.5703 1220.4633 5495.5693 4407105
2132.0564 1264.9106 5695.71 4078400
2218.3777 1295.6121 5833.9536 4342347
2259.1506 1299.1772 5850.0073 6909051
2281.2666 1292.0679 5817.9946 7765136
2370.3428 1322.5304 5955.1631 7765914
2390.0063 1313.9386 5916.4756 8030116
2490.6191 1349.455 6076.4004 7833250
2531.2651 1351.931 6087.5498 8162473
2571.813 1354.2858 6098.1528 8293803
2625.1704 1363.2271 6138.4146 8293803
2635.2319 1349.7482 6077.7207 8293803
2753.0308 1391.0712 6263.792 8359596
2783.2317 1387.6212 6248.2578 8359597
2824.8242 1389.8668 6258.3691 8425390
2934.2229 1424.9838 6416.4956 8293804
3008.3389 1442.2865 6494.4077 8228011
3097.011 1466.0428 6601.3789 8227754
3158.385 1476.4452 6648.2192 8096425
3220.1902 1486.7905 6694.8027 8161704
3241.05 1478.2091 6656.1621 7964580
0 0 0 0
3452.407 1537.1896 6921.7422 6649236
3527.9929 1552.3995 6990.2305 7636130
3647.5088 1586.3623 7143.1597 7438750
3770.6191 1621.0909 7299.5386 7372445
3755.0625 1596.0917 7186.9697 7504028
3740.9009 1572.2394 7079.5664 7437207
0 0 0 0
4699.1719 1931.657 8697.9717 3291219
4757.8818 1934.5697 8711.0879 1514808
5277.105 2122.6565 9558.0146 1645366
5337.8745 2124.2986 9565.4092 1909053
5486.8882 2160.6558 9729.1201 1909309
5608.4277 2185.5503 9841.2168 1974847
5725.5503 2208.2288 9943.335 1909054
5834.2993 2227.2483 10028.978 1909568
5900.0464 2229.6343 10039.721 1909311
6055.5825 2265.5649 10201.512 1843518
6437.9111 2384.7961 10738.393 1843518
6736.4429 2470.9563 11126.358 1843518
6828.1934 2480.3328 11168.58 1909566
6974.3833 2509.1147 11298.181 1843772
7191.7954 2562.7288 11539.597 1712699
7439.8179 2626.1375 11825.117 1909309
7670.4814 2682.2927 12077.976 2040125
7793.6299 2700.1599 12158.43 1974843
8141.6064 2794.8796 12584.939 1908535
7782.5825 2647.3816 11920.776 2040631
8146.5366 2746.2581 12366.003 3027267
8577.0986 2865.6257 12903.498 3948367
8475.8447 2806.7725 12638.491 4672090
8748.0566 2871.5408 12930.133 4211798
8842.2354 2877.2522 12955.851 3356494
9582.8857 3091.415 13920.195 2501189
9768.9727 3124.5488 14069.393 2304327
10008.19 3173.9717 14291.935 2304327
10221.67 3214.4707 14474.297 2304327
10352.811 3228.6172 14537.997 2304583
11216.797 3469.189 15621.257 2304070
11038.454 3386.0842 15247.047 2369861
11275.21 3430.6277 15447.62 2238531
11555.366 3487.5527 15703.945 2238017
11666.752 3493.0378 15728.644 1974842
11848.689 3519.3921 15847.313 1317167
11936.03 3517.4551 15838.591 987429
11595.684 3390.4951 15266.909 131604
11699.503 3394.3665 15284.342 15
12879.19 3707.9216 16696.234 394520
13636.129 3895.9133 17542.734 526353
14100.565 3998.1238 18002.973 921114
14455.372 4067.9475 18317.379 2171445
14603.78 4079.0796 18367.506 4540503
14556.971 4035.9231 18173.178 6250606
14402.891 3963.8782 17848.77 6777204
15137.068 4135.5625 18621.84 6448496
15183.339 4118.1802 18543.57 6251116
15265.724 4110.7725 18510.215 6250859
15438.086 4127.5273 18585.658 6251372
15451.251 4101.7832 18469.736 6448495
14784.152 3897.0842 17548.006 6711412
13249.021 3468.031 15616.042 6645875
13139.995 3415.6345 15380.108 5658465
13262.181 3423.6479 15416.19 2369068
13291.52 3407.7463 15344.589 1118488
13547.123 3449.678 15533.401 986386
13809.404 3492.7322 15727.269 592140
14069.523 3534.6665 15916.093 1776159
14243.111 3554.4478 16005.164 723468
14362.455 3560.5195 16032.505 986899
14378.026 3540.9553 15944.41 1973795
14188.352 3471.4297 15631.346 2303016
14107.635 3429.291 15441.603 2434602
14053.479 3394.1108 15283.189 2039844
14158.105 3397.4836 15298.378 1710879
13945.039 3325.0623 14972.275 2171430
13819.469 3274.2881 14743.646 1513500
14301.409 3367.1863 15161.953 1579293
14251.412 3334.4651 15014.614 1842465
14099.103 3278.3601 14761.981 1381914
0 0 0 0
0 0 0 0
0 0 0 0
0 0 0 0
0 0 0 0
0 0 0 0
0 0 0 0
0 0 0 0
0 0 0 0
0 0 0 0
0 0 0 0
-2017.4121 528.61029 2318.3899 4868148
-1997.4622 526.97186 2311.2039 5262135
-1973.9102 524.35382 2299.7217 3419679
-1961.1642 524.5899 2300.7571 4669489
-1939.6774 522.47485 2291.481 5854274
-1929.6471 523.43774 2295.7039 5262136
-1898.212 518.56677 2274.3406 4011813
-1887.9878 519.4621 2278.2673 7564378
-1869.512 518.08362 2272.2214 1841166
-1888.6764 527.19165 2312.168 4932658
-1898.2833 533.74567 2340.9126 5524795
-1888.6527 534.9472 2346.1824 6840655
-1882.8755 537.26611 2356.3528 5920065
-1864.6763 536.04865 2351.0132 9077873
-1884.3645 545.78662 2393.7219 2696214
-1855.5857 541.52783 2375.0437 5920069
-1782.9517 524.3075 2299.5186 6841427
-1767.8153 523.86041 2297.5576 7828577
-1764.9078 527.05817 2311.5825 6381389
-1768.5405 532.27454 2334.4604 6644561
-1765.9318 535.67975 2349.395 6381644
-1787.5229 546.53827 2397.0186 5592127
-1773.4482 546.57849 2397.1951 3420448
-1753.9803 544.94379 2390.0254 6446669
-1748.8529 547.77417 2402.439 5131066
-1705.9803 538.73138 2362.7791 6446670
-1693.3229 539.15961 2364.6572 6184010
-1679.637 539.26477 2365.1184 6710098
-1687.3984 546.31561 2396.042 5460031
-1689.223 551.54755 2418.9885 5591617
-1675.1742 551.64197 2419.4026 6315340
-1659.3708 551.15521 2417.2676 4670514
-1654.1666 554.21112 2430.6704 6446926
-1643.8732 555.60065 2436.7646 6907477
-1634.1498 557.20917 2443.8193 4473138
-1628.7202 560.32367 2457.479 3749415
-1618.0966 561.69128 2463.4771 7565409
-1602.7092 561.41516 2462.2661 6973272
-1610.9744 569.49542 2497.7046 4999482
-1622.4529 578.87195 2538.8284 5328446
-1593.8884 574.00342 2517.4758 5591362
-1589.1912 577.71942 2533.7734 5131068
-1548.9465 568.46045 2493.1653 6775896
-1534.163 568.45721 2493.1514 5394496
-1521.6918 569.31915 2496.9314 6841686
-1512.6014 571.47528 2506.3879 6052171
-1497.4943 571.37848 2505.9634 7697253
-1490.0513 574.23328 2518.4841 7565668
-1491.9214 580.77136 2547.1587 6974300
-1491.8584 586.6828 2573.0852 7565925
-1462.4603 581.06097 2548.429 6842199
-1485.7855 596.48828 2616.0903 6249806
-1487.7861 603.58966 2647.2356 5328447
-1475.2136 604.86713 2652.8384 4867895
-1478.1134 612.58435 2686.6848 5131068
-1464.3922 613.50629 2690.7283 3485989
-1449.2858 613.86182 2692.2876 3749162
-1444.5054 618.64771 2713.2776 3880747
-1411.6998 611.40369 2681.5066 4078126
-1392.364 609.89478 2674.8889 3091231
-1375.1919 609.30994 2672.3237 5196093
-1363.283 611.07043 2680.0452 6249294
-1358.4733 616.09216 2702.0696 5065276
-1354.1284 621.44708 2725.5552 3551267
-1343.9974 624.24371 2737.8208 4603697
-1319.002 620.12036 2719.7363 4867893
0 0 0 0
0 0 0 0
0 0 0 0
0 0 0 0
0 0 0 0
0 0 0 0
0 0 0 0
0 0 0 0
-644.44763 340.42136 1493.027 256
0 0 0 0
0 0 0 0
0 0 0 0
0 0 0 0
-1134.5591 643.49084 2822.2354 5130298
-1126.8312 648.67023 2844.9512 5130552
-1110.3502 648.89166 2845.9221 7170135
-1121.1398 665.30261 2917.8977 5656897
-1111.6304 669.99335 2938.4705 4998970
-1088.002 666.18823 2921.7817 3222817
-1064.8864 662.5791 2905.9529 4538932
-1058.7072 669.5625 2936.5808 6051915
-1044.5239 671.63263 2945.6602 7170649
-1032.2307 675.00922 2960.469 3090459
-1010.0192 671.90448 2946.8523 3156507
-996.57635 674.62634 2958.79 3090456
-973.5274 670.82648 2942.1243 3748387
-978.16418 686.31323 3010.0464 5525056
-963.48975 688.57428 3019.9629 4735539
-933.47852 679.75275 2981.2732 5525825
-910.84283 676.06525 2965.1008 4275759
-905.05157 684.9812 3004.2046 4933688
-879.22162 678.78461 2977.0273 4801589
-876.07904 690.20819 3027.1292 4143658
-865.89282 696.44415 3054.479 6051398
-852.09143 699.97662 3069.9717 4274990
-832.06226 698.43561 3063.2131 5262141
-816.33551 700.51782 3072.3452 5130554
-807.80933 709.01501 3109.6125 6709328
-780.3446 700.89856 3074.0151 5788226
-781.45282 718.67139 3151.9636 4735794
-761.80389 717.75775 3147.9565 4209194
-734.3678 709.27716 3110.7622 4932917
-723.54895 716.82257 3143.855 3616544
-706.60315 718.53638 3151.3713 2827543
-686.27521 716.81061 3143.8025 5327417
-667.43707 716.58807 3142.8264 5327417
-655.78558 724.2901 3176.6062 4932401
-645.37982 733.86389 3218.5952 4866868
-624.46863 731.71124 3209.1541 3418907
-599.18457 724.13861 3175.9419 5722175
-585.6817 730.7746 3205.0461 4340266
-575.10339 741.62695 3252.6423 5985604
-547.96442 731.13538 3206.6282 6709071
-530.53778 733.31439 3216.1851 4538160
-522.00842 748.41205 3282.4006 5525568
-492.521 733.46753 3216.8567 7170394
-489.81714 758.81189 3328.0125 4341555
-469.69604 758.16852 3325.1909 6249295
-452.72195 762.771 3345.3765 4011564
-436.88312 769.79547 3376.1846 4274735
-422.6452 780.45044 3422.9153 5064251
-398.73318 773.41498 3392.0591 5393728
-384.07126 784.52728 3440.7959 5920585
-361.82828 780.53198 3423.2732 7499617
-340.06104 777.14923 3408.437 4012333
-321.9277 782.16846 3430.4502 5657157
-304.64047 790.05847 3465.0544 5525830
-282.99841 786.979 3451.5483 6249553
-264.85129 793.89569 3481.8838 5591366
-249.03813 809.56848 3550.6218 3091232
-228.3838 810.94403 3556.6548 3879979
-203.54054 796.21307 3492.0474 3485474
-182.46155 794.53925 3484.7065 3945511
-163.89754 804.7876 3529.6538 3946024
-141.54385 796.70361 3494.199 5853251
-121.18896 799.02771 3504.3918 5787714
-101.61234 808.50537 3545.9592 4801332
-81.110565 813.64471 3568.4995 5656639
-61.075184 828.73779 3634.6951 4274988
-39.868065 835.71515 3665.2964 4472368
-18.173243 836.93585 3670.6504 4077867
3.6017375 842.0614 3693.1299 4604470
25.847559 853.93982 3745.2268 3617575
48.082829 854.6554 3748.3652 4275505
71.518494 869.513 3813.5276 3684134
93.295303 861.91003 3780.1824 3157021
116.15127 865.29065 3795.0093 4670003
140.66312 877.90924 3850.3521 4209196
166.44234 893.81122 3920.0955 4012074
189.52028 893.08838 3916.9253 3617059
214.36884 899.95679 3947.0488 5590851
236.27963 894.3537 3922.4746 4801335
260.21323 896.72534 3932.8762 2498326
284.5545 899.9964 3947.2224 3682855
308.03302 900.2489 3948.3301 6314831
328.99197 893.62213 3919.2661 4537907
352.89111 895.32898 3926.752 4340528
382.67368 910.82806 3994.7283 3682598
407.05972 912.42505 4001.7322 5327422
434.98859 921.35016 4040.8762 4472370
461.73068 926.96143 4065.4861 4208941
490.5972 936.06952 4105.4326 3879977
514.75659 935.76001 4104.0752 2630167
545.97247 947.72742 4156.562 3551013
565.55206 939.33453 4119.7524 3682598
589.32861 938.31885 4115.2979 4866617
615.36945 940.84564 4126.3799 2958876
636.1767 935.4834 4102.8623 4603188
673.83936 954.38916 4185.7793 4405809
702.48755 959.638 4208.7998 4471857
730.34393 963.48236 4225.6606 4209199
769.03656 980.89337 4302.022 4801850
798.55341 985.85901 4323.8003 5657416
836.1698 1000.2042 4386.7158 4998972
847.44043 983.12054 4311.79 4670264
874.65881 984.99634 4320.0171 4340272
903.95837 989.04279 4337.7637 3945515
944.83051 1005.1771 4408.5259 4604471
966.57159 1000.6377 4388.6172 4801849
1002.4178 1010.5559 4432.1167 4209715
1053.0149 1034.4586 4536.9492 5591368
1082.4041 1036.8556 4547.4619 5328196
1110.4045 1037.838 4551.771 4078385
1125.5446 1027.0391 4504.4087 4538426
1174.1407 1046.5613 4590.0298 5065284
1208.4037 1052.713 4617.0098 3157545
1234.7539 1051.8516 4613.2319 4275770
1264.5951 1053.9369 4622.3779 4801858
1304.0638 1063.7876 4665.5811 3617068
1324.0503 1057.6665 4638.7349 3879981
1359.3307 1063.7628 4665.4727 4274737
1382.7755 1060.5387 4651.332 4340274
1439.561 1082.512 4747.7026 4274736
1452.6216 1071.3929 4698.937 4669495
1496.525 1083.0128 4749.8999 4406323
1522.4116 1081.4059 4742.8521 4867645
1593.5432 1111.4131 4874.4585 3815217
1656.3389 1134.6416 4976.334 4670528
1652.9084 1112.4841 4879.1553 3749683
1710.054 1131.1578 4961.0552 4539713
1739.1804 1130.9797 4960.2739 4341820
1777.9246 1136.9581 4986.4937 4012855
1803.0258 1134.1589 4974.2173 3946806
1852.3539 1146.4443 5028.0986 4078135
1871.8695 1140.1813 5000.6304 4932934
1954.3827 1171.8884 5139.6919 3880502
1979.5267 1168.7504 5125.9292 3814710
2042.0179 1187.4244 5207.8301 4801864
2110.5425 1208.9985 5302.4502 4867658
2161.407 1219.9717 5350.5767 3881021
2177.7866 1211.4446 5313.1782 2237229
2202.7104 1207.8458 5297.3945 7435657
2190.7981 1184.4327 5194.7095 7766425
2373.0613 1265.1932 5548.9102 8162471
2400.9575 1262.5703 5537.4062 8096423
2522.7808 1308.7448 5739.9194 8096423
2564.2158 1312.5424 5756.5747 8228011
2609.6216 1318.2461 5781.5903 8293803
2698.8611 1345.6573 5901.8115 8293804
2775.5791 1366.2041 5991.9258 8228012
2822.2881 1371.6471 6015.7979 8162218
2913.2927 1398.2137 6132.3145 8162219
3015.5115 1429.4417 6269.2739 8162218
3115.4717 1458.8517 6398.2617 8161962
3081.1174 1425.4166 6251.6211 8030119
3305.4592 1511.0345 6627.126 4872313
3303.8569 1492.5682 6546.1357 8293291
3401.8545 1519.004 6662.0786 7899303
3473.0557 1533.0054 6723.4858 7833251
3635.1028 1586.3336 6957.374 7767202
3731.4954 1610.1359 7061.7661 7767202
0 0 0 0
0 0 0 0
0 0 0 0
3920.1089 1618.8972 7100.1924 6846099
4906.231 2004.6215 8791.9092 5858432
4969.0337 2008.9474 8810.8818 3357787
5017.8237 2007.5769 8804.8721 1843258
5036.501 1994.3109 8746.6895 1449019
5295.562 2075.5308 9102.9053 1844031
5589.4067 2168.6084 9511.126 2040898
5632.8799 2163.6565 9489.4082 1909569
5762.5122 2191.5701 9611.832 1909568
6017.106 2265.9966 9938.2539 1975105
6208.9683 2315.585 10155.74 2040897
6484.4863 2395.1208 10504.57 1975104
6586.8662 2409.8018 10568.957 1909567
6864.8101 2487.8308 10911.179 2040896
6942.9668 2492.6755 10932.428 1974847
7255.1064 2580.6592 11318.308 1909054
7421.3501 2615.6106 11471.599 1843006
7443.4585 2599.5894 11401.332 1711933
7654.2476 2649.1589 11618.735 1843518
8489.623 2912.0891 12771.899 1777724
7973.5171 2710.8867 11889.462 1909310
8092.3804 2727.1992 11961.006 2106686
8393.4541 2804.1016 12298.286 2501443
8940.1914 2961.0452 12986.612 3290953
8811.2949 2893.4458 12690.134 4277072
8923.2715 2905.4187 12742.645 4211535
9166.1836 2959.4656 12979.685 3488072
9723.8672 3113.397 13654.799 2764610
9865.8066 3132.7727 13739.777 2369602
9966.5635 3138.8611 13766.48 2238531
10145.02 3169.1226 13899.201 2370118
10346.207 3205.9399 14060.676 2369862
10764.837 3309.009 14512.719 2369863
10997.623 3353.7708 14709.035 2304071
11231.979 3398.3025 14904.345 2369606
11302.38 3392.9216 14880.744 2501192
11662.929 3474.0505 15236.562 2566981
12066.694 3566.707 15642.937 2238270
12238.594 3589.9377 15744.821 1184553
12896.882 3754.4087 16466.162 131094
12724.873 3676.5178 16124.546 65549
13719.662 3934.3906 17255.531 15
14371.856 4090.9287 17942.078 262927
16028.637 4529.021 19863.473 328717
15286.855 4287.9341 18806.109 855324
15058.567 4193.3281 18391.184 3157825
15020.442 4152.6562 18212.803 5001053
15040.673 4128.582 18107.219 6448242
15217.714 4147.5879 18190.576 6842998
15335.967 4150.417 18202.982 6448753
15484.554 4161.3579 18250.967 6251374
15504.394 4137.7871 18147.59 6316910
15655.289 4149.2764 18197.98 6580338
0 0 0 0
0 0 0 0
15305.915 3974.5398 17431.617 6316911
14628.915 3773.2739 16548.902 4802899
14726.514 3773.1526 16548.369 2302762
14677.26 3735.656 16383.915 0
14613.813 3695.064 16205.886 262916
14030.741 3524.4731 15457.706 1052435
14116 3522.8894 15450.759 1644829
14123.289 3501.9924 15359.109 1776416
13692.542 3373.4438 14795.319 2039587
13531.973 3312.6716 14528.782 1974051
13338.069 3244.5591 14230.053 2171430
13463.835 3254.5747 14273.98 1974051
13573.473 3260.5918 14300.369 2171430
13240.309 3160.8247 13862.81 2105637
0 0 0 0
0 0 0 0
0 0 0 0
0 0 0 0
0 0 0 0
0 0 0 0
0 0 0 0
0 0 0 0
0 0 0 0
0 0 0 0
0 0 0 0
-1986.02 533.91034 2282.3145 3946275
-1977.0432 535.1416 2287.5776 5722430
-1970.807 537.13672 2296.1064 5788480
-1953.0127 535.98761 2291.1941 4538413
-1938.01 535.59393 2289.5112 4406572
-1890.6035 526.17627 2249.2537 5130294
-1868.8043 523.80237 2239.1057 6578509
-1847.1779 521.44324 2229.0212 7368024
-1845.2905 524.66248 2242.7825 4472362
-1862.6897 533.45184 2280.3545 4998963
-1858.8439 536.24084 2292.2769 4735278
-1853.2549 538.56439 2302.2092 5722174
-1868.0262 546.88312 2337.7695 6051394
-1857.1743 547.76855 2341.5544 2959382
-1843.5935 547.85645 2341.9302 5196342
-1802.6509 539.75299 2307.29 6906703
-1772.3718 534.74292 2285.8735 6972754
-1753.6191 533.16003 2279.1072 5591616
-1747.3575 535.37982 2288.5962 6183754
-1738.6517 536.87964 2295.0073 5131068
-1736.2375 540.36115 2309.8899 6446928
-1738.6855 545.42328 2331.5291 3946794
-1732.2184 547.74744 2341.4641 3814694
-1726.215 550.2569 2352.1914 3879719
-1707.7031 548.7876 2345.9106 4801331
-1698.3616 550.26526 2352.2273 5656381
-1681.3567 549.26398 2347.947 4537899
-1664.3494 548.24518 2343.5918 7631195
-1658.4659 550.90436 2354.959 6315079
-1660.7101 556.3313 2378.1577 6380875
-1651.5265 557.99017 2385.249 4670256
-1640.6324 559.09485 2389.9709 6973525
-1607.0621 552.42371 2361.4539 6973013
-1600.2754 554.92316 2372.1382 5920326
-1622.027 567.45068 2425.6899 5131066
-1603.8341 566.10321 2419.9297 5065271
-1590.9751 566.63104 2422.186 6907475
-1577.5917 566.97998 2423.6777 5525830
-1567.7734 568.62842 2430.7244 6315598
-1579.8951 578.33881 2472.2336 4275758
-1557.6866 575.54645 2460.2969 7762787
-1533.5936 571.99835 2445.1299 6578771
-1533.0559 577.25208 2467.5879 5196861
-1501.9213 570.9751 2440.7556 4275759
-1475.6976 566.46118 2421.4602 6907478
-1486.6328 576.26251 2463.3579 6381134
-1471.0271 575.86816 2461.6721 7104859
-1481.6251 585.82678 2504.2424 8157805
-1458.2205 582.40631 2489.6211 6973532
-1449.1558 584.70184 2499.4338 7434083
-1439.3783 586.75421 2508.207 6776152
-1460.5571 601.60022 2571.6694 5986635
-1444.54 601.27692 2570.2874 4868155
-1461.4458 614.79657 2628.0801 5394500
-1452.4647 617.60016 2640.0647 4275759
-1448.2513 622.51416 2661.0706 6183756
-1430.0105 621.44043 2656.4807 4736054
-1419.9297 623.92841 2667.116 3683623
-1406.4097 624.94415 2671.458 2499094
-1375.4974 618.16669 2642.4863 3551782
-1364.4731 620.27405 2651.4946 6117709
-1338.9988 615.7851 2632.3057 7499362
-1301.3431 605.52228 2588.4351 5328195
-1331.8842 627.12543 2680.7822 6512467
-1308.7307 623.66266 2665.98 5394240
-1294.6527 624.49292 2669.5291 3880999
0 0 0 0
0 0 0 0
0 0 0 0
0 0 0 0
0 0 0 0
0 0 0 0
0 0 0 0
-653.92853 349.60773 1494.4734 256
-646.05121 350.13843 1496.7419 0
-637.06506 350.07465 1496.4692 5066313
0 0 0 0
0 0 0 0
-1115.078 639.45319 2733.48 4539704
-1099.7037 639.93323 2735.5322 5065791
-1096.0825 647.3692 2767.3188 4802362
-1071.3114 642.34979 2745.8623 7697255
-1061.6039 646.34686 2762.9485 5460292
-1073.5789 663.87714 2837.8855 6183759
-1071.1351 672.90723 2876.4866 4604470
-1041.1007 664.61621 2841.0447 3683368
-1022.8895 663.72424 2837.2319 5262655
-1008.2216 665.14008 2843.2842 6446927
-992.08551 665.61902 2845.3315 4209713
-1002.9062 684.51331 2926.0991 5065019
-971.87488 675.00464 2885.4524 3485474
-959.26605 678.17963 2899.0247 3617829
-948.18311 682.56885 2917.7874 4933945
-940.86414 689.8811 2949.0452 4604724
-926.14154 691.93878 2957.8411 5525568
-911.09772 693.83112 2965.9302 5854790
-889.04218 690.35327 2951.0635 5723203
-877.73462 695.24927 2971.9924 4012072
-853.97632 690.28168 2950.7573 3025180
-844.41772 696.82416 2978.7246 5590848
-834.46527 703.31403 3006.467 3485216
-809.41943 697.08844 2979.8542 3682849
-793.01501 698.19318 2984.5767 5854275
-781.08215 703.37506 3006.7278 5262138
-766.67145 706.5155 3020.1523 6644047
-765.71863 722.50439 3088.5002 2564628
-752.35321 727.27753 3108.9041 6380875
-726.1405 719.55945 3075.9114 5525822
-719.8233 731.66675 3127.6667 3618084
-708.28961 738.97156 3158.8928 3353884
-686.20734 735.36871 3143.4915 3617055
-668.9917 736.9256 3150.1467 5656382
-643.85962 729.60114 3118.8369 4801072
-639.62439 746.22333 3189.8921 3748642
-622.80096 748.72461 3200.5842 3485215
-600.70288 744.84259 3183.9897 4932919
-584.57245 748.34845 3198.9763 4867124
-562.02783 743.60278 3178.6899 5130296
-544.27057 745.08179 3185.0122 4340523
-525.35614 745.02588 3184.7732 5591104
-509.05005 748.80273 3200.9182 5393469
-487.27863 744.52142 3182.6167 4274989
-478.5463 760.62012 3251.4341 7301467
-468.26071 775.49719 3315.0293 4932919
-442.55219 765.01654 3270.2275 3485473
-420.95255 761.00391 3253.0747 3222301
-401.09064 759.89844 3248.3491 4668977
-386.76758 769.70435 3290.2666 3484960
-363.93039 762.70801 3260.3591 4603441
-349.86447 774.34015 3310.0833 5392957
-327.30597 767.44135 3280.5928 4604210
-309.41721 771.31195 3297.1387 4998715
-289.30396 769.7854 3290.6133 6446930
-273.84378 781.31415 3339.8953 5394243
-259.26315 797.34412 3408.4189 4933436
-240.38116 801.73682 3427.1963 5459779
-221.28168 806.14789 3446.0522 4802105
-199.73512 801.6347 3426.7598 6643795
-179.58894 802.35632 3429.8445 3222301
-158.64594 799.2478 3416.5566 5327676
-138.51868 799.9408 3419.5188 3945767
-116.43423 787.63159 3366.9004 3024408
-99.415733 811.58728 3469.3042 4208425
-78.827667 811.29675 3468.0623 3419423
-58.396961 812.992 3475.3091 4208683
-38.334751 824.45978 3524.3306 3813925
-17.973261 849.23981 3630.2581 4011818
3.51511 843.16827 3604.304 3420194
25.070732 849.80341 3632.6672 3551785
46.703445 851.71368 3640.8333 4538421
69.120689 862.20282 3685.6714 5788745
91.64135 868.63489 3713.1665 3618086
113.28606 865.88098 3701.3943 4867895
136.64302 874.9848 3740.3105 4736306
161.65495 890.66565 3807.3418 5460289
185.36603 896.21588 3831.0674 1972756
209.64665 903.00793 3860.1016 3222305
229.4771 891.18134 3809.5461 3485476
252.14474 891.5047 3810.9285 4471856
274.88525 892.01141 3813.0942 2761236
300.53009 901.1499 3852.1587 4866356
328.85269 916.46045 3917.6069 3024409
340.22784 885.63635 3785.8428 4735027
372.28018 909.12048 3886.2307 3682594
395.8385 910.33392 3891.4182 3682593
423.56378 920.46942 3934.7444 4274987
454.3204 935.79089 4000.2393 5525570
474.56314 929.01068 3971.2556 5262399
502.14487 936.5592 4003.5234 3682855
527.81531 940.02271 4018.3289 4340785
548.14209 934.08105 3992.9302 5130816
573.97064 937.61871 4008.0527 6841176
597.40582 937.12079 4005.9243 6183245
627.25275 946.33429 4045.3093 5524289
660.03424 959.13397 4100.0244 3089949
689.73096 966.70111 4132.3716 2826777
715.64935 968.63538 4140.6401 4669494
745.40686 975.46545 4169.8364 2827292
772.17657 978.07269 4180.9819 4472115
792.33923 972.40918 4156.772 4208686
816.90656 972.3299 4156.4331 4340529
848.8916 980.82587 4192.751 5722438
866.95062 973.20581 4160.1772 4801333
897.49084 979.63062 4187.6416 5261885
927.66467 985.32056 4211.9644 4077356
959.06897 991.98505 4240.4531 4998972
1010.293 1018.2856 4352.8804 4341302
1050.286 1032.2385 4412.5254 5196610
1053.9971 1010.7213 4320.5454 4670265
1100.2328 1030.0363 4403.1113 4933694
1132.7957 1035.9524 4428.4009 4801851
1172.0695 1047.5988 4478.186 4801598
1211.4252 1058.8009 4526.0723 3683117
1242.656 1062.5704 4542.1855 3353895
1257.0376 1052.0781 4497.334 3222310
1307.7129 1071.7667 4581.4976 4932411
1327.2935 1065.6886 4555.5151 3945772
1356.7328 1067.6105 4563.7305 3484450
1378.7621 1063.7402 4547.1865 3024412
1426.7048 1079.6279 4615.1016 3222304
1449.7789 1076.453 4601.5298 4077357
1481.1799 1079.4639 4614.4004 4143150
1543.4186 1104.4323 4721.1328 4012333
1588.8127 1116.6726 4773.457 3814957
1658.7124 1145.4069 4896.2876 4406324
1651.7678 1121.0012 4791.9604 4340787
1713.2495 1143.0745 4886.3174 4274996
1740.5881 1142.0125 4881.7773 4143412
1783.915 1151.3035 4921.4941 3222568
1807.905 1148.0168 4907.4448 2959653
1828.8904 1142.9567 4885.8135 4800830
1878.3041 1155.5431 4939.6177 4736064
1898.0645 1149.7808 4914.9849 3353896
1968.6119 1174.4924 5020.6201 3748911
1984.5245 1166.3579 4985.8477 3156773
2011.9103 1165.1063 4980.4971 4472634
2016.7506 1151.0233 4920.2964 4472379
2126.0798 1196.1271 5113.1021 4143930
2122.0076 1177.0602 5031.5967 3946554
2159.4268 1181.218 5049.3701 5131600
2227.1418 1201.6077 5136.5298 3750975
2276.3799 1211.6128 5179.2993 5988719
2358.6565 1238.7029 5295.1016 7568789
2410.8655 1249.4979 5341.2476 8227749
2536.2217 1297.4329 5546.1553 8228009
2584.446 1305.1881 5579.3071 8293803
2669.8005 1331.2621 5690.7656 8228010
2739.4824 1348.968 5766.4536 8096682
2808.2068 1365.772 5838.2856 8162219
2884.4766 1385.7919 5923.8652 8228010
2987.2373 1417.9045 6061.1372 8228008
3037.1362 1424.4611 6089.1646 8161960
3158.7764 1464.1162 6258.6792 4083052
3243.5903 1485.9796 6352.1392 8030633
3358.2732 1520.8684 6501.2788 8030630
3442.0583 1541.1316 6587.8979 8030630
3490.9629 1545.4982 6606.564 8096423
3631.6116 1589.934 6796.5142 8030373
0 0 0 0
0 0 0 0
3955.6118 1676.0172 7164.4956 7898787
3972.6018 1665.3407 7118.8569 7898787
3990.093 1655.0966 7075.0659 7701665
4124.8843 1693.2156 7238.0137 7569308
4026.4207 1635.7872 6992.5239 7437978
4460.0483 1793.4958 7666.6836 7042962
5020.5552 1998.5306 8543.1484 5462903
5170.7822 2037.782 8710.9365 3028561
5186.6479 2023.8295 8651.2939 1712445
5441.6211 2102.5369 8987.7451 1580089
5687.9609 2176.4146 9303.5518 1777982
5823.1177 2206.7397 9433.1836 2106434
6134.4912 2302.6328 9843.0986 1909311
6290.3525 2338.8962 9998.1143 1975105
6435.9365 2370.6973 10134.055 1909311
6634.4854 2421.2397 10350.109 1843775
6791.2632 2455.7517 10497.638 1909568
7005.1958 2510.1169 10730.034 1975104
7217.1968 2562.8179 10955.315 1975104
7361.856 2590.8794 11075.271 1975103
7625.6851 2660.0144 11370.803 1843773
7727.7427 2672.0027 11422.05 1844029
7801.4521 2674.0664 11430.871 1909565
8088.4834 2748.5837 11749.412 1909819
8338.2559 2809.2766 12008.856 2040891
8428.0107 2815.4861 12035.4 2106427
8722.9121 2889.5483 12351.995 2172474
8918.543 2929.7668 12523.918 2238009
8976.9141 2924.6035 12501.846 2895678
9274.6943 2996.884 12810.824 3553609
9340.9707 2993.7932 12797.612 4145747
9363.6855 2976.9033 12725.412 3487819
9672.6709 3050.5671 13040.305 2698820
9961.0742 3116.6233 13322.677 2436165
10127.832 3143.8799 13439.189 2435653
10488.033 3230.291 13808.573 2369863
10539.936 3221.144 13769.472 2435657
10850.333 3290.5298 14066.077 2238536
11163.2 3359.6013 14361.338 2304072
11622.279 3471.2976 14838.807 2435400
11674.983 3460.853 14794.16 2369863
12151.639 3575.3008 15283.392 2172226
12421.497 3627.6606 15507.215 1645622
12852.273 3725.9021 15927.169 790053
13127.976 3778.0825 16150.225 460569
12952.779 3700.6829 15819.364 197654
13272.685 3764.833 16093.587 17
14234.102 4008.7354 17136.201 131600
15510.878 4337.3682 18541.012 263440
14915.646 4141.582 17704.082 1513252
14679.538 4047.5522 17302.131 2961211
15065.47 4125.1499 17633.84 4934745
15259.397 4149.4673 17737.789 6448241
15403.492 4159.9941 17782.787 6514034
15341.157 4115.0059 17590.477 6448496
15301.92 4076.7788 17427.066 6382447
15544.024 4113.5176 17584.115 6251374
15967.996 4197.5757 17943.439 6317168
15869.156 4143.9966 17714.404 6382960
17048.654 4422.7476 18905.984 6382960
15827 4079.0203 17436.648 5133150
14440.887 3697.6418 15806.365 3685191
14287.217 3634.7173 15537.381 1907745
14065.658 3555.4382 15198.484 1184277
14068.091 3533.4268 15104.392 1315865
14167.294 3535.8455 15114.731 2039075
14223.977 3527.6885 15079.862 1973535
14204.313 3500.8167 14964.994 1907743
14175.507 3472.0391 14841.977 1842206
0 0 0 0
0 0 0 0
0 0 0 0
0 0 0 0
0 0 0 0
0 0 0 0
0 0 0 0
0 0 0 0
0 0 0 0
0 0 0 0
0 0 0 0
0 0 0 0
-1954.3912 542.4115 2261.3677 1446409
-1928.3823 538.88837 2246.6792 4801335
-1935.0392 544.50806 2270.1084 4867128
-1922.9988 544.90839 2271.7773 3814439
-1886.8635 538.4386 2244.8042 5064503
-1854.2881 532.90002 2221.7131 4735792
-1839.7344 532.49847 2220.0391 7433047
-1839.5338 536.27545 2235.7856 4867377
-1821.0295 534.73248 2229.353 5459515
-1805.9259 534.17285 2227.0198 5196341
-1839.8859 548.22424 2285.6016 5986113
-1816.2351 545.1908 2272.9546 5591099
-1806.7632 546.39984 2277.9954 5919808
-1785.4819 544.02887 2268.1106 5394235
-1746.2196 536.10168 2235.0613 6776147
-1763.8177 545.64325 2274.8411 7828578
-1747.3143 544.70111 2270.9131 5657411
-1727.1779 542.60303 2262.166 5591619
-1714.6387 542.8775 2263.3103 8552305
-1705.2699 544.16797 2268.6904 7500128
-1709.1674 549.74603 2291.9458 7171162
-1719.5419 557.51349 2324.3291 6841687
-1707.8613 558.19788 2327.1824 2367249
-1689.2847 556.62103 2320.6086 4603950
-1698.7089 564.32043 2352.7083 5327416
-1685.9601 564.72028 2354.3752 4208932
-1662.738 561.58954 2341.3228 5130547
-1649.3041 561.73981 2341.9492 5591614
-1673.9758 574.98132 2397.1543 2169868
-1644.5303 569.70203 2375.1445 4867123
-1608.5931 562.06329 2343.2979 4999220
-1579.7498 556.79181 2321.3206 6644303
-1581.3833 562.26379 2344.1338 5460288
-1601.3782 574.41907 2394.8103 4999483
-1575.343 570.13293 2376.9412 6052170
-1550.0742 566.04938 2359.9163 5723205
-1532.1362 564.59283 2353.8438 5328446
-1517.0897 564.18488 2352.1428 6249547
-1512.4261 567.66632 2366.6575 5920582
-1476.2118 559.26001 2331.6108 6775891
-1498.3287 573.00244 2388.9043 6775891
-1487.6803 574.35706 2394.5518 6446928
-1468.8124 572.53394 2386.9509 4999482
-1469.483 578.36536 2411.2627 6052170
-1459.46 580.0611 2418.3325 7631202
-1428.3955 573.34467 2390.3311 7104857
-1430.0145 579.7439 2417.01 5920585
-1437.3936 588.63147 2454.0632 4867642
-1432.1919 592.49615 2470.1753 6644053
-1427.8743 596.81 2488.1604 7894632
-1423.2567 601.08734 2505.9929 7105116
-1421.1294 606.5177 2528.6326 6315600
-1416.0607 610.79498 2546.4651 5263164
-1416.0085 617.35162 2573.8003 5854787
-1424.1125 627.64563 2616.717 5328444
-1406.4904 626.70319 2612.7881 4670258
-1404.8467 632.93878 2638.7849 2630934
-1393.7555 635.01038 2647.4214 3485989
-1378.2113 635.07715 2647.7 3420453
-1332.9039 621.27283 2590.1482 7039068
-1310.8087 618.0921 2576.8875 6315088
-1301.5654 620.96796 2588.8772 6644308
-1281.6414 618.75592 2579.655 5525828
-1275.9104 623.42542 2599.1226 5525826
-1262.8452 624.5816 2603.9429 7104858
0 0 0 0
0 0 0 0
0 0 0 0
0 0 0 0
0 0 0 0
0 0 0 0
0 0 0 0
