# .PCD v0.7 - Point Cloud Data file format
VERSION 0.7
FIELDS x y z rgb
SIZE 4 4 4 4
TYPE F F F U
COUNT 1 1 1 1
WIDTH 1450
HEIGHT 1
VIEWPOINT 0 0 0 1 0 0 0
POINTS 1450
DATA ascii
0 0 0 0
0 0 0 0
17417.629 2954.783 19572.41 2960433
16279.794 2743.4871 18172.791 3684159
0 0 0 0
13623.803 2265.9175 15009.381 11
14508.013 2397.3276 15879.84 12
14304.959 2348.5405 15556.675 13
13766.287 2245.6306 14875.002 11
13225.35 2143.6631 14199.571 329230
0 0 0 0
0 0 0 0
0 0 0 0
0 0 0 0
0 0 0 0
0 0 0 0
0 0 0 0
0 0 0 0
0 0 0 0
0 0 0 0
0 0 0 0
0 0 0 0
0 0 0 0
0 0 0 0
0 0 0 0
0 0 0 0
-2389.7222 433.82095 2765.0759 5986117
-2362.0889 431.7652 2751.9729 5394493
-2375.002 437.14374 2786.2546 4474160
-2385.4482 442.14041 2818.1023 7236695
-2374.0229 443.12515 2824.3787 6052423
-2382.165 447.80209 2854.1885 2301196
-2361.9922 447.18515 2850.2563 6446410
-2355.5369 449.1752 2862.9404 7170647
-2398.678 460.72021 2936.5256 8421227
-2377.1211 459.91638 2931.4023 5592384
-2378.4656 463.56427 2954.6531 6447437
-2361.459 463.66309 2955.283 4934198
-2338.8264 462.65054 2948.8291 4999477
-2284.3872 455.28354 2901.8738 5065013
-2312.0366 464.2894 2959.2749 5064756
-2309.2156 467.26718 2978.2546 3946275
-2280.3096 464.97198 2963.6255 4406827
-2277.8044 468.06625 2983.3477 6446410
-2291.1306 474.48749 3024.2751 4209190
-2244.7058 468.53824 2986.356 5393721
-2226.2625 468.38132 2985.356 5131063
-2224.0381 471.66165 3006.2639 7959650
-2202.6826 470.90488 3001.4404 5065013
-2223.1814 479.15652 3054.0347 4604205
-2192.1001 476.33551 3036.054 5788478
-2199.4915 481.89694 3071.5012 5064242
-2210.5132 488.35321 3112.6521 4340520
-2190.5503 488.01532 3110.4985 4669741
-2169.5142 487.43057 3106.7715 5525307
-2179.6824 493.90659 3148.0481 4012068
-2166.6501 495.19193 3156.2405 4998964
-2138.3738 492.98523 3142.1755 5657151
-2143.6555 498.54422 3177.6074 7499357
-2105.9231 494.10941 3149.3411 5065530
-2080.5317 492.51688 3139.1904 6710354
-2067.469 493.84033 3147.6257 5789253
-2063.1885 497.30481 3169.7075 6117962
-2059.4067 500.95413 3192.9678 6118220
-2039.3693 500.68039 3191.2227 5723206
-1998.2153 495.16867 3156.0925 6052684
-1989.9722 497.78534 3172.7705 6841686
-2018.0121 509.61456 3248.1672 5196861
-2027.538 516.95123 3294.9294 7236441
-2028.8113 522.30609 3329.0598 6512975
-2004.3518 521.07617 3321.2209 5460031
-2017.3691 529.66144 3375.9417 6512718
-1976.0801 524.01776 3339.97 6446924
-1955.1157 523.7041 3337.9707 5986374
-1936.6956 524.07251 3340.3188 5657409
-1927.9736 527.09998 3359.615 1577994
0 0 0 0
0 0 0 0
0 0 0 0
0 0 0 0
0 0 0 0
-1874.6379 546.37183 3482.4495 4208936
-1844.5337 543.58203 3464.6682 4209192
0 0 0 0
0 0 0 0
0 0 0 0
0 0 0 0
0 0 0 0
0 0 0 0
0 0 0 0
-1692.8245 547.64197 3490.5452 5131068
-1680.6576 550.43195 3508.3281 6183757
-1651.7864 547.7525 3491.2498 6249549
-1637.4177 549.87531 3504.78 7038808
-1660.5363 564.80328 3599.9272 4867639
-1653.8489 569.84985 3632.0933 5196860
-1610.7814 562.32916 3584.158 6381135
-1612.9709 570.61798 3636.989 2894107
-1594.7999 571.83075 3644.7192 6381647
-1576.4141 572.99884 3652.1643 6907737
-1582.5894 583.25128 3717.511 6644565
-1532.5205 572.77216 3650.7195 5854536
-1523.3896 577.51245 3680.9329 4538672
-1493.5106 574.41058 3661.1624 3288092
-1502.7058 586.46698 3738.0068 4538157
-1498.2749 593.48657 3782.7485 5722687
-1471.0811 591.5658 3770.5059 5788224
-1455.1132 594.16974 3787.1025 5788480
-1452.5571 602.41754 3839.6721 5459259
-1451.4595 611.54224 3897.8311 3880230
-1408.9072 603.21362 3844.7463 4538416
-1367.2742 595.01123 3792.4663 4604980
-1381.4166 611.21277 3895.731 6052426
-1347.4789 606.3302 3864.6106 3815468
-1348.4377 617.25287 3934.229 3486501
-1334.069 621.4201 3960.79 4867898
-1304.8541 618.69733 3943.436 6644564
-1286.0321 620.89294 3957.4302 3486243
-1267.1313 623.13135 3971.6973 4933688
-1238.5973 620.62756 3955.7385 5328702
-1202.5383 614.18378 3914.6677 6446156
-1198.2808 624.04834 3977.5422 6249804
-1168.8693 620.94611 3957.7688 6643791
-1148.9935 622.88623 3970.1348 4735281
-1132.653 626.86401 3995.4883 4538414
-1107.957 626.28864 3991.8213 4077863
-1109.8177 641.02716 4085.7615 2894364
-1084.4191 640.32715 4081.2996 1314821
-1070.7039 646.65137 4121.6089 2433301
-1030.3938 636.83405 4059.0352 4407345
-996.32831 630.49896 4018.6567 4407602
-985.7204 639.06158 4073.2332 4407086
-942.99878 626.71161 3994.5171 4274986
-940.9646 641.46252 4088.5361 4077610
-914.86169 640.15161 4080.1809 4669747
-896.7923 644.54358 4108.1738 4866611
-880.51898 650.50745 4146.186 4603695
-857.96167 652.03796 4155.9414 3682595
-821.93658 643.12109 4099.1074 6447185
-817.85834 659.41913 4202.9873 4670263
-806.27142 670.49664 4273.5933 2170385
-778.02173 667.98676 4257.5952 2498580
-751.45575 666.80249 4250.0474 3551266
-722.27338 663.13397 4226.665 5459776
-702.01453 667.68909 4255.6982 5459779
-703.34125 693.87885 4422.626 3946283
-672.02399 688.64465 4389.2642 2498325
-642.22559 684.60809 4363.5361 5195837
-622.75269 691.70154 4408.748 2564370
-594.95764 689.76788 4396.4233 2629907
-567.59033 688.17572 4386.2754 5787970
-548.13702 696.48657 4439.2471 4077866
-522.13458 696.89435 4441.8457 4802102
-493.94009 694.26428 4425.0825 4473138
-467.06912 693.30396 4418.9614 5460033
-445.19562 700.0882 4462.2026 4670517
-425.74167 711.77441 4536.688 5131067
-394.77887 704.49811 4490.3105 6315086
-367.12018 702.49243 4477.5269 4867640
-346.44977 714.58832 4554.623 3551525
-316.72266 708.46948 4515.623 3880747
-296.98087 725.61847 4624.9268 2959645
-271.508 730.82819 4658.1323 4604470
-244.58806 732.88116 4671.2178 3815211
-218.2426 737.39911 4700.0142 4275761
-191.29697 740.91467 4722.4214 4604471
-163.3622 741.1474 4723.9048 4012334
-137.13216 750.80994 4785.4917 3288354
-107.79164 744.04077 4742.3467 4144178
-80.243645 749.2337 4775.4448 4670523
-53.1311 766.36603 4884.6426 3683628
-24.6201 780.19623 4972.7935 3157281
4.8274617 776.61328 4949.9561 4999741
34.201611 777.51471 4955.7021 3881260
62.789433 767.96582 4894.8394 3749418
93.2799 780.36914 4973.895 4670775
124.21677 789.65363 5033.0728 2565400
156.75699 803.56171 5121.7197 4078639
185.39203 796.1864 5074.7104 3486503
218.10181 805.92676 5136.7935 4341812
249.43739 808.82513 5155.2671 4802107
282.25955 815.38544 5197.0811 3486248
316.18533 823.5293 5248.9883 4407095
352.34253 835.50568 5325.3228 2630941
378.51846 823.79022 5250.6514 3552044
410.42487 825.37878 5260.7764 3354664
447.34302 836.11035 5329.1768 5328455
481.26569 840.19696 5355.2241 5657163
533.21606 873.30371 5566.2393 4604475
565.43408 872.11823 5558.6826 5393991
594.94604 867.11908 5526.8198 4473145
644.92059 890.90918 5678.4526 4275509
668.37885 877.52594 5593.1509 4999491
690.79858 864.10846 5507.6304 4670527
743.3075 887.84155 5658.8999 4867394
807.49023 922.86731 5882.1465 5262409
844.55798 925.28748 5897.5713 5065288
886.02277 932.14105 5941.2544 5526611
919.25568 930.14142 5928.5093 4276290
964.51733 940.01202 5991.4229 3881790
1007.0154 946.58411 6033.312 3158328
1056.8743 959.38733 6114.9165 5001307
1098.8903 964.45825 6147.2373 6910852
1152.7144 979.23468 6241.4189 8030365
1211.2875 997.00122 6354.6587 7701660
1270.1769 1013.9489 6462.6792 8228263
1298.2271 1006.0067 6412.0581 8228778
1396.345 1051.2684 6700.5459 8294313
1437.3451 1052.2137 6706.5713 8360106
1476.8933 1052.0739 6705.6792 8228521
1535.3362 1065.0483 6788.376 8360108
1591.4207 1075.766 6856.688 8360108
1661.6741 1095.2896 6981.1265 8360365
1663.6138 1069.9294 6819.4868 8425901
1712.3091 1075.1294 6852.6299 8360364
1763.9829 1081.915 6895.8804 8425900
1838.1963 1101.9049 7023.291 8360107
1883.573 1104.1061 7037.3203 8360364
1930.7218 1107.2281 7057.2202 8294058
1999.6345 1122.4344 7154.1411 8162728
2040.5719 1121.6321 7149.0273 8228264
2096.1267 1128.7338 7194.292 8096678
2257.4495 1191.3713 7593.5298 5859204
2328.7263 1204.9675 7680.189 7767715
2350.5195 1192.9286 7603.4551 7701921
2432.8018 1211.4642 7721.5977 7570334
2467.2627 1205.9417 7686.3975 7504799
2463.334 1182.1953 7535.0439 7570078
2607.9106 1229.296 7835.2534 7701662
2801.9067 1297.6362 8270.8379 7306132
3146.4717 1432.16 9128.2617 5924477
3229.7493 1445.2179 9211.4893 3621207
3301.7378 1452.8741 9260.2891 1318197
3500.8301 1515.2955 9658.1484 1053220
3553.5122 1513.356 9645.7861 1448757
3865.9744 1620.3604 10327.809 1975359
3998.2197 1649.6719 10514.633 2041151
4149.3599 1685.76 10744.65 2041151
4297.646 1719.6154 10960.438 2041152
4434.5156 1747.9626 11141.116 1975358
4562.4443 1772.0055 11294.36 1975358
4723.7935 1808.1456 11524.709 2041150
4984.8076 1880.8612 11988.181 1975358
5062.1938 1883.2203 12003.218 1975358
5220.3145 1915.1327 12206.619 2041149
5357.4136 1938.5657 12355.977 1909564
5581.022 1992.2483 12698.137 2040382
5620.4409 1979.6273 12617.693 1974845
5812.7598 2020.4846 12878.109 1974845
5964.644 2046.4106 13043.355 1974845
6138.0894 2078.9761 13250.92 2041150
6394.0576 2138.3159 13629.139 2172478
6663.666 2200.6804 14026.636 2041405
6817.895 2223.8733 14174.461 2238782
7112.2217 2291.6428 14606.409 2436159
7291.166 2321.0518 14793.855 3357514
7293.7876 2294.2991 14623.34 4080723
7550.6113 2347.1958 14960.492 4080982
7673.0615 2357.5784 15026.668 3225676
7800.1484 2369.1309 15100.302 2961994
7914.085 2376.4727 15147.096 2501702
8088.9492 2401.74 15308.144 2501704
8383.8955 2461.7056 15690.352 2567240
8609.7158 2500.2817 15936.227 2567753
8767.6113 2518.5088 16052.401 2567498
8847.8486 2514.2769 16025.429 2501705
9518.0381 2676 17056.215 2501960
9866.1611 2744.7268 17494.264 2501445
10011.687 2756.2483 17567.699 2435651
10389.183 2830.7378 18042.479 2304062
10588.389 2855.6257 18201.109 1710896
10739.124 2867.0713 18274.061 987427
10902.934 2881.7444 18367.582 197905
11153.369 2918.7969 18603.746 9
11360.565 2943.9189 18763.869 65805
11757.193 3017.1665 19230.732 197388
12212.079 3103.8147 19783.008 723734
12257.238 3085.6692 19667.354 1645604
12290.798 3064.9731 19535.441 3158845
0 0 0 0
0 0 0 0
0 0 0 0
0 0 0 0
0 0 0 0
13250.903 3127.6345 19934.83 6316907
0 0 0 0
0 0 0 0
13096.857 3010.748 19189.822 6843251
13763.021 3136.6516 19992.303 7040373
0 0 0 0
13922.119 3119.2075 19881.119 3816259
13182.163 2928.6384 18666.475 2302504
13025.07 2869.656 18290.533 197382
12669.306 2768.2378 17644.117 723470
12603.971 2731.4192 17409.443 1447705
12940.804 2781.6448 17729.57 1842463
13409.593 2859.197 18223.871 1645084
13614.509 2879.6965 18354.531 1776670
13839.657 2904.1172 18510.182 2039841
14330.877 2983.5466 19016.447 2039841
0 0 0 0
0 0 0 0
0 0 0 0
0 0 0 0
0 0 0 0
0 0 0 0
0 0 0 0
0 0 0 0
0 0 0 0
0 0 0 0
0 0 0 0
0 0 0 0
0 0 0 0
0 0 0 0
0 0 0 0
0 0 0 0
0 0 0 0
0 0 0 0
0 0 0 0
0 0 0 0
0 0 0 0
0 0 0 0
17154.779 3024.4319 19277.041 2763054
16812.32 2944.4475 18767.238 2763057
13204.785 2297.4392 14643.354 5
13198.986 2281.437 14541.359 11
14100.039 2421.3745 15433.289 12
13800.74 2354.7024 15008.336 11
13538.794 2295.2166 14629.188 8
12982.109 2186.8389 13938.413 987670
0 0 0 0
18352.969 3052.7136 19457.303 2698544
17404.166 2876.8218 18336.207 2501162
0 0 0 0
0 0 0 0
0 0 0 0
0 0 0 0
0 0 0 0
0 0 0 0
0 0 0 0
0 0 0 0
0 0 0 0
0 0 0 0
0 0 0 0
0 0 0 0
0 0 0 0
0 0 0 0
-2350.8281 445.93784 2738.8533 5327672
-2330.7876 445.21021 2734.3843 5393722
-2327.2075 447.63852 2749.2986 5590588
-2329.1699 451.17465 2771.0168 5327416
-2360.9712 460.58206 2828.7949 3025175
-2330.3062 457.85086 2812.0205 7696223
-2338.7893 462.82739 2842.5852 5328702
-2324.3965 463.31635 2845.5884 5328446
-2333.613 468.5528 2877.7495 5525824
-2335.4355 472.37085 2901.1992 6578512
-2330.2871 474.8251 2916.2727 5920839
-2282.0344 468.46738 2877.2251 5986374
-2252.5239 465.89035 2861.3975 4341807
-2291.6475 477.57755 2933.1777 3288607
-2241.0171 470.59576 2890.2971 3748642
-2243.6753 474.78284 2916.0132 5393724
-2248.0898 479.40948 2944.429 5854017
-2243.7407 482.22495 2961.7209 5130550
-2229.748 482.99591 2966.4561 5393978
-2219.2539 484.54297 2975.9578 2433550
-2197.2368 483.57883 2970.0361 7828577
-2213.1663 491.01797 3015.7258 5788994
-2172.5427 485.92911 2984.4712 5920579
-2145.1838 483.74796 2971.075 5657408
-2166.9163 492.69269 3026.0115 5657408
-2161.738 495.61685 3043.9709 5262907
-2143.499 495.57065 3043.6873 4275755
-2140.1719 499.00052 3064.7529 3683618
-2131.8171 501.30688 3078.918 5657664
-2110.0334 500.46786 3073.7649 4473134
-2107.5244 504.22571 3096.8447 4012583
-2109.3354 509.09219 3126.7336 6578510
-2087.4211 508.26813 3121.6724 6644305
-2067.0083 507.7981 3118.7856 6250060
-2043.7594 506.61661 3111.5291 7105368
-2002.0563 500.79742 3075.7891 6315852
-2006.2625 506.46066 3110.5713 8289644
-1985.5677 505.88461 3107.0334 7434334
-1972.231 507.19006 3115.0513 6512975
-1979.5958 513.89423 3156.2266 4933687
-1998.3971 523.72333 3216.5952 6052168
-1986.0286 525.49451 3227.4731 4736306
-1999.7728 534.27661 3281.4109 5525824
-1972.9899 532.29724 3269.2542 5986375
-1960.005 534.03815 3279.9463 7104855
-1906.2606 524.59698 3221.9609 5722946
-1918.348 533.26489 3275.197 6841685
-1893.8528 531.83673 3266.4255 6512463
-1873.0906 531.43823 3263.978 6710099
0 0 0 0
0 0 0 0
0 0 0 0
0 0 0 0
0 0 0 0
0 0 0 0
0 0 0 0
0 0 0 0
0 0 0 0
0 0 0 0
-770.06403 246.48387 1513.8505 256
0 0 0 0
0 0 0 0
-1650.5582 547.44812 3362.3074 5196860
-1663.2041 558.38336 3429.4692 6511948
-1644.0225 558.77148 3431.853 4670517
-1626.4775 559.73267 3437.7566 5986377
-1629.561 567.90723 3487.9631 5591619
-1598.2806 564.16223 3464.9617 5986377
-1607.5173 574.80743 3530.3425 5591363
-1587.7473 575.22467 3532.905 6183499
-1569.2357 576.11499 3538.373 5065275
-1567.5549 583.29224 3582.4541 5394240
-1558.5154 587.89075 3610.6975 8025706
-1549.427 592.59869 3639.6123 6249294
-1512.198 586.52478 3602.3079 4078893
-1495.7701 588.46045 3614.1963 4933692
-1488.87 594.25525 3649.7866 5657672
-1488.6758 602.93683 3703.1069 3552291
-1442.9951 593.17981 3643.1816 5262137
-1411.9816 589.24731 3619.0291 5196342
-1382.6794 585.9187 3598.5854 6577739
-1389.2991 597.94635 3672.4565 6380874
-1371.2767 599.58228 3682.5039 5262136
-1344.2885 597.28735 3668.4092 5591101
-1373.8535 620.45758 3810.7158 5657151
-1367.9053 628.0957 3857.6277 4407084
-1335.5354 623.6554 3830.3562 4078122
-1326.6671 630.22589 3870.7104 4999479
-1310.9471 633.71545 3892.1426 5657409
-1284.0387 631.82458 3880.5293 5525824
-1260.1155 631.36041 3877.6785 5723203
-1232.569 629.02985 3863.3647 2433042
-1212.4752 630.48651 3872.3115 3880483
-1179.1294 624.97552 3838.4639 2959383
-1154.928 624.18982 3833.6382 6709582
-1134.6218 625.51996 3841.8079 5722433
-1132.1917 636.96149 3912.0791 4998710
-1108.7631 636.82092 3911.2158 3880999
-1090.7455 639.84851 3929.8105 5196860
-1075.2327 644.50958 3958.4377 2565141
-1054.3514 646.08893 3968.1377 2565142
-1039.0486 651.23669 3999.7542 3617829
-1012.8284 649.62231 3989.8394 4078379
-983.67834 646.00684 3967.6335 6578513
-953.89807 641.79016 3941.7361 4867895
-938.46252 647.25537 3975.302 3288094
-904.4505 639.85992 3929.8806 4077609
-888.06305 644.8717 3960.6621 5064504
-869.4715 648.51178 3983.0183 4998453
-863.62927 662.12958 4066.656 3748645
-829.17749 653.96515 4016.5117 3156507
-816.94977 663.36395 4074.2375 4998711
-799.74695 669.17249 4109.9121 4538675
-785.43866 677.84399 4163.1704 2695701
-755.72522 673.35193 4135.5815 2893336
-733.72394 675.66064 4149.7607 3617059
-706.6767 673.32159 4135.395 4274988
-700.66608 691.57837 4247.5239 5459262
-670.71387 686.68396 4217.4639 5196860
-654.76819 696.30591 4276.5596 6578513
-637.289 705.00623 4329.9951 6315340
-619.40283 713.96741 4385.0327 6052168
-580.28101 698.16382 4287.9707 4341551
-554.71765 697.97272 4286.7969 4933689
-536.78839 707.82977 4347.3369 4736055
-506.86514 702.06769 4311.9473 3880489
-484.38477 706.55035 4339.479 3682851
-460.3157 709.08838 4355.0669 3616801
-434.9826 709.86511 4359.8374 4011816
-408.15515 708.14728 4349.2866 4209451
-385.07068 713.12964 4379.8872 5788743
-361.79773 718.45789 4412.6123 5657413
-335.02679 717.12891 4404.4502 5328194
-314.88797 730.97107 4489.4653 2630682
-291.75836 739.78455 4543.5962 2564887
-264.77158 739.6156 4542.5586 3946540
-240.51196 747.88892 4593.3711 3946540
-214.88556 753.48126 4627.7183 2696473
-186.63036 750.14368 4607.2197 4407092
-159.33177 750.1662 4607.3579 3551783
-131.58636 747.6593 4591.9609 5459782
-105.20525 753.61786 4628.5571 4604471
-78.327843 758.97052 4661.4321 5130815
-51.418175 769.67285 4727.1636 4078384
-23.55278 774.5658 4757.2148 3617832
4.7073455 785.89429 4826.792 4144689
33.389919 787.73383 4838.0903 4210226
61.143543 776.08276 4766.5317 5131072
90.498589 785.69849 4825.5894 4539191
119.8439 790.63214 4855.8906 3815467
153.58453 817.03741 5018.0664 3025695
181.7641 810.09113 4975.4038 4736569
209.11366 801.901 4925.1021 3683882
240.13522 808.07391 4963.0142 5394758
272.05551 815.59369 5009.1997 4407863
302.59506 817.90198 5023.3765 4538937
339.70801 835.97284 5134.3638 5065281
370.96802 837.85358 5145.9146 2828320
401.68155 838.30798 5148.7056 2433820
434.8027 843.36829 5179.7847 4868415
469.71231 851.00128 5226.665 6381397
505.35718 858.9397 5275.4209 2960420
540.28558 864.80627 5311.4521 5525834
575.29474 870.14905 5344.2666 4604731
619.53943 888.17438 5454.9741 4078387
652.3595 888.8457 5459.0972 3354667
663.49658 861.30627 5289.9561 4933186
700.57605 868.40906 5333.5796 4209462
746.69806 885.62347 5439.3071 4143411
800.19629 909.79974 5587.7925 4275256
839.98486 917.08649 5632.5464 5130821
884.18463 928.44824 5702.3276 5131336
948.22504 959.04047 5890.2183 3355182
981.47101 957.42041 5880.2681 4736834
1001.0849 943.06952 5792.1279 3552817
1044.5226 951.36908 5843.1021 3224365
1092.8047 963.40692 5917.0361 3815736
1125.9536 961.76965 5906.9805 4408131
1167.8501 967.47791 5942.0391 4211267
1276.8165 1026.7882 6306.3101 3948356
1320.4398 1031.672 6336.3052 5725289
1319.1949 1002.199 6155.2891 7370634
1373.3467 1015.2649 6235.5366 6845065
1388.0902 999.27631 6137.3384 6977425
1429.7262 1002.9697 6160.022 7965092
1529.8706 1046.5017 6427.3857 8360107
1531.6676 1022.2786 6278.6128 8228522
1574.1813 1025.7355 6299.8447 8228522
1626.4929 1035.2687 6358.3955 8425901
1676.8898 1043.179 6406.979 8294316
1751.8494 1065.6809 6545.1807 8360108
1788.2393 1064.2537 6536.4146 8294316
1854.7781 1080.4492 6635.8848 8294316
1898.9749 1083.2279 6652.9502 8228522
1960.0996 1095.3533 6727.4219 8228265
2004.3553 1097.7562 6742.1807 8162216
2211.6189 1187.5975 7293.9658 4543601
2287.7461 1204.9264 7400.396 8162216
2288.2434 1182.5194 7262.7769 7899558
2366.2078 1200.2339 7371.5762 7965349
2467.8633 1229.1055 7548.8984 7965348
2542.1409 1243.5563 7637.6528 7899298
2618.2139 1258.3645 7728.6016 7833505
2720.9304 1285.2488 7893.7192 7833251
2733.6501 1269.4323 7796.5771 7570848
2898.666 1323.688 8129.8042 7504542
3090.9255 1388.4073 8527.2969 7109525
3447.8159 1523.8053 9358.8809 7174292
3647.8638 1586.6947 9745.1348 6055553
3634.5518 1556.2662 9558.249 4673128
3695.6414 1558.1404 9569.7598 3094609
3726.5122 1547.4098 9503.8545 1712699
3840.9221 1571.1714 9649.793 1580086
4205.8647 1695.2153 10411.645 1843771
4303.9795 1709.6799 10500.482 2041152
4421.6387 1731.385 10633.791 2040896
4545.4224 1754.8448 10777.876 1975104
4731.6509 1801.4281 11063.98 2041153
4674.7197 1755.4281 10781.458 1975361
5005.5786 1854.326 11388.868 1975618
5080.4028 1857.0057 11405.326 1909824
5299.7642 1911.7534 11741.574 1909825
5418.2549 1929.1669 11848.523 1910081
5597.4141 1967.4592 12083.708 1975105
5740.3018 1992.1964 12235.638 1975105
5956.7549 2041.5289 12538.628 1975618
6117.375 2070.7463 12718.074 1844288
6129.1592 2049.4844 12587.487 1844287
6315.9878 2086.5618 12815.209 1909567
6560.8706 2141.709 13153.911 2041408
6860.6719 2213.2781 13593.474 2172735
7013.0518 2236.1792 13734.127 2370111
7105.8911 2239.7876 13756.289 2830658
7204.0264 2244.9646 13788.085 3421765
7396.5845 2279.1201 13997.86 4014157
7822.3823 2383.5894 14639.487 3948364
7904.5942 2382.2195 14631.075 3750988
8061.6943 2403.2039 14759.956 3159110
8293.167 2445.6704 15020.776 2961988
8432.2568 2460.2803 15110.507 2765126
8749.3984 2525.9875 15514.066 2633288
8761.792 2503.2612 15374.486 2501960
9076.4004 2566.4573 15762.623 2567755
9145.0645 2559.5305 15720.081 2436170
9721.4248 2693.405 16542.309 2501962
9825.167 2694.9709 16551.926 2501962
10416.131 2828.8264 17374.037 2370376
11046.605 2970.6865 18245.312 2370117
11399.258 3035.8079 18645.273 2172734
11646.898 3071.9812 18867.441 1710895
11895.812 3107.7991 19087.428 1052963
12105.375 3132.7585 19240.723 658201
12091.263 3099.9072 19038.957 197648
12213.761 3102.3635 19054.043 131338
12474.051 3139.4536 19281.842 131593
0 0 0 0
0 0 0 0
0 0 0 0
0 0 0 0
0 0 0 0
0 0 0 0
0 0 0 0
0 0 0 0
0 0 0 0
0 0 0 0
0 0 0 0
0 0 0 0
14246.347 3203.9561 19678.002 5725030
13519.569 3015.8193 18522.508 3488066
13507.345 2988.8259 18356.719 2171173
13788.355 3026.6301 18588.904 1118484
14054.308 3060.5562 18797.271 789517
14335.982 3097.3455 19023.223 1645085
0 0 0 0
0 0 0 0
0 0 0 0
0 0 0 0
0 0 0 0
14742.901 3041.7432 18681.727 2039842
0 0 0 0
0 0 0 0
0 0 0 0
0 0 0 0
0 0 0 0
0 0 0 0
0 0 0 0
0 0 0 0
0 0 0 0
0 0 0 0
0 0 0 0
0 0 0 0
0 0 0 0
0 0 0 0
0 0 0 0
0 0 0 0
16629.434 3042.5537 18686.705 2697262
16488.984 2996.8997 18406.307 2236714
13410.238 2421.3147 14871.189 8
13365.644 2397.5068 14724.966 11
13442.685 2395.6848 14713.776 11
13673.236 2421.0684 14869.676 12
13441.069 2364.7192 14523.592 9
12849.362 2246.2351 13795.889 1250841
15709.959 2728.9409 16760.562 1974310
18053.121 3116.2637 19139.414 1448477
17403.766 2985.4172 18335.785 1974821
0 0 0 0
0 0 0 0
0 0 0 0
0 0 0 0
0 0 0 0
0 0 0 0
0 0 0 0
0 0 0 0
0 0 0 0
0 0 0 0
0 0 0 0
0 0 0 0
0 0 0 0
-2338.9653 456.68353 2706.3467 7236439
-2319.4446 455.9989 2702.2898 7038546
-2322.7358 459.82077 2724.9382 5196343
-2316.0994 461.71701 2736.1755 5722430
-2315.5669 464.86542 2754.8333 6051907
-2303.0752 465.64059 2759.427 5393468
-2292.1714 466.75012 2766.0024 6314826
-2291.3621 469.94608 2784.9417 5789252
-2319.7139 479.21252 2839.8557 6184010
-2327.6772 484.37177 2870.4297 5657923
-2306.0593 483.40604 2864.7065 6710354
-2270.981 479.58337 2842.0532 6052679
-2269.0894 482.76428 2860.9036 4144425
-2240.7991 480.33432 2846.5034 5657407
-2197.8938 474.71088 2813.1785 6381131
-2146.7532 467.20917 2768.7227 4407342
-2147.1692 470.8989 2790.5884 6380875
-2150.0173 475.18341 2815.9788 5657410
-2214.6724 493.302 2923.3511 4670515
-2196.1448 493.03186 2921.7502 4933687
-2182.8669 493.94537 2927.1638 6446156
-2165.833 494.01678 2927.5869 5525565
-2137.4885 491.48868 2912.6052 6644303
-2129.2583 493.58203 2925.0105 6710096
-2127.8367 497.30096 2947.0493 7039317
-2089.6848 492.42615 2918.1606 5065527
-2089.8662 496.57846 2942.7676 6446923
-2072.5144 496.59946 2942.8921 3552030
-2066.696 499.40778 2959.5344 5262906
-2103.1521 512.56714 3037.5178 5855043
-2092.4873 514.37048 3048.2048 5328699
-2062.6538 511.45224 3030.9109 6776403
-2051.156 513.06915 3040.4927 6973526
-2012.2322 507.79361 3009.2295 7236702
-2007.516 511.13333 3029.0212 6381647
-2004.2042 514.89417 3051.3081 8026216
-1994.4279 517.04755 3064.0693 5723716
-1989.5402 520.51953 3084.6445 7631198
-1973.3712 521.07709 3087.9485 6249801
-1942.957 517.84827 3068.8142 6315338
-1921.1362 516.87048 3063.0198 4209705
-1913.4058 519.70105 3079.7942 5262393
-1904.759 522.33496 3095.4028 4867634
-1912.0653 529.43732 3137.4922 6184265
-1906.0332 532.94965 3158.3064 6907734
-1880.178 530.9339 3146.3608 6907477
-1866.2927 532.29169 3154.4072 5722946
-1858.734 535.49969 3173.4182 5591104
-1835.5929 534.23804 3165.9417 5065017
-1822.5215 535.91138 3175.8579 5788996
0 0 0 0
0 0 0 0
0 0 0 0
0 0 0 0
0 0 0 0
-1786.2555 559.94183 3318.2644 4736049
0 0 0 0
-1477.4126 473.55475 2806.3271 4144432
0 0 0 0
0 0 0 0
-770.16785 255.4897 1514.0544 0
0 0 0 0
0 0 0 0
-1620.496 557.04004 3301.0684 5919812
-1589.6482 553.11346 3277.7991 4735280
-1577.3785 555.63397 3292.7358 6380363
-1573.7513 561.29999 3326.3132 3288092
-1580.3551 570.80511 3382.6414 5327675
-1555.3 568.97278 3371.7827 5065016
-1556.4071 576.78809 3418.0969 6578767
-1559.5197 585.56262 3470.0955 7434077
-1540.3774 586.10376 3473.3025 4078380
-1548.1562 597.04163 3538.1211 5196860
-1539.6895 601.92871 3567.0825 5788743
-1523.9749 604.07898 3579.8252 6775894
-1502.1407 603.83002 3578.3499 6710101
-1463.2908 596.63599 3535.7173 6710357
-1437.3979 594.59277 3523.6089 5526082
-1413.167 593.18689 3515.2776 5196344
-1400.0237 596.46265 3534.6902 5590591
-1369.2106 592.19556 3509.4031 5327930
-1378.6595 605.47919 3588.123 5525308
-1351.2634 602.7439 3571.9133 4669999
-1333.3672 604.22656 3580.6997 5393979
-1327.4597 611.27771 3622.4856 5460287
-1334.0973 624.43256 3700.4421 6973528
-1333.8627 634.75671 3761.624 6315598
-1301.4313 629.84967 3732.5444 3091742
-1297.6669 638.88672 3786.0989 5328447
-1275.1956 638.86963 3785.9976 5657669
-1237.8721 631.27777 3741.0076 6315341
-1220.1178 633.57074 3754.5957 5591615
-1212.0621 641.07855 3799.0881 4933684
-1197.1674 645.185 3823.4229 5065013
-1163.554 639.16711 3787.7605 3024919
-1152.3458 645.4624 3825.0669 2696210
-1120.7478 640.36017 3794.8306 4669746
-1102.4288 642.7915 3809.239 6841685
-1091.5089 649.72894 3850.3508 3749672
-1072.9131 652.29584 3865.5625 3223326
-1051.4175 653.1734 3870.7629 2368020
-1029.6494 653.91705 3875.1699 3617576
-993.52557 645.36938 3824.5159 1906957
-987.54352 656.45917 3890.2346 1841417
-951.41675 647.56171 3837.5076 4012326
-938.66235 654.52594 3878.7783 7236698
-921.44775 658.65167 3903.2278 5394239
-902.48578 661.70868 3921.3438 4801331
-876.59766 659.71478 3909.5281 3946022
-866.1178 669.5235 3967.6553 3814693
-844.48529 671.01782 3976.5105 3353885
-822.88293 672.62262 3986.0208 5459003
-801.15515 674.21674 3995.4675 4011301
-783.98596 679.86102 4028.9163 3485213
-762.37573 681.88782 4040.9272 2038540
-745.02448 687.97888 4077.0232 4406573
-703.74323 671.63989 3980.1973 3946022
-703.96997 695.15601 4119.5557 3616800
-664.52173 679.77594 4028.4121 4736308
-630.5116 669.01996 3964.6711 5196859
-631.69019 696.21436 4125.8276 4539188
-610.34332 699.77289 4146.9155 4999483
-585.07672 698.94727 4142.0229 5920585
-562.45868 701.35199 4156.2734 5657669
-536.75012 699.94672 4147.9458 3683879
-526.93066 720.12115 4267.5015 6512723
-501.57101 720.02136 4266.9097 5065274
-476.58478 720.4754 4269.6006 2827797
-448.31021 715.73059 4241.4824 2366732
-427.99481 723.88373 4289.7988 2432525
-402.99866 724.64996 4294.3394 3156248
-375.94061 721.56195 4276.0396 6116933
-356.30402 733.30145 4345.6089 4735795
-331.57205 735.56659 4359.0322 3420450
-311.539 749.51941 4441.7178 3683621
-283.87021 745.98169 4420.7529 4209711
-261.96909 758.42242 4494.478 2959644
-235.01973 757.41003 4488.4785 3485988
-209.8821 762.72321 4519.9648 4999741
-182.80016 761.49152 4512.666 3157282
-155.97778 761.10437 4510.3716 4670777
-130.21794 766.81396 4544.207 4078383
-100.84204 748.65503 4436.5957 5130814
-76.945175 772.7099 4579.147 3485990
-50.301659 780.36572 4624.5156 4209712
-22.517635 767.47681 4548.1353 4538420
4.530405 783.88336 4645.3618 3946540
32.146873 786.01221 4657.9771 4144688
59.179123 778.48865 4613.3926 5328706
87.26506 785.20105 4653.1704 2828571
115.12585 787.15039 4664.7227 4276017
147.59895 813.77448 4822.499 4999229
175.4657 810.48383 4802.9985 3551782
203.68201 809.50098 4797.1743 4604471
229.86124 801.65454 4750.6753 4735800
259.53537 806.37909 4778.6733 4538677
295.34634 827.36548 4903.0405 4407091
330.13724 841.99072 4989.7109 4868413
363.02347 849.75293 5035.7109 5197121
392.94003 849.91278 5036.6577 3618347
423.93259 852.21295 5050.2891 5460553
460.76562 865.17657 5127.1123 4934467
493.70056 869.66937 5153.7373 5987155
522.51111 866.79681 5136.7144 5789776
562.2113 881.31097 5222.7261 3946802
589.55292 875.94818 5190.9463 4209974
623.87646 880.97662 5220.7446 4538682
656.21405 882.85779 5231.8931 5065025
692.89032 890.14313 5275.0669 4735290
722.04956 887.55951 5259.7559 4340274
780.3819 919.5658 5449.4277 3682601
798.40527 903.41766 5353.7329 3616807
832.89453 906.4234 5371.5449 3485478
882.03516 924.56567 5479.0576 4604217
914.75037 924.81354 5480.5264 4078389
967.74463 944.84351 5599.2256 4934212
996.15302 940.33716 5572.521 4012855
1034.9041 945.56989 5603.5303 3749426
1069.804 947.06793 5612.4082 3617839
1101.493 945.71893 5604.4136 4802112
1128.3153 940.39264 5572.8496 3683120
1170.135 947.51343 5615.0479 3091242
1237.5024 974.35547 5774.1162 4999496
1244.1956 953.26624 5649.1396 4736325
1284.3362 958.23718 5678.5977 3223345
1338.7843 973.35657 5768.1963 5000530
1415.1858 1003.2866 5945.5645 5132634
1432.4269 990.84009 5871.8052 6843771
1483.4027 1001.7655 5936.5503 6121339
1529.0518 1008.6708 5977.4722 8228004
1565.8878 1009.5814 5982.8677 8096678
1662.9067 1048.3943 6212.877 8228521
1671.8296 1031.188 6110.9111 8294316
1747.1729 1054.811 6250.9028 8294315
1805.9592 1067.6647 6327.0752 8162729
1852.65 1072.9902 6358.6348 8228522
1911.5825 1085.0521 6430.1143 8228012
2067.29 1150.5004 6817.9663 7965094
2152.8003 1175.1215 6963.8735 5596547
2193.6445 1174.8938 6962.5239 8096935
2265.3379 1190.892 7057.3306 7965605
2320.8757 1197.9709 7099.2812 8162727
2394.5793 1214.0077 7194.3164 8162727
2487.5229 1239.0671 7342.8208 8228519
2565.8147 1256.0919 7443.7109 8162727
2627.0195 1264.3177 7492.4585 8228006
2714.5149 1284.7129 7613.3218 8162470
2794.9153 1301.1381 7710.6587 8096166
2831.9688 1297.1798 7687.2017 7899044
3067.6946 1382.9078 8195.2334 7701665
3082.8225 1368.0686 8107.2949 7635615
3181.554 1390.2164 8238.5449 7570078
3299.5623 1419.9906 8414.9893 7241113
3418.0427 1449.0784 8587.3662 6912403
3648.3477 1524.0253 9031.5078 6187910
3603.5869 1483.563 8791.7246 4279399
3709.6165 1505.4481 8921.418 3357012
3912.2134 1565.3568 9276.4424 2369342
4138.1377 1632.8097 9676.1738 1646394
4028.6687 1567.8892 9291.4492 1909565
4268.3408 1638.7672 9711.4785 2238274
4330.3809 1640.4672 9721.5527 2106689
4880.6152 1824.6359 10812.953 2106689
4980.6938 1837.9197 10891.674 1909568
5156.978 1878.6244 11132.894 1975361
5262.1123 1892.7094 11216.362 2040898
5282.4629 1876.3274 11119.281 1909825
5473.2085 1920.1279 11378.847 1909824
5552.9556 1924.3951 11404.135 1909824
5781.0186 1979.3413 11729.751 1975617
5982.8618 2024.111 11995.06 1909822
6098.8774 2039.1333 12084.083 1909820
6192.5391 2046.4196 12127.263 2041149
6339.708 2071.0181 12273.036 1975358
6624.4287 2139.4836 12678.769 2040638
6784.3867 2166.571 12839.29 2040894
7039.1392 2222.9941 13173.658 2172477
7225.063 2256.6812 13373.291 2238011
7515.1694 2321.8247 13759.338 2303803
7745.1372 2367.1892 14028.172 3028293
8030.0679 2428.2104 14389.789 3554382
8346.6807 2497.429 14799.983 4146518
8590.0039 2543.5071 15073.046 4278360
8718.3633 2554.9458 15140.833 3751250
8850.5166 2567.252 15213.761 3094348
8863.4404 2545.0742 15082.333 2830666
9070.2637 2578.4602 15280.182 2568008
9358.3535 2634.0598 15609.671 2699596
9492.1191 2645.5596 15677.818 2633290
9712.2207 2680.6655 15885.859 2633547
10455.024 2857.9832 16936.66 2567755
11262.288 3049.3821 18070.906 2633547
11481.426 3079.4338 18248.996 2567753
10962.033 2912.6917 17260.867 2502215
12012.517 3162.304 18740.092 2567237
12328.561 3215.7725 19056.951 2238270
12138.729 3137.5159 18593.195 1646387
12425.814 3182.8276 18861.717 1053734
12705.242 3225.3875 19113.93 263189
13022.951 3276.8274 19418.768 15
13186.026 3288.7979 19489.707 131342
13465.989 3329.4614 19730.682 394517
0 0 0 0
0 0 0 0
0 0 0 0
0 0 0 0
0 0 0 0
0 0 0 0
0 0 0 0
0 0 0 0
0 0 0 0
0 0 0 0
0 0 0 0
0 0 0 0
0 0 0 0
0 0 0 0
0 0 0 0
0 0 0 0
0 0 0 0
0 0 0 0
15802.26 3353.7908 19874.859 1579292
0 0 0 0
0 0 0 0
0 0 0 0
0 0 0 0
0 0 0 0
0 0 0 0
0 0 0 0
0 0 0 0
0 0 0 0
0 0 0 0
0 0 0 0
17300.586 3370.3374 19972.916 1710877
0 0 0 0
17168.242 3299.4089 19552.586 1974049
16713.855 3190.5505 18907.482 2236710
15778.349 2991.9114 17730.33 2105124
14996.951 2824.9292 16740.779 1052437
13266.738 2482.5913 14712.055 9
13088.626 2433.2703 14419.774 11
13257.037 2448.5925 14510.575 12
11753.25 2156.8506 12781.686 11
13457.924 2453.8625 14541.805 8
12806.058 2320.147 13749.395 1974567
15787.757 2842.2734 16843.562 2171689
17304.348 3095.7332 18345.586 2566957
0 0 0 0
0 0 0 0
0 0 0 0
0 0 0 0
0 0 0 0
0 0 0 0
0 0 0 0
0 0 0 0
0 0 0 0
0 0 0 0
0 0 0 0
0 0 0 0
0 0 0 0
0 0 0 0
0 0 0 0
-2322.3218 472.59875 2705.6416 6183238
-2294.9355 470.27252 2692.324 5459258
-2303.7769 475.3894 2721.6182 5788480
-2260.9917 469.85001 2689.905 6381643
-2257.3149 472.41669 2704.5994 6052423
-2260.3223 476.42892 2727.5696 6907733
-2264.3096 480.70706 2752.062 5986888
-2275.2568 486.53552 2785.4302 6315853
-2266.8088 488.27145 2795.3684 5789509
-2278.4678 494.39587 2830.4307 5131579
-2233.5225 488.2377 2795.175 5657923
-2220.3413 488.98288 2799.4412 5657923
-2171.0671 481.73071 2757.9224 6315852
-2137.927 477.97562 2736.4243 6118471
-2140.7852 482.27274 2761.0254 4407852
-2125.4885 482.51474 2762.4109 5197117
-2100.9912 480.65552 2751.7668 4867893
-2143.6133 494.24261 2829.5535 6052168
-2136.9507 496.59106 2842.9983 6117704
-2129.7776 498.8573 2855.9724 6841684
-2104.7087 496.93445 2844.9644 6710354
-2086.7476 496.67236 2843.4639 6644817
-2086.1807 500.57974 2865.8335 6579023
-2053.5349 496.79074 2844.1416 6184265
-2039.0566 497.37045 2847.4604 7105366
-2033.3682 500.1218 2863.2119 6250059
-1996.2838 495.13239 2834.6475 6052679
-2039.609 510.17136 2920.7458 5921093
-2037.2736 513.94873 2942.3716 5328701
-1991.5641 506.75485 2901.1863 5591873
-1997.2117 512.61719 2934.7485 6513232
-1978.7067 512.32904 2933.0986 5854791
-1963.3485 512.85773 2936.1255 7499617
-1963.7126 517.53955 2962.929 6578771
-1955.51 520.02765 2977.1736 6118473
-1954.9689 524.61707 3003.448 5921351
-1939.4901 525.24542 3007.0454 3683619
-1903.5492 520.2926 2978.6902 4736307
-1900.7899 524.40137 3002.2131 5065272
-1909.1158 531.67499 3043.8547 5196858
-1885.3669 530.06952 3034.6633 5460289
-1892.2623 537.13171 3075.0947 5986891
-1897.49 543.85327 3113.5757 5460290
-1869.5576 541.10925 3097.8662 4736310
-1833.2378 535.85919 3067.8093 5723203
-1827.6836 539.58679 3089.1501 4275241
-1829.6554 545.63428 3123.7722 4801586
-1800.8464 542.53217 3106.0127 6183239
-1784.2926 543.09625 3109.2419 5393980
0 0 0 0
0 0 0 0
0 0 0 0
0 0 0 0
0 0 0 0
-1771.326 574.76221 3290.5305 4604206
-1712.5315 561.87012 3216.7227 2696467
0 0 0 0
0 0 0 0
0 0 0 0
-771.46442 264.90753 1516.6034 0
0 0 0 0
0 0 0 0
-1571.1907 559.05914 3200.6299 2827284
-1584.0757 570.53143 3266.3091 4734768
-1569.4722 572.26459 3276.2314 4406317
-1561.6631 576.54956 3300.7632 3682590
-1551.778 580.16718 3321.4739 6248260
-1550.1017 586.98621 3360.5129 4406056
-1525.176 585.06409 3349.509 5525305
-1535.027 596.60767 3415.5964 5657410
-1512.306 595.63116 3410.0059 4736564
-1503.2206 600.07135 3435.426 3420190
-1474.295 596.6048 3415.5798 5064761
-1465.3265 601.2301 3442.0598 4998970
-1461.2068 608.00354 3480.8381 5657158
-1434.4459 605.41528 3466.02 4670263
-1396.8639 598.11829 3424.2446 5393986
-1375.5879 597.69104 3421.7988 6249549
-1351.6941 596.09656 3412.6704 4736565
-1329.2948 595.1228 3407.0957 5065527
-1302.9612 592.33051 3391.1091 4933683
-1297.3392 599.01373 3429.3711 6775632
-1328.5476 623.18579 3567.7566 5525052
-1326.7067 632.38641 3620.4307 5262908
-1304.9756 632.25287 3619.666 6052424
-1323.4413 651.91547 3732.2349 6579025
-1266.0319 634.23572 3631.0178 5591876
-1229.0605 626.36047 3585.9319 4341552
-1224.2222 634.87183 3634.6599 6512720
-1182.4547 624.19403 3573.5293 5986374
-1167.8562 627.73041 3593.7747 5262650
-1174.4265 642.98767 3681.1233 5789249
-1177.2489 656.73181 3759.8088 3551774
-1164.8431 662.34723 3791.9573 3288089
-1133.9371 657.45715 3763.9614 2695954
-1117.8403 661.12958 3784.9858 3419678
-1097.2416 662.23517 3791.3157 3551264
-1077.8392 664.12421 3802.1304 4604724
-1056.6223 664.95197 3806.8694 2565143
-1039.4252 668.40076 3826.6138 1709578
-1017.5416 668.92255 3829.6011 1906957
-989.22443 665.14227 3807.959 2433301
-960.00433 660.56421 3781.7493 2038289
-943.297 664.58301 3804.7571 2761492
-929.70453 671.04675 3841.7622 5065269
-915.02081 677.02771 3876.0034 6249290
-902.22821 684.75189 3920.2246 7894373
-873.23273 680.26215 3894.5208 6183756
-854.86536 684.03284 3916.1079 4999481
-838.34686 689.53461 3947.606 4670513
-814.33441 689.01166 3944.6118 5394238
-795.70978 693.15112 3968.3105 4868404
-757.40155 679.87408 3892.2988 6052681
-744.22308 689.02875 3944.71 4802100
-722.9635 691.05292 3956.2983 2695955
-703.04645 694.53906 3976.2563 4801333
-682.28528 697.40411 3992.6589 2366992
-660.11932 698.98761 4001.7244 3156508
-632.72485 694.94635 3978.5881 2959130
-627.96265 716.41241 4101.4819 4077609
-587.74609 697.53015 3993.3806 3157534
-577.16675 713.71246 4086.0247 5131326
-552.42389 713.03064 4082.1211 4868411
-533.76855 720.50366 4124.9043 4605238
-510.46896 722.12402 4134.1812 3551524
-486.23291 722.51636 4136.4272 4603953
-465.13235 727.85681 4167.0015 5459517
-444.76337 735.00513 4207.9258 4538673
-422.1806 739.12689 4231.5229 3419679
-399.24121 743.10541 4254.3003 3485216
-373.60077 742.25397 4249.4258 3682851
-348.95212 743.39233 4255.9429 2432529
-321.61734 738.53986 4228.1621 5788228
-298.98242 744.57166 4262.6943 3814695
-279.53372 760.38397 4353.2202 4867897
-253.42009 759.43835 4347.8066 4276016
-221.63843 739.37061 4232.9185 4604727
-200.70203 754.97699 4322.2651 5065535
-179.58736 774.38104 4433.354 4342069
-151.13345 763.36542 4370.2891 4012590
-127.85638 779.349 4461.7959 3091745
-100.17659 769.83344 4407.3188 4670520
-75.518143 785.01288 4494.2217 3288866
-49.163982 789.50214 4519.9229 3814954
-21.87562 771.77954 4418.4604 3420196
4.3425388 777.7652 4452.7285 4012333
30.831726 780.33081 4467.4165 5196863
58.353951 794.59241 4549.0649 6709846
84.411499 786.19904 4501.0122 3815466
112.8934 798.99457 4574.2671 5328706
138.49695 790.40814 4525.1094 5393729
170.21724 813.85315 4659.333 4538677
196.41339 808.02771 4625.9819 4801849
224.58707 810.76813 4641.6709 4275505
254.72281 819.22083 4690.063 5196607
282.7843 819.99548 4694.498 4801593
313.27423 827.0426 4734.8428 3683625
347.17017 841.18365 4815.8008 4407605
383.5647 858.77045 4916.4858 5591878
405.75037 844.30762 4833.6855 4736571
443.71729 862.42517 4937.4092 4867904
479.16949 873.7157 5002.0479 4605502
516.64807 887.17023 5079.0757 3289388
538.00793 872.98883 4997.8862 3552303
563.63855 866.85553 4962.7734 4473148
603.69318 882.41406 5051.8462 4209461
652.61414 908.84991 5203.1919 4275764
671.82709 893.39459 5114.71 4011566
701.36377 892.40948 5109.0703 4143151
739.64514 902.17218 5164.9619 4472115
776.37073 909.33679 5205.9795 4735287
813.4809 916.38684 5246.3413 3748393
850.74432 923.08411 5284.6836 4078129
872.81451 913.40613 5229.2769 4077875
923.5343 933.3457 5343.4316 4407096
945.53577 923.90204 5289.3657 4341305
973.80396 920.99121 5272.7017 4078134
1014.0656 929.25183 5319.9937 2762274
1065.5674 947.0036 5421.623 3485996
1107.8464 955.75958 5471.7515 4867393
1135.8671 952.06653 5450.6084 3485996
1180.0062 961.71429 5505.8423 3749169
1206.9697 957.22119 5480.1196 3288617
1245.2494 961.70312 5505.7783 3880757
1255.351 944.74988 5408.7207 4012600
1340.8347 983.95935 5633.1963 3092011
1364.3473 976.89172 5592.7334 3947577
1383.0588 966.80316 5534.9761 3750198
1471.7765 1004.9848 5753.5674 4671047
1522.4967 1016.0789 5817.0811 5658460
1551.2303 1012.3333 5795.6372 5067871
1613.2406 1029.9957 5896.7554 7437714
1641.5563 1025.8527 5873.0361 8360105
1711.8947 1047.5974 5997.5259 8360107
1775.6262 1064.4968 6094.2754 8425901
1829.0872 1074.688 6152.6196 8425903
1911.9657 1101.4272 6305.7031 8360109
2043.2179 1154.4739 6609.397 6188941
2091.0188 1159.2596 6636.7949 7702951
2140.6941 1164.8885 6669.021 7965864
2219.2778 1185.7592 6788.5059 8096935
2272.6592 1192.6606 6828.0171 8096937
2357.0879 1215.329 6957.7939 8031143
2418.6616 1225.6364 7016.8037 7965607
2470.6172 1230.8037 7046.3872 8096936
2556.2136 1252.2799 7169.3389 8096936
2598.1309 1252.0052 7167.7666 8096937
2696.0796 1278.3059 7318.3389 8162216
2794.1499 1303.8307 7464.4688 8162216
2833.0569 1301.3827 7450.4541 7964837
2915.4922 1318.6981 7549.585 7833251
2935.9871 1307.8975 7487.751 7833251
3013.4573 1322.4213 7570.9004 7767712
3083.917 1333.4877 7634.2559 7636126
3205.8257 1366.1591 7821.3008 7701406
3246.5166 1363.7816 7807.6895 7438490
3333.8093 1380.7721 7904.9604 7372185
3434.1987 1402.6406 8030.1587 7372442
3692.7605 1487.6315 8516.7334 6977427
3951.2876 1570.3165 8990.1074 6385289
4034.656 1582.1161 9057.6611 5002867
4067.8025 1574.1709 9012.1748 2897489
4365.4785 1667.4734 9546.334 1580083
4273.0396 1611.2837 9224.6455 1316915
4400.186 1638.269 9379.1377 1909568
4625.8198 1700.7925 9737.0859 2106948
4707.6909 1709.5685 9787.3291 1975874
4914.4888 1762.9451 10092.912 1975618
5392.8584 1911.2861 10942.169 1844288
5587.9351 1956.8931 11203.27 1909825
5645.0986 1953.699 11184.983 1909824
5780.103 1977.2058 11319.562 1975359
6007.6304 2031.4598 11630.167 2041152
6137.0913 2051.6982 11746.033 2040896
6317.9395 2088.4697 11956.551 2041409
6523.7163 2132.5745 12209.051 2041154
6672.373 2157.2441 12350.285 2041154
6797.1733 2173.7488 12444.776 1975105
7162.7368 2266.0696 12973.314 2106691
7127.5122 2230.979 12772.42 2106945
7475.9863 2315.4653 13256.105 2172737
7888.4224 2417.7986 13841.967 2172993
8122.21 2463.8333 14105.518 2370120
8450.8672 2537.415 14526.775 2370116
8583.0781 2551.124 14605.26 2633542
8800.4287 2589.6123 14825.606 3291469
8913.2256 2596.8774 14867.2 3751505
9134.5547 2635.3125 15087.24 3817298
9280.0498 2651.3362 15178.977 3619920
9362.0312 2649.0801 15166.061 3225163
9531.5654 2671.4055 15293.874 2962249
9863.1494 2738.3 15676.848 2830666
10062.228 2767.5022 15844.03 2764876
10132.051 2760.9426 15806.478 2633548
10402.378 2808.6394 16079.542 2633548
10602.391 2836.6575 16239.947 2502218
11411.506 3025.6704 17322.051 2567498
11965.521 3144.2781 18001.084 2501706
12411.478 3232.6453 18506.988 2501704
12050.117 3111.0356 17810.77 2369603
13100.92 3352.9565 19195.773 1909050
13660.026 3465.9551 19842.693 1447982
13659.929 3436.3481 19673.193 921120
13345.308 3328.7896 19057.418 197907
13419.416 3319.1853 19002.434 12
13328.698 3269.3115 18716.904 65804
13235.38 3219.6287 18432.469 526351
0 0 0 0
0 0 0 0
0 0 0 0
0 0 0 0
0 0 0 0
0 0 0 0
0 0 0 0
0 0 0 0
0 0 0 0
0 0 0 0
0 0 0 0
0 0 0 0
0 0 0 0
0 0 0 0
0 0 0 0
0 0 0 0
0 0 0 0
0 0 0 0
0 0 0 0
0 0 0 0
0 0 0 0
16921.271 3483.7136 19944.363 1381654
16613.572 3396.6399 19445.861 1776412
17036.312 3459.0747 19803.305 2105377
16795.096 3386.7676 19389.344 658188
16808.287 3366.3962 19272.717 395016
16195.009 3221.6763 18444.189 131842
15989.107 3159.3923 18087.613 328710
14192.371 2785.6882 15948.146 1052435
13578.893 2647.6426 15157.831 986645
13088.15 2535.1855 14514.011 10
12980.548 2497.927 14300.705 11
13124.478 2509.2417 14365.481 11
11556.4 2195.2048 12567.611 11
13551.233 2557.6514 14642.629 10
13172.338 2470.3201 14142.655 263177
13958.15 2601.1399 14891.603 592658
0 0 0 0
0 0 0 0
0 0 0 0
0 0 0 0
0 0 0 0
0 0 0 0
0 0 0 0
0 0 0 0
0 0 0 0
0 0 0 0
0 0 0 0
0 0 0 0
0 0 0 0
0 0 0 0
0 0 0 0
0 0 0 0
-2287.9937 481.4101 2665.6475 3157535
-2264.8032 479.84369 2656.9739 4210222
-2250.499 480.15128 2658.6772 6578773
-2220.4475 477.07971 2641.6694 5657670
-2224.55 481.35501 2665.3423 7171163
-2221.3716 484.10458 2680.5671 6315600
-2241.3652 491.9801 2724.1753 6710354
-2226.0068 492.15378 2725.137 5592130
-2217.5354 493.8638 2734.6057 4605237
-2206.5547 495.03607 2741.0967 6907989
-2203.8831 498.1037 2758.0825 4868406
-2174.123 495.04904 2741.1685 7500125
-2123.0532 487.05963 2696.9299 5855301
-2113.5134 488.54892 2705.1763 7171160
-2121.1084 494.05206 2735.6479 5921093
-2112.4248 495.81909 2745.4324 5394749
-2105.2615 497.97318 2757.3599 7499612
-2106.9426 502.26935 2781.1487 6907731
-2078.1575 499.31323 2764.78 5394750
-2060.3167 498.96057 2762.8274 7105368
-2070.1609 505.36066 2798.2656 7039576
-2026.1788 498.6181 2760.9312 7039575
-2032.509 504.24783 2792.1038 7631713
-2040.6715 510.42822 2826.3257 7631712
-1999.5109 504.27176 2792.2363 8355433
-1993.3259 506.90698 2806.8279 7697504
-1958.0131 502.11688 2780.3044 6842197
-1909.725 493.88992 2734.7502 4013098
-1989.7181 518.98193 2873.6887 4868407
-1960.0808 515.66516 2855.3232 4999480
-1943.4305 515.73706 2855.7214 6512719
-1955.7167 523.55664 2899.0198 5657410
-1946.0125 525.57574 2910.2 5657665
-1941.9587 529.17078 2930.106 7039061
-1930.4045 530.76819 2938.9514 4736562
-1904.911 528.52728 2926.5432 5526079
-1887.8706 528.61218 2927.0129 4999735
-1877.9574 530.71265 2938.6438 2039565
-1867.2523 532.62671 2949.2422 5328444
-1856.4867 534.55939 2959.9438 6315594
-1841.5754 535.32385 2964.177 5920840
-1849.0565 542.67499 3004.8813 8223595
-1847.8118 547.58325 3032.0591 7630945
-1826.8584 546.69 3027.1133 6775894
-1801.1392 544.33887 3014.0942 5394236
-1788.597 545.96277 3023.0862 5986373
-1764.9573 544.19775 3013.313 6446925
-1730.7456 539.10364 2985.1062 6183754
-1796.803 565.45929 3131.042 6644817
-1757.2435 558.78021 3094.0588 5789512
0 0 0 0
0 0 0 0
0 0 0 0
0 0 0 0
-1712.3734 574.48462 3181.0164 2762260
-1694.6713 574.87445 3183.175 3354399
-1403.1504 481.3414 2665.2671 2960158
0 0 0 0
0 0 0 0
0 0 0 0
0 0 0 0
0 0 0 0
-1541.6693 567.16608 3140.4927 3222555
-1554.3604 578.82263 3205.0369 6775374
-1572.3547 592.76691 3282.2488 2959383
-1558.3894 594.86102 3293.844 6643789
-1533.099 592.63043 3281.4929 2498836
-1494.0624 584.96051 3239.0234 3880483
-1506.7594 597.60962 3309.0635 6183751
-1499.5875 602.60797 3336.74 4342064
-1494.719 608.67786 3370.3501 5065784
-1451.1274 598.92981 3316.3735 4538670
-1442.7572 603.65082 3342.5144 5722948
-1427.2239 605.46436 3352.5564 4801848
-1428.5717 614.59167 3403.0959 5920331
-1419.5073 619.43683 3429.9243 6249295
-1400.6587 620.09106 3433.5471 7302237
-1330.0387 597.50677 3308.4941 7368028
-1322.8037 603.14801 3339.7302 7566175
-1295.4181 599.63293 3320.2668 7302746
-1277.0872 600.26538 3323.7688 3025687
-1278.538 610.36133 3379.6719 6381133
-1285.0332 623.2251 3450.9006 4538929
-1282.84 632.22296 3500.7234 5196860
-1260.4822 631.41559 3496.2527 5722948
-1245.0363 634.1015 3511.125 6051913
-1224.4485 634.21539 3511.7556 4998456
-1221.4736 643.61377 3563.7959 3748646
-1178.4052 631.84515 3498.6313 5064761
-1143.7279 624.23486 3456.4917 5722947
-1123.2427 624.23413 3456.4878 5591618
-1140.786 645.76007 3575.6804 6118218
-1134.6129 654.42163 3623.6409 4473392
-1134.2087 666.80896 3692.2317 4999477
-1104.5804 662.16473 3666.5159 5854787
-1100.3175 672.84491 3725.6538 2893847
-1089.7745 680.04364 3765.5144 4275757
-1061.7732 676.42133 3745.4568 3552036
-1039.2596 676.21484 3744.3137 4407090
-1020.1945 678.29218 3755.8162 2631193
-1003.2112 681.87726 3775.6675 3881261
-975.45703 678.13794 3754.9622 3289124
-950.09412 675.92523 3742.71 5920843
-931.70007 678.68311 3757.981 4341554
-913.51422 681.73145 3774.8599 5262654
-893.92633 683.86023 3786.6475 4670517
-875.43713 686.96094 3803.8164 5460033
-855.16998 688.79333 3813.9629 5854792
-839.53589 694.55829 3845.8843 5855047
-810.4458 689.2019 3816.2253 3815722
-784.6571 686.42627 3800.856 5131322
-758.91071 683.5246 3784.7888 5591873
-729.82233 677.34448 3750.5686 5526337
-712.89398 682.41626 3778.6519 5525825
-696.09637 687.94629 3809.2725 4144430
-692.75787 707.59424 3918.0667 3815463
-672.84937 711.09326 3937.4412 3157022
-652.71838 714.6001 3956.8591 2696983
-632.40503 718.16113 3976.5774 3420193
-604.39728 712.92188 3947.5664 2827543
-579.28998 710.81976 3935.9268 4801076
-556.51923 711.5285 3939.8511 3748900
-540.31219 721.0589 3992.6226 5393468
-519.14087 724.53369 4011.863 4209450
-490.67984 717.68011 3973.9136 3551007
-472.13321 725.36743 4016.4797 4011557
-455.18307 736.4541 4077.8684 3617057
-432.91095 739.69055 4095.7893 5130555
-405.96463 734.85065 4068.99 5327933
-383.84503 738.68823 4090.239 6183241
-359.4263 738.32031 4088.2019 4078121
-340.96066 751.01166 4158.4761 4011559
-313.95486 745.40424 4127.4268 4801333
-293.88132 756.69879 4189.9663 4669747
-267.06952 751.12671 4159.1133 4209709
-244.99609 759.10321 4203.2803 4801847
-218.30737 752.96661 4169.3008 3814698
-194.54323 756.63824 4189.6313 4209198
-171.03316 762.51685 4222.1821 5656643
-146.57687 765.46887 4238.5278 4143403
-124.68774 785.8208 4351.2197 5065021
-99.695831 792.13226 4386.1675 3749161
-73.384979 788.71991 4367.2729 3814697
