# .PCD v0.7 - Point Cloud Data file format
VERSION 0.7
FIELDS x y z rgb
SIZE 4 4 4 4
TYPE F F F U
COUNT 1 1 1 1
WIDTH 1430
HEIGHT 1
VIEWPOINT 0 0 0 1 0 0 0
POINTS 1430
DATA ascii
-2178.6877 760.99487 3836.115 6775118
-2165.6431 764.41479 3853.3545 7104598
-2151.0186 767.34406 3868.1206 6577741
-2168.9971 782.09235 3942.4658 5919812
-2155.1914 785.57635 3960.0281 5591104
-2155.1436 794.20703 4003.5349 6051401
-2127.5986 792.78387 3996.3611 6445902
-2113.6702 796.45984 4014.8909 4801590
-2102.0051 801.08173 4038.1897 6249034
-2071.1201 798.40112 4024.677 6840914
-2040.6334 795.81329 4011.6321 4801075
-2071.8005 817.49207 4120.9126 5261884
-2045.7029 816.82263 4117.5386 4932920
-2012.7559 813.36932 4100.1304 4603954
-2028.1305 829.59735 4181.9346 4735796
-1991.4178 824.65723 4157.0317 5985605
-1950.2571 817.72827 4122.1035 6051398
-1912.316 811.99066 4093.1809 4472367
-1907.3585 820.29077 4135.021 7367258
-1852.2909 806.97577 4067.9009 4998710
-1858.9789 820.56897 4136.4233 4604465
-1829.4783 818.3382 4125.1782 3749156
-1830.5963 829.92828 4183.603 4406573
-1804.9906 829.55487 4181.7202 4867124
-1771.0997 825.31012 4160.3228 5393468
-1726.8036 816.02838 4113.5342 5327931
-1669.9924 800.48193 4035.166 5327675
-1701.6545 827.508 4171.4023 5261883
-1679.7726 828.90869 4178.4634 5261883
-1679.1259 840.98706 4239.3491 6511951
-1629.4941 828.52563 4176.5322 5919813
-1618.7994 835.78284 4213.1152 6511951
-1608.9824 843.72778 4253.165 6117444
-1552.6887 827.16583 4169.6777 6249031
-1601.3376 866.87878 4369.8672 4735791
-1588.3318 873.97192 4405.623 5591102
-1571.9587 879.4184 4433.0786 4801329
-1507.5435 857.71637 4323.6807 4406571
-1515.8789 877.37122 4422.7588 5261881
-1484.0024 874.03394 4405.936 5459771
-1450.3679 869.52307 4383.1973 5723201
-1413.8073 863.06158 4350.625 7170651
-1402.024 871.76624 4394.5049 5920581
-1397.8405 885.61542 4464.3174 5459773
-1395.4952 901.1861 4542.8076 5985859
-1392.2816 916.79742 4621.5034 6709582
-1350.7961 907.32812 4573.7695 5985858
-1294.0031 886.97845 4471.1885 5065013
-1260.3098 881.94287 4445.8042 6117444
-1235.9553 883.3667 4452.9819 3683361
-1209.8029 883.53979 4453.854 5854017
-1184.472 884.33398 4457.8574 6775630
-1183.0181 903.39758 4553.9556 5723456
-1158.4062 905.25427 4563.3149 5064756
-1099.8459 880.03601 4436.1919 4078119
-1083.853 888.47668 4478.7407 4603691
-1073.8076 902.33911 4548.6201 4735021
-1056.7441 910.86609 4591.604 4274727
-1025.2125 907.04333 4572.3335 5656638
-1034.2719 939.90021 4737.9624 4998965
-1007.9553 941.54584 4746.2578 4143918
-955.02759 917.71442 4626.1255 3485988
-934.23309 924.26465 4659.145 4866869
-889.29535 906.60083 4570.103 3617058
-864.9397 909.46912 4584.5615 6709842
-859.09583 932.6192 4701.2598 4999483
-823.95038 924.44604 4660.0591 6117709
-786.51636 913.04907 4602.6084 5854537
-757.875 911.40717 4594.3315 5591879
-733.11383 914.48303 4609.8364 6118223
-706.91907 915.93939 4617.1782 6117966
-674.32764 908.89154 4581.6504 5197378
-661.14606 928.51123 4680.5518 5197635
0 0 0 0
0 0 0 0
0 0 0 0
0 0 0 0
-539.08258 958.05957 4829.5024 5197378
-506.44794 950.52588 4791.5259 5000256
-478.50931 951.43457 4796.1064 5000001
0 0 0 0
0 0 0 0
0 0 0 0
0 0 0 0
0 0 0 0
0 0 0 0
0 0 0 0
-257.52658 975.67914 4918.3213 5065285
-226.61459 968.13885 4880.3115 5657420
-195.07124 955.30048 4815.5942 4209973
-167.73775 962.21149 4850.4316 4406837
-139.61571 966.52185 4872.1602 4472627
-110.5839 965.13995 4865.1938 5131071
-81.902969 966.92542 4874.1943 5262400
-54.287758 990.09302 4990.9805 4538934
-24.728355 990.82269 4994.6587 4670521
4.836575 983.80853 4959.3008 5459781
34.192165 982.82312 4954.3335 4209713
65.145561 1007.4577 5078.5146 5131071
94.856171 1003.3773 5057.9453 5196867
123.94186 996.23346 5021.9341 3354662
151.58708 982.51959 4952.8032 4933438
182.2429 989.60297 4988.5103 5789259
212.37529 992.26331 5001.9209 5197894
240.09227 984.3689 4962.126 5855566
278.5347 1017.373 5128.4971 2959905
312.32559 1028.5646 5184.9126 3420458
340.48895 1020.8785 5146.1675 2828320
372.26999 1024.411 5163.9751 3881009
398.47015 1013.2162 5107.5425 4473145
431.83093 1020.5242 5144.3818 3222823
465.15356 1026.7843 5175.9385 4538682
496.19031 1027.5361 5179.728 4473146
509.31787 993.27368 5007.0142 3749165
556.43134 1025.4143 5169.0327 4933184
599.07422 1046.3922 5274.7803 4539194
635.26776 1054.5831 5316.0698 5196869
668.8537 1057.8755 5332.667 3881009
694.71027 1049.1976 5288.9224 3486254
715.36841 1033.757 5211.0869 4144181
763.36298 1057.4625 5330.5845 5065539
792.03589 1053.5818 5311.0225 4670780
812.12335 1039.0138 5237.5864 5525834
843.16467 1039.0167 5237.6006 4144179
873.50311 1038.1837 5233.4023 3946543
911.68463 1046.4102 5274.8711 4012336
969.60931 1076.0007 5424.0342 5722953
1015.5557 1090.8262 5498.7681 5393989
1047.3177 1089.9675 5494.4404 5525833
1071.1442 1081.1512 5449.998 4604731
1121.8217 1099.1597 5540.7769 5394249
1158.0275 1102.3676 5556.9478 5394764
1184.8651 1096.7269 5528.5137 5065800
1223.0188 1101.5822 5552.9888 5263179
1250.2729 1096.6229 5527.9897 5329230
1283.8026 1097.2808 5531.3057 5328973
1312.3158 1093.7251 5513.3813 5000006
1303.762 1060.1996 5344.3823 4473662
1337.5063 1061.8448 5352.6758 5855060
1378.2502 1068.842 5387.9482 5460559
1449.7341 1098.8218 5539.0737 5592403
1485.8273 1101.2434 5551.2808 5460561
1531.8391 1110.7523 5599.2148 5263439
1561.7002 1108.3953 5587.333 5723990
1611.3744 1119.9061 5645.3584 5066062
1646.4235 1120.9911 5650.8276 4934478
1705.2799 1137.9193 5736.1611 3421502
1775.0743 1161.3419 5854.2329 4934999
1772.7461 1137.5848 5734.4751 5592930
1856.9784 1169.2231 5893.9614 4211536
1891.0282 1168.6799 5891.2231 6581113
1944.2762 1179.806 5947.3091 7634063
1970.0809 1174.1794 5918.9458 7502479
1989.948 1165.2729 5874.0488 5792119
2028.7303 1167.5586 5885.5703 7108496
2097.4768 1186.7202 5982.1626 8490409
2243.9473 1248.4889 6293.5342 8293544
2320.5935 1270.0243 6402.0923 8030629
2353.6584 1267.3989 6388.8579 8096422
2425.7229 1285.525 6480.23 7964837
2501.0769 1304.8021 6577.4043 8228265
2585.8428 1328.3223 6695.9673 8293803
2636.397 1333.8229 6723.6958 8293802
2721.4988 1356.3782 6837.395 8293546
2773.4851 1362.009 6865.7803 8425132
2820.012 1364.8351 6880.0254 8425132
2891.5063 1379.4918 6953.9092 8294059
2936.3625 1381.2068 6962.5542 8228522
2954.3857 1370.4274 6908.2158 8162729
3004.2556 1374.5132 6928.8125 8162986
3055.2356 1378.99 6951.3794 8097193
3154.604 1404.8972 7081.9756 8228523
3250.2832 1428.5028 7200.9692 8228523
3333.1912 1445.9563 7288.9512 8294572
3340.7639 1430.7004 7212.0479 8228779
3344.541 1414.2251 7128.9966 8228779
3337.4771 1393.6338 7025.1978 8293804
3396.7302 1400.901 7061.8311 8293805
0 0 0 0
0 0 0 0
0 0 0 0
0 0 0 0
0 0 0 0
0 0 0 0
0 0 0 0
0 0 0 0
0 0 0 0
0 0 0 0
0 0 0 0
0 0 0 0
0 0 0 0
0 0 0 0
6909.7651 2405.2546 12124.698 7043478
7422.1138 2557.0107 12889.688 6385033
7521.6719 2564.9119 12929.519 5463930
7741.1123 2613.1218 13172.541 4345194
7986.6235 2669.0823 13454.632 3028820
8231.541 2723.7393 13730.154 2434877
0 0 0 0
0 0 0 0
8950.6963 2876.4026 14499.718 1580858
7956.3169 2532.5352 12766.31 1909311
6564.625 2069.8706 10434.054 2041154
6552.6177 2046.8049 10317.782 2040898
6866.8101 2125.1172 10712.547 2040898
6802.2285 2085.8467 10514.588 1975104
6928.0698 2105.1506 10611.897 1909311
7347.5376 2212.5256 11153.166 1909312
7559.7314 2256.127 11372.958 1975361
7863.5776 2326.0686 11725.528 2040897
8580.4385 2515.886 12682.383 1975104
8446.0166 2454.9685 12375.302 2040897
7888.4194 2273.1555 11458.798 1975104
7876.1538 2250.2498 11343.331 1975361
8193.0146 2320.969 11699.821 1975104
8354.8926 2346.9646 11830.863 2040897
8882.9102 2474.5239 12473.88 1975361
8315.1436 2297.2429 11580.221 1843775
8232.96 2255.9194 11371.911 1778238
8416.998 2287.6221 11531.722 1778240
8266.2832 2228.5657 11234.023 1909825
8404.1338 2247.6279 11330.114 1844032
9902.042 2627.2427 13243.723 1844033
10158.377 2674.0596 13479.722 1909825
11594.668 3028.3301 15265.571 1844032
12216.38 3166.0078 15959.595 1909825
0 0 0 0
0 0 0 0
0 0 0 0
12999.025 3267.6458 16471.943 1909823
0 0 0 0
0 0 0 0
0 0 0 0
0 0 0 0
0 0 0 0
0 0 0 0
0 0 0 0
16275.364 3859.3831 19454.844 3948625
0 0 0 0
0 0 0 0
0 0 0 0
16512.707 3807.7683 19194.658 3751504
0 0 0 0
0 0 0 0
0 0 0 0
0 0 0 0
13857.414 3089.0688 15571.752 2830411
13369.875 2960.6714 14924.51 2699082
0 0 0 0
0 0 0 0
0 0 0 0
0 0 0 0
0 0 0 0
0 0 0 0
0 0 0 0
0 0 0 0
0 0 0 0
0 0 0 0
0 0 0 0
0 0 0 0
0 0 0 0
0 0 0 0
0 0 0 0
0 0 0 0
0 0 0 0
-3063.9612 700.2879 3427.6985 4538415
-3050.5154 701.86798 3435.4324 4473137
-3005.6003 696.18018 3407.5923 6973270
-3000.1863 699.62683 3424.4626 5460031
-3017.8899 708.54803 3468.1292 6117959
-2976.8372 703.70203 3444.4094 6578510
-2959.3418 704.3963 3447.8076 5131064
-2909.7188 697.3999 3413.5625 6446153
-2927.6414 706.60822 3458.6343 6446409
-2946.0037 716.05328 3504.865 5130550
-2952.0671 722.62183 3537.0161 5262136
-2908.3811 717.01923 3509.5933 4736049
-2871.8401 713.11029 3490.46 4999224
-2862.7285 716.00507 3504.6289 5986631
-2854.2966 719.11322 3519.8425 5723975
-2873.9546 729.39636 3570.1755 3618858
-2781.2566 711.1051 3480.6453 1118731
-2723.3269 701.4964 3433.6135 1184526
-2727.9629 707.98053 3465.3513 1644826
-2774.8672 725.61591 3551.6714 2
-2757.0376 726.46393 3555.822 4
-2703.9207 717.95538 3514.1755 8
-2653.0132 709.90601 3474.7759 9
-2626.6536 708.35065 3467.1631 9
-2592.9829 704.78363 3449.7036 9
-2559.6904 701.26355 3432.4736 9
-2534.6963 699.9787 3426.1848 8
-2505.7407 697.57025 3414.3962 9
-2485.0972 697.45544 3413.8342 11
-2447.0598 692.41699 3389.1726 11
-2426.1572 692.18372 3388.031 14
-2396.9634 689.56134 3375.1951 16
-2373.9385 688.68445 3370.9028 17
-2354.5217 688.84827 3371.7046 17
-2336.3052 689.36896 3374.2534 17
-2387.6086 710.58893 3478.1189 987938
-2370.8181 711.73621 3483.7344 329496
-2351.75 712.21381 3486.0723 17
-2342.8616 715.81024 3503.6753 18
-2325.3464 716.81158 3508.5767 19
-2333.3938 725.78198 3552.4841 5262673
-2336.427 733.34192 3589.4878 13226453
-2321.2983 735.28784 3599.0125 13295587
-2308.0503 737.87122 3611.6572 328717
-2289.7671 738.87805 3616.5854 13686230
-2312.2771 753.19177 3686.6467 13225417
-2252.2905 740.65009 3625.259 922389
-2231.5928 740.91113 3626.5369 1
-2239.1509 750.64966 3674.2041 4473404
-2255.0659 763.40869 3736.6555 4999481
-2237.6436 765.02295 3744.5569 7038546
-2222.1897 767.34949 3755.9446 7367510
-2219.4924 774.17255 3789.3413 4603947
-2225.0032 784.02734 3837.5779 4669228
-2160.7893 769.26306 3765.311 4142883
-2130.354 766.34161 3751.0115 5326901
-2125.7151 772.73602 3782.3101 6117188
-2111.6594 775.80713 3797.3423 7038804
-2090.3013 776.23248 3799.4243 6183241
-2110.4309 792.24146 3877.7834 6577742
-2095.0603 795.12976 3891.9204 6249805
-2057.3706 789.51727 3864.4492 6578770
-2082.78 808.26532 3956.2151 5854791
-2064.9075 810.45264 3966.9214 6512721
-2006.1107 796.44299 3898.3484 6051657
-2000.7565 803.57117 3933.239 6577744
-1974.3586 802.3161 3927.0957 6117963
-1985.5427 816.48535 3996.4497 6709844
-1948.3624 810.86841 3968.9563 6841687
-1934.7158 815.02802 3989.3169 5788997
-1890.7891 806.37689 3946.9719 5394237
-1889.3916 815.8739 3993.457 5327674
-1878.8073 821.59448 4021.4573 6775636
-1831.979 811.40918 3971.6033 6052170
-1809.2166 811.75647 3973.3035 5854790
-1786.8744 812.30402 3975.9836 5262652
-1766.4664 813.7572 3983.0964 4670514
-1785.8666 833.83655 4081.3787 6315339
-1752.4109 829.44958 4059.9058 4736308
-1729.1896 829.85199 4061.8755 6578512
-1702.172 828.41821 4054.8577 6446927
-1676.2236 827.47125 4050.2222 4802102
-1671.046 836.89911 4096.3691 5723203
-1656.3984 841.7923 4120.3198 5854791
-1641.3055 846.60223 4143.8628 6973272
-1606.8468 841.41748 4118.4849 5328447
-1574.2637 837.07013 4097.2061 6907224
-1583.2828 855.05383 4185.231 8157288
-1544.9539 847.63257 4148.9062 5985350
-1529.97 852.98663 4175.1128 5327419
-1532.1824 868.26172 4249.8794 5525053
-1501.6075 865.15668 4234.6812 5854019
-1468.4526 860.43433 4211.5669 4209194
-1452.4517 865.7738 4237.7021 5656895
-1402.4451 850.6745 4163.7954 6117446
-1395.0566 861.34814 4216.0396 4670256
-1401.1409 880.88104 4311.6475 6315082
-1357.5795 869.34827 4255.1978 6709583
-1353.6439 883.23419 4323.1655 5722431
-1337.1344 889.29346 4352.8237 4011812
-1329.448 901.57434 4412.9351 4143141
-1295.2462 896.00586 4385.6787 3222040
-1252.5546 884.216 4327.9712 4209190
-1242.9022 895.74414 4384.3979 6709581
-1224.1215 901.04547 4410.3462 6249288
-1189.9091 894.97144 4380.6157 4473648
-1162.3693 893.75714 4374.6719 6841939
-1145.4779 900.86176 4409.4468 7500384
-1112.0431 894.98383 4380.6763 6907732
-1104.3708 910.05457 4454.4429 6052167
-1076.7054 908.98456 4449.2056 4802098
-1059.5243 916.93408 4488.1162 4341550
-1018.6422 904.25354 4426.0488 5854791
-1005.5947 916.26477 4484.8403 5261627
-997.28735 933.3645 4568.5381 4735540
-973.26855 936.30383 4582.9253 5064504
-930.4444 920.80139 4507.0454 4274989
-911.83636 929.05597 4547.4492 6906708
-870.00415 913.43005 4470.9648 5656384
-840.51624 910.19006 4455.106 6117705
-814.76709 910.9198 4458.6782 4604212
-790.73096 913.67792 4472.1782 3748645
-765.43903 915.12592 4479.2656 4801333
-750.98883 930.10553 4552.5864 5855303
-708.31464 909.9433 4453.8984 6776404
-687.64978 917.58923 4491.3228 6184013
-663.71484 921.31152 4509.5425 5591878
-620.89032 898.02527 4395.5635 6118222
-606.80597 916.08838 4483.9766 6973530
0 0 0 0
0 0 0 0
-549.13855 954.41431 4671.5708 4670776
-517.67139 947.49139 4637.6851 5855049
-473.59851 915.42639 4480.7363 5592649
0 0 0 0
0 0 0 0
0 0 0 0
0 0 0 0
0 0 0 0
0 0 0 0
0 0 0 0
0 0 0 0
0 0 0 0
-216.25417 951.47668 4657.1919 4670523
-191.57712 966.21613 4729.3369 4999231
-163.34732 965.01843 4723.4746 4011563
-135.03481 962.73547 4712.3003 3814183
-106.86682 960.5614 4701.6587 5129785
-78.474785 954.12958 4670.1768 4208683
-51.845943 973.80676 4766.4907 3550753
-24.029589 991.58734 4853.5215 4208427
4.7945504 1004.3948 4916.21 4208683
33.674435 996.85724 4879.3159 4998714
62.805313 1000.2816 4896.0771 3946024
92.965424 1012.7543 4957.127 4538677
120.53239 997.77075 4883.7876 6249296
150.87651 1007.1277 4929.5869 4538678
174.40813 975.35107 4774.0498 5656902
205.82077 990.3667 4847.5469 5854796
235.94693 996.27209 4876.4517 5065281
271.42526 1021.022 4997.5952 4143922
296.58023 1005.8892 4923.5244 3354406
330.79218 1021.4336 4999.6099 3946289
351.84995 997.14343 4880.7168 4538937
379.41183 993.57593 4863.2549 3946543
406.65796 989.74371 4844.4976 5262660
437.71683 995.08453 4870.6392 5065024
470.1485 1002.6924 4907.8774 5065024
499.76056 1003.7509 4913.0581 4275252
546.14288 1036.5208 5073.457 4538167
579.04163 1041.6157 5098.3955 3946543
615.7973 1052.7994 5153.1362 4867644
640.38428 1043.1051 5105.6851 4538679
679.28522 1056.5492 5171.4897 4867645
715.96692 1065.5297 5215.4468 5393988
750.69476 1070.9795 5242.1221 3288613
768.28064 1052.5123 5151.731 3617579
803.2381 1058.3457 5180.2832 4077875
836.7066 1061.8599 5197.4839 4341301
877.3692 1073.9302 5256.5649 4012593
902.36938 1066.6591 5220.9746 3420458
939.76947 1074.0414 5257.1089 4801854
1000.812 1107.1033 5418.937 4341301
994.80426 1066.2443 5218.9443 3814957
1032.6843 1073.4703 5254.3135 5262402
1075.9517 1085.7095 5314.2207 5525575
1106.7374 1085.016 5310.8262 4867901
1161.0906 1106.8267 5417.583 5130816
1166.0785 1081.6718 5294.457 4670266
1199.8163 1083.8052 5304.8994 4407093
1220.1683 1074.0468 5257.1353 5262403
1296.4188 1112.7535 5446.5938 4999229
1297.1713 1086.3521 5317.3657 4736059
1298.6324 1061.7821 5197.1035 5986125
1341.3466 1071.2982 5243.6821 5394503
1395.2935 1089.1517 5331.0693 5723211
1431.9609 1093.0249 5350.0278 5262148
1461.3015 1091.2589 5341.3838 4078132
1526.1962 1115.5557 5460.3091 4275255
1550.8108 1110.0127 5433.1777 5262663
1603.364 1124.2856 5503.0396 4539198
1612.5999 1108.2208 5424.4072 5657937
1684.2002 1134.8048 5554.5278 5460560
1732.3315 1144.8595 5603.7422 5066316
1799.4204 1166.8287 5711.2754 5000011
1849.7523 1177.3214 5762.6338 5263441
1850.189 1156.2523 5659.5068 4342339
1886.4183 1157.9034 5667.5884 5328722
1904.0406 1148.2754 5620.4619 1907741
1933.8304 1146.1901 5610.2554 4144703
2037.2922 1187.103 5810.5117 2697257
2063.4983 1182.3881 5787.4336 4276548
2099.0015 1183.0676 5790.7598 6382440
2121.6401 1176.5911 5759.0591 4606035
2162.906 1180.4861 5778.124 6383220
2166.4478 1163.9913 5697.3867 7502221
2258.4312 1194.7914 5848.144 7437202
2288.1487 1192.2177 5835.5459 7831704
2360.4368 1211.5712 5930.2759 7240083
2466.46 1247.4185 6105.7373 7569565
2550.7327 1271.3878 6223.0605 8030629
2556.9116 1256.3037 6149.228 8228521
2696.1038 1306.0793 6392.8647 8162729
2805.4985 1340.2406 6560.0742 8162728
2835.0496 1335.8467 6538.5674 8162472
2845.2925 1322.5961 6473.7095 8096935
2866.4385 1314.6986 6435.0537 8228522
2907.644 1316.0883 6441.8555 8162730
2988.134 1334.9929 6534.3877 8162473
3024.1692 1333.8068 6528.5825 8162730
3110.1526 1354.4021 6629.3901 8228266
3121.3049 1342.303 6570.1685 8162729
3150.5442 1338.1841 6550.0078 8228010
3166.3208 1328.517 6502.6904 8293803
3196.0242 1324.8555 6484.7681 8293804
3288.3643 1346.9374 6592.8525 8293805
3391.9712 1373.0615 6720.7222 8162218
3385.5112 1354.5414 6630.0723 8096425
3464.0203 1370.0525 6705.9941 8096424
3495.5684 1366.8489 6690.3135 8096423
3667.1753 1417.8691 6940.042 8030373
0 0 0 0
0 0 0 0
0 0 0 0
0 0 0 0
0 0 0 0
0 0 0 0
0 0 0 0
0 0 0 0
0 0 0 0
0 0 0 0
0 0 0 0
0 0 0 0
0 0 0 0
0 0 0 0
0 0 0 0
0 0 0 0
0 0 0 0
0 0 0 0
0 0 0 0
0 0 0 0
0 0 0 0
9254.4795 2870.0032 14047.801 1711674
7597.2534 2335.0581 11429.406 2040640
0 0 0 0
7159.1597 2161.8596 10581.651 2040640
7232.7646 2165.1213 10597.616 1975105
7231.624 2146.1443 10504.729 2106691
7196.1187 2117.3799 10363.937 1975362
7380.0039 2153.1091 10538.821 2106691
7314.3501 2116.0471 10357.414 2040898
8652.3457 2482.2996 12150.108 1975105
8552.918 2433.5229 11911.362 2040898
7591.2534 2142.2246 10485.544 1975618
7664.8589 2145.4341 10501.253 1844032
7546.168 2095.2004 10255.375 1778238
7896.4028 2174.9268 10645.611 1778495
8487.0225 2319.0747 11351.172 1909824
8766.4131 2376.5808 11632.646 1975618
8597.1133 2312.4983 11318.982 1975619
8764.1846 2339.1865 11449.613 2041668
9193.4707 2434.9133 11918.167 1909826
10158.128 2669.8933 13068.323 1909826
10998.679 2868.9453 14042.622 1975618
11168.238 2891.2974 14152.029 1909824
11549.394 2967.687 14525.934 1975617
12355.845 3151.4207 15425.254 2040897
12946.774 3277.8889 16044.279 1975105
13047.154 3279.2205 16050.797 1975105
14055.607 3507.1125 17166.26 2040641
15521.326 3845.0049 18820.141 2041155
15707.536 3863.3726 18910.045 2106434
15788.155 3855.6929 18872.455 2106690
0 0 0 0
0 0 0 0
0 0 0 0
0 0 0 0
0 0 0 0
0 0 0 0
0 0 0 0
0 0 0 0
0 0 0 0
0 0 0 0
0 0 0 0
0 0 0 0
0 0 0 0
13565.728 3014.0281 14752.759 3553356
13488.334 2977.6426 14574.664 3027271
17857.256 3917.0295 19172.68 3092807
14246.098 3105.1565 15198.806 3027274
16354.972 3542.4209 17339.084 2895946
18733.025 4032.1643 19736.23 2829897
16659.004 3563.4954 17442.236 2830156
0 0 0 0
0 0 0 0
0 0 0 0
0 0 0 0
0 0 0 0
0 0 0 0
0 0 0 0
-3002.541 706.15607 3358.9868 4341806
-2989.1021 707.68713 3366.2698 5065528
-2945.0835 701.95032 3338.9814 6446923
-2924.0896 701.66077 3337.6042 6051909
-2919.5803 705.34998 3355.1526 5328443
-2886.0261 702.02454 3339.3345 5196857
-2868.1843 702.50159 3341.6038 5986372
-2855.2937 704.20648 3349.7134 6446924
-2878.8894 714.99683 3401.04 6973268
-2885.1575 721.60559 3432.4761 6644560
-2881.5205 725.81323 3452.4907 5920837
-2867.5671 727.46393 3460.3425 4538930
-2863.4719 731.65735 3480.2893 3946794
-2832.2332 728.9256 3467.2954 3618088
-2800.5378 726.03571 3453.5488 5724231
-2746.8662 717.36389 3412.2996 5723978
-2721.7463 716.07532 3406.1702 3487789
-2678.5818 709.98462 3377.1982 329216
-2724.6304 727.62695 3461.1179 3026987
-2689.7344 723.75629 3442.7063 2565926
-2689.9658 729.35083 3469.3179 2
-2708.2727 739.97028 3519.8318 4
-2631.771 724.64929 3446.9541 5
-2598.7485 721.15417 3430.3289 6
-2568.6648 718.42578 3417.3506 6
-2540.3972 716.16614 3406.6021 6
-2512.5684 713.99487 3396.2739 7
-2487.981 712.71716 3390.1963 6
-2460.2874 710.52155 3379.7524 9
-2433.8491 708.65546 3370.876 10
-2406.677 706.54303 3360.8276 11
-2390.0918 707.5293 3365.519 14
-2365.062 706.01135 3358.2986 15
-2347.5474 706.73004 3361.7173 16
-2329.1438 707.19116 3363.9106 461076
-2358.8857 722.40472 3436.2773 4345433
-2358.7935 728.66699 3466.0652 1121575
-2321.54 723.4588 3441.2913 271
-2338.2219 735.11505 3496.7368 16
-2322.1079 736.57684 3503.6902 13
-2318.3442 742.01794 3529.5718 3354939
-2331.4751 753.01459 3581.8799 13029078
-2317.6484 755.4267 3593.3538 13292252
-2301.217 757.02667 3600.9644 526607
-2340.5503 777.17316 3696.7952 7961480
-2281.4714 764.71399 3637.5308 4013898
-2249.1858 761.08362 3620.262 1316373
-2268.3306 774.95392 3686.239 1907992
-2222.6072 766.71692 3647.0579 2828833
-2199.3538 766.14545 3644.3398 986120
-2180.645 767.16168 3649.1736 4801584
-2166.8416 769.94116 3662.3948 5787710
-2156.0217 773.84784 3680.9778 4998704
-2169.7874 786.74878 3742.3442 7235412
-2110.1978 773.04352 3677.1521 5985602
-2041.7026 755.75586 3594.9192 6314824
-2074.4492 775.97418 3691.0923 5788479
-2075.0764 784.4809 3731.5562 6512204
-2067.6064 790.07666 3758.1738 7762529
-2059.6653 795.6123 3784.5051 6051912
-2049.8577 800.54095 3807.9492 6709842
-2019.2966 797.38403 3792.9329 6644047
-1968.2883 785.99109 3738.7397 5656896
-1963.5474 793.02472 3772.197 5722433
-1956.1403 799.13123 3801.2439 5985605
-1981.5161 818.92877 3895.415 6644048
-1965.2417 821.77667 3908.9619 6249034
-1963.6167 830.89124 3952.3174 6183754
-1926.3728 824.97223 3924.1621 5920838
-1884.1442 816.74744 3885.0396 6381133
-1824.1699 800.53186 3807.9062 6841940
-1828.5703 812.5144 3864.9038 4538929
-1822.2314 819.96857 3900.3611 6776149
-1791.9957 816.7229 3884.9226 6512721
-1744.7645 805.54608 3831.7576 4933688
-1744.9188 816.2406 3882.6282 5986377
-1693.2184 802.63995 3817.9338 5460031
-1680.4292 807.36609 3840.4148 5854791
-1693.376 824.75653 3923.1365 6775637
-1675.5323 827.42603 3935.8342 7433823
-1639.3116 820.96765 3905.1138 6183756
-1634.2478 830.15118 3948.7969 5460031
-1615.3843 832.48969 3959.9209 6775891
-1584.6155 828.67145 3941.7585 7565408
-1573.1807 835.00092 3971.866 6315342
-1573.9186 848.0816 4034.0872 5328702
-1583.4077 866.35413 4121.0044 1578253
-1557.2173 865.3714 4116.3296 4011812
-1529.0721 863.25372 4106.2563 3946275
-1487.5751 853.40778 4059.4221 3090710
-1452.0566 846.72437 4027.6311 3222039
-1464.3099 868.13977 4129.498 5327670
-1429.3513 861.81714 4099.4233 3814431
-1410.1284 864.92755 4114.2188 4736049
-1394.1348 870.16309 4139.1226 5919811
-1365.9072 867.81354 4127.9463 6117704
-1339.7086 866.69073 4122.6055 5986118
-1363.5094 898.47302 4273.7847 7236443
-1329.3387 892.53552 4245.542 2499612
-1288.6481 881.90674 4194.9839 4341550
-1282.9604 895.28607 4258.6255 5131066
-1237.1346 880.63074 4188.9141 5591616
-1216.4235 883.61859 4203.1265 5920582
-1191.2566 883.427 4202.2153 6579025
-1172.7854 888.29883 4225.3892 6776147
-1143.2903 884.85132 4208.9902 5065530
-1136.5564 899.25885 4277.5229 7039063
-1088.719 881.06024 4190.957 6775890
-1083.5695 897.36414 4268.5103 5855044
-1079.6632 915.50159 4354.7852 6183495
-1049.4877 911.70691 4336.7349 6381131
-1030.8069 917.95813 4366.4702 6051141
-994.198 908.15466 4319.8379 6380362
-951.06854 891.71936 4241.6597 5327418
-947.70227 912.68573 4341.3906 5261882
-920.2113 910.94043 4333.0889 6182986
-897.18524 913.64191 4345.939 5393470
-874.00885 916.34534 4358.7988 4340781
-846.18396 914.19147 4348.5532 4866612
-825.57019 919.93756 4375.8857 3551264
-785.45428 903.6203 4298.269 5393211
-768.28424 913.49176 4345.2251 2498574
-745.64661 917.32172 4363.4429 4012071
-723.82928 922.47211 4387.9419 4472625
-694.72028 918.36737 4368.417 3222560
-671.45935 921.97485 4385.5767 4801848
-639.76355 913.82458 4346.8081 5328192
-619.54395 922.07056 4386.0317 5920587
-587.50647 912.67981 4341.3628 4999484
0 0 0 0
0 0 0 0
-543.97589 972.86597 4627.6514 3881004
-508.96094 958.57019 4559.6504 3683623
-468.44254 931.72498 4431.9551 3881260
-442.18582 931.74182 4432.0356 6184273
-418.37106 937.23126 4458.147 4671549
0 0 0 0
0 0 0 0
0 0 0 0
0 0 0 0
0 0 0 0
-257.6636 929.34003 4420.6108 3551011
-234.27203 940.60577 4474.1987 4274733
-211.58315 957.92865 4556.5986 4538160
-184.99699 960.09387 4566.8979 5656641
-158.97801 966.44916 4597.1284 5064503
-130.26036 955.63464 4545.687 5525055
-102.21001 945.35303 4496.7803 4472366
-76.915726 962.30054 4577.3945 4538160
-49.686008 960.30774 4567.9155 5788227
-23.014723 977.25684 4648.5376 4998967
4.530952 976.70715 4645.9229 4669490
31.954639 973.38562 4630.123 4538163
59.82172 980.39978 4663.4873 4669749
90.093246 1009.9344 4803.9756 3683369
114.74072 977.37878 4649.1177 4209712
144.1068 989.84161 4708.3999 4736056
171.26451 985.55298 4688 4407604
202.41928 1002.2523 4767.4341 3815468
228.39688 992.36664 4720.4106 6446934
259.26578 1003.5716 4773.7095 5328711
288.48755 1006.8234 4789.1777 5657420
319.94531 1016.5974 4835.6694 3947058
339.34262 989.59363 4707.2202 3749165
362.82556 977.70184 4650.6543 3814957
395.26773 989.92706 4708.8062 4012079
421.25427 985.43835 4687.4546 5130816
450.34048 988.30743 4701.1021 5328195
500.11127 1033.5916 4916.5059 5722953
522.01727 1019.4712 4849.3394 4932668
558.20789 1033.2659 4914.957 3485737
585.05188 1029.2494 4895.8516 2498844
607.81934 1018.7796 4846.0498 3946287
651.88062 1043.3354 4962.855 5065023
686.97656 1052.0415 5004.2671 4670265
719.82233 1056.7235 5026.5386 6183763
751.1004 1058.8237 5036.5283 4670778
765.5495 1037.9462 4937.2197 5723468
804.80005 1050.9941 4999.2856 4342070
831.3808 1047.1575 4981.0356 3881008
862.09186 1048.6079 4987.9346 4735802
893.70978 1051.0287 4999.4492 4867131
945.23981 1075.9597 5118.0396 3617578
973.20477 1073.3506 5105.6289 3683371
1004.3635 1074.3152 5110.2168 5262403
1035.2814 1074.9731 5113.3467 5065025
1074.6309 1084.0994 5156.7578 4604473
1082.5435 1061.8843 5051.0864 4209716
1149.0923 1096.8341 5217.333 3617578
1161.5643 1079.6874 5135.771 3814956
1186.7451 1074.9276 5113.1304 3748649
1210.1724 1068.8562 5084.25 3880235
1248.5304 1075.9467 5117.9771 3880232
1284.1031 1080.3573 5138.9575 3090718
1309.5243 1076.2205 5119.2803 4933436
1349.7509 1084.1635 5157.0625 4867644
1391.6177 1093.0428 5199.2993 5328196
1434.718 1102.4855 5244.2153 3683372
1445.4996 1087.2195 5171.5991 3617324
1508.6812 1111.1813 5285.5786 3156773
1543.8662 1113.9677 5298.8325 4275510
1572.2238 1111.8147 5288.5918 4472892
1650.2264 1144.1669 5442.4819 4604477
1627.0166 1106.4493 5263.0698 4407871
1659.9089 1107.5851 5268.4727 4737092
1723.4026 1128.7209 5369.0098 4605251
1797.4725 1155.8917 5498.2539 4078654
1823.496 1151.748 5478.5435 4276032
1828.1179 1134.4684 5396.3486 5789270
1826.9232 1114.2352 5300.1055 3749429
1912.9146 1146.962 5455.7773 4341309
1936.2747 1141.6718 5430.6133 4867652
1960.1974 1136.881 5407.8252 4143929
2034.4622 1160.9722 5522.4199 4999238
2049.6758 1151.1364 5475.6338 5196618
2138.4761 1182.2905 5623.8257 4671044
2171.9658 1182.3787 5624.2446 5262413
2206.7556 1183.1611 5627.9668 3749431
2239.8972 1183.0496 5627.436 3947069
2322.6514 1208.761 5749.7383 2631207
2339.5667 1199.9604 5707.876 3816257
2354.7053 1190.5121 5662.9331 5658721
2418.6807 1205.674 5735.0537 6909051
2429.6379 1194.3529 5681.2026 6251895
2529.7476 1226.5677 5834.4395 6186106
2520.8154 1205.7568 5735.4478 6647688
2640.6826 1246.2872 5928.2402 7569306
2712.7107 1263.472 6009.9829 8096421
2723.856 1252.2219 5956.4697 8095909
2863.8706 1299.7462 6182.5293 8161957
2853.7981 1278.8145 6082.9624 8030628
2917.5991 1291.0953 6141.3794 8162472
2926.6499 1279.1439 6084.5298 8162216
2951.9475 1274.498 6062.4307 8096424
2977.7434 1270.1764 6041.874 8162216
3034.4519 1278.9868 6083.7827 8096423
3090.9424 1287.4995 6124.2754 8162216
3131.0938 1289.0876 6131.8296 8162216
3232.8418 1315.7084 6258.4565 8162216
3262.4453 1312.6963 6244.1294 8161960
3327.8027 1323.9768 6297.7876 8030887
3355.6665 1320.2554 6280.0859 8161959
3661.8481 1424.9164 6777.9287 7964325
3555.9609 1368.6995 6510.521 4411505
3479.3394 1324.833 6301.8604 8293801
3751.0847 1413.1377 6721.9009 7899556
3812.1826 1421.0636 6759.6025 7964837
3865.2229 1425.8524 6782.3813 8030887
3943.0745 1439.6011 6847.7798 8096423
0 0 0 0
0 0 0 0
0 0 0 0
0 0 0 0
0 0 0 0
0 0 0 0
0 0 0 0
0 0 0 0
0 0 0 0
0 0 0 0
0 0 0 0
0 0 0 0
0 0 0 0
0 0 0 0
0 0 0 0
0 0 0 0
0 0 0 0
0 0 0 0
0 0 0 0
0 0 0 0
0 0 0 0
0 0 0 0
0 0 0 0
0 0 0 0
0 0 0 0
0 0 0 0
0 0 0 0
9182.3262 2602.4739 12379.241 2106693
0 0 0 0
0 0 0 0
0 0 0 0
8648.873 2375.3699 11298.971 1975618
8640.0918 2354.7275 11200.78 1975618
8831.5127 2388.5464 11361.647 1910082
8963.5459 2405.9128 11444.255 1909825
9265.1328 2468.187 11740.476 1975618
9333.3477 2467.8271 11738.764 1975617
9247.3008 2426.9858 11544.493 2106945
9809.1035 2555.5261 12155.923 2106690
10095.819 2611.0474 12420.022 2040898
10855.865 2787.2947 13258.381 1975105
10657.318 2716.6541 12922.364 2040899
10686.885 2704.7551 12865.765 2106692
10997.633 2763.6855 13146.079 2040900
10565.054 2636.3037 12540.16 1975108
10696.5 2650.46 12607.497 2171972
10967.498 2698.7593 12837.243 2040386
0 0 0 0
11704.826 2840.7825 13512.808 2106179
11096.779 2674.9077 12723.788 2106178
12725.604 3046.8364 14492.949 2106434
0 0 0 0
0 0 0 0
16653.816 3908.2188 18590.305 2303812
0 0 0 0
0 0 0 0
0 0 0 0
0 0 0 0
0 0 0 0
0 0 0 0
0 0 0 0
0 0 0 0
0 0 0 0
0 0 0 0
0 0 0 0
0 0 0 0
0 0 0 0
0 0 0 0
0 0 0 0
0 0 0 0
0 0 0 0
-2932.5608 709.13977 3280.699 5920582
-2918.9565 710.56091 3287.2734 5591616
-2902.5339 711.31042 3290.741 4736306
-2908.1992 717.51971 3319.467 4868148
-2885.6763 716.81146 3316.1904 5657149
-2868.2915 717.3786 3318.8142 6052421
-2830.2632 712.75482 3297.4233 5920835
-2826.136 716.66364 3315.5066 6776145
-2824.0166 721.13989 3336.2151 6776146
-2870.1992 738.10052 3414.6802 5657410
-2832.072 733.46698 3393.2441 4802100
-2841.7737 741.24274 3429.217 4538930
-2814.8914 739.51929 3421.2439 5196859
-2791.1333 738.5976 3416.98 4473137
-2766.7839 737.50482 3411.9243 4078635
-2671.2905 717.29248 3318.4158 7105373
-2651.2136 717.18121 3317.9011 3223843
-2650.5967 722.3717 3341.9138 4013619
-2675.8083 734.73248 3399.0986 3289899
-2671.1948 739.02924 3418.9768 4277308
-2632.0156 733.75537 3394.5781 3158574
-2582.7883 725.57745 3356.7446 592135
-2611.8591 739.43945 3420.8745 131587
-2576.7166 735.19678 3401.2466 197381
-2545.4358 731.99774 3386.447 526600
-2509.459 727.38672 3365.1147 723723
-2500.7612 730.67212 3380.3142 723466
-2479.6208 730.34583 3378.8047 513
-2456.9929 729.57251 3375.2271 3
-2423.2922 725.4715 3356.2546 6
-2399.6279 724.33228 3350.9839 11
-2379.2305 724.16821 3350.2251 12
-2356.9714 723.43005 3346.8103 15
-2337.146 723.43274 3346.8225 1119270
-2276.8318 710.79529 3288.3579 8756411
-2346.1111 738.74634 3417.668 10073810
-2282.1685 724.86975 3353.4705 461842
-2309.6406 740.03998 3423.6526 330519
-2326.6211 752.08746 3479.3882 8
-2313.9463 754.67859 3491.3755 131342
-2284.5745 751.82178 3478.1589 1315358
-2281.1418 757.52679 3504.5522 1907747
-2248.4241 753.52234 3486.0261 2038818
-2254.1475 762.44586 3527.3093 3289653
-2225.9417 759.95288 3515.7759 4868677
-2227.2258 767.57599 3551.0427 4276535
-2210.345 769.02448 3557.7439 4802363
-2181.1614 766.17926 3544.5813 4407603
-2164.1799 767.60675 3551.1851 4210222
-2152.835 771.08099 3567.2581 5657410
-2125.2993 768.76776 3556.5562 4669998
-2163.6519 790.47992 3657.0034 6380360
-2115.2534 780.61694 3611.374 5788223
-2123.2456 791.57532 3662.071 5130033
-2093.8145 788.66418 3648.603 5787964
-2064.1519 785.60413 3634.4465 4143140
-2036.8478 783.3866 3624.1875 7236182
-2033.5532 790.45441 3656.8857 6775374
-2049.2708 805.14429 3724.8455 5920065
-2019.4141 802.05341 3710.5459 4801840
-1966.8024 789.75726 3653.6602 6512206
-1947.5155 790.71771 3658.1035 7301722
-1933.7158 793.95264 3673.0693 6117192
-1914.6449 795.07233 3678.2495 5261625
-1932.7131 811.81787 3755.7195 3814436
-1909.6332 811.4682 3754.1021 6183754
-1907.8192 820.25354 3794.7456 6117704
-1945.7982 846.56122 3916.4529 5262652
-1876.9326 826.45795 3823.4487 5591617
-1837.918 819.16797 3789.7231 7499614
-1799.7402 812.0752 3756.9099 4473136
-1799.7955 822.27234 3804.0852 5788996
-1767.6061 817.80957 3783.439 6381133
-1728.8488 810.15454 3748.0244 7236441
-1716.2708 814.72766 3769.1809 4604723
-1720.7184 827.61023 3828.7795 6512719
-1698.9663 828.06738 3830.8945 5460032
-1692.1454 835.9129 3867.1904 4538930
-1648.3262 825.44592 3818.7671 4473137
-1636.3245 830.8429 3843.7351 6512975
-1584.5924 815.93427 3774.7632 5262138
-1586.5747 828.65332 3833.6052 5590845
-1578.8516 836.59918 3870.3655 6577740
-1570.4574 844.41852 3906.54 6184010
-1555.1632 848.70624 3926.3762 6578512
-1565.8228 867.50323 4013.3372 5394239
-1552.4987 873.38763 4040.5598 6315343
-1538.825 879.25653 4067.7114 6249548
-1499.5192 870.43347 4026.8933 5855047
-1463.5293 863.28101 3993.804 4407083
-1430.2509 857.51917 3967.1475 5196343
-1428.6233 870.85834 4028.8586 4998964
-1405.3337 871.2218 4030.54 5854019
-1376.4709 868.08301 4016.019 4406574
-1363.5127 875.04059 4048.207 3748646
-1337.999 874.04559 4043.6042 5261628
-1291.72 859.20209 3974.9333 6512721
-1277.9291 865.8183 4005.5417 6644562
-1258.9957 869.13489 4020.8855 7039064
-1230.7443 866.02271 4006.4875 4736049
-1203.4625 863.48389 3994.7422 6709838
-1194.744 874.4295 4045.3801 5920067
-1191.8246 890.15472 4118.1299 6117445
-1158.0266 882.99255 4084.9951 5854273
-1145.2903 891.92688 4126.3281 5788479
-1118.6757 890.20715 4118.3721 5854273
-1095.7439 891.40674 4123.9219 4998963
-1077.054 896.19049 4146.0532 5262136
-1057.9911 900.88013 4167.749 5525308
-1036.5817 903.74817 4181.0171 4539184
-1014.3882 906.0564 4191.6958 7105368
-997.26178 913.11993 4224.374 6710611
-968.33203 909.46161 4207.4492 5263164
-935.19348 901.55243 4170.8589 4735281
-913.98395 905.02582 4186.9282 4801329
-896.7973 912.78778 4222.8374 5393210
-873.51099 914.6087 4231.2612 6577741
-844.0387 909.86884 4209.3335 4406575
-821.30084 912.32111 4220.6782 4998454
-806.85785 924.43085 4276.7017 3551007
-772.23297 913.45355 4225.9175 4143144
-747.38263 913.68988 4227.0107 2827284
-729.59857 922.88092 4269.5312 4603952
-702.86261 921.00214 4260.8394 4736053
-679.25067 923.22937 4271.1436 4933689
-650.1239 917.84338 4246.2261 5262911
-629.10406 923.92969 4274.3833 5526084
-593.09332 907.58679 4198.7759 4868155
-561.00238 896.07343 4145.5117 5920842
0 0 0 0
0 0 0 0
0 0 0 0
-491.02759 950.86414 4398.9902 2893853
-466.60989 954.24188 4414.6167 4933179
-441.80136 957.17407 4428.1821 4208942
-411.8757 948.69019 4388.9326 5327936
0 0 0 0
0 0 0 0
0 0 0 0
0 0 0 0
0 0 0 0
-245.26619 909.56213 4207.9146 5393985
-227.21379 937.98309 4339.3984 4735542
-200.0632 931.30591 4308.5078 4209195
-175.92842 938.76764 4343.0283 3879718
-151.6815 948.08575 4386.1367 4801073
-125.94777 950.04291 4395.1909 5393211
-101.18375 962.24237 4451.6294 4274730
-74.659569 960.40442 4443.1265 3287579
-48.932869 972.41156 4498.6753 5459003
-22.550737 984.54785 4554.8213 4867126
4.438828 983.82147 4551.4609 4340269
31.117937 974.61902 4508.8877 4603185
56.671741 954.95715 4417.9258 4603441
83.488365 962.27673 4451.7886 4801332
110.62515 968.88519 4482.3613 6182984
140.25371 990.53247 4582.5083 5064507
168.19421 995.1687 4603.957 4143405
198.88777 1012.5265 4684.2593 5854538
224.81299 1004.3301 4646.3403 4802107
253.04463 1007.102 4659.1636 5328450
279.5719 1003.2123 4641.1689 3551782
308.83636 1008.962 4667.7686 4538420
337.2941 1011.3473 4678.8037 4866872
359.86609 997.06299 4612.7202 3090462
386.37445 994.93182 4602.8608 3814185
417.92072 1005.1992 4650.3608 4932921
444.02087 1001.9073 4635.1313 4077869
471.79996 1002.5667 4638.1821 6315089
506.29285 1016.6348 4703.2651 5854537
530.37347 1009.4179 4669.8779 2959645
553.96838 1002.0382 4635.7373 4012334
579.30066 998.35004 4618.6748 4077613
625.05273 1028.5978 4758.6104 5721927
666.25696 1049.0731 4853.3354 4472115
670.68457 1012.3426 4683.4087 4208942
699.95966 1014.5461 4693.6025 5064506
741.71704 1033.9819 4783.5186 5327678
763.51544 1025.1874 4742.8325 3814440
801.6438 1038.1654 4802.873 3682853
841.21552 1052.0586 4867.147 4538419
866.22595 1047.4235 4845.7036 5065023
898.3678 1051.4323 4864.2495 3420198
933.53943 1058.6274 4897.5366 4472887
979.16162 1076.8823 4981.9893 2170389
988.32941 1055.1495 4881.4463 3354152
1033.8646 1072.3749 4961.1362 3485996
1053.7516 1062.7795 4916.7456 3683374
1079.37 1059.3256 4900.7666 3683630
1126.7087 1076.811 4981.6597 3288872
1170.7126 1090.2979 5044.0537 4341560
1190.1432 1080.7975 5000.1021 4670266
1223.609 1084.1948 5015.8188 4078127
1269.0009 1097.7476 5078.5181 3024925
1295.6765 1094.8569 5065.1455 4209455
1315.5957 1086.5175 5026.564 2958877
1353.6613 1093.2019 5057.4883 4077614
1408.666 1112.9803 5148.9897 3814189
1407.856 1088.756 5036.9204 3223077
1425.459 1079.4817 4994.0146 4867646
1473.0006 1092.7955 5055.6089 3881008
1507.0197 1095.7465 5069.2603 4538685
1539.91 1097.7773 5078.6558 2763043
1586.8136 1109.5286 5133.021 3091753
1620.0186 1111.4397 5141.8623 2697254
1680.6959 1131.7802 5235.9634 4473665
1715.2371 1134.1021 5246.7051 5263437
1705.6847 1107.7061 5124.5894 4210493
1767.7539 1127.9325 5218.1626 4604994
1800.4025 1129.0139 5223.166 5065286
1866.3605 1150.5939 5323.0015 4012341
1866.3219 1131.4464 5234.4194 3552047
1907.8649 1137.7213 5263.4492 4077878
1911.1843 1121.3672 5187.79 3551021
1990.4508 1149.3866 5317.416 4208951
2041.1685 1160.304 5367.9233 4208693
2063.9434 1155.246 5344.5234 5064002
2100.8738 1158.1444 5357.9326 5327945
2131.6914 1157.6368 5355.5845 3222569
2152.0295 1151.5366 5327.3628 4933188
2207.4788 1164.129 5385.6191 4012344
2244.3459 1166.7026 5397.5254 3223085
2227.1968 1141.5187 5281.0166 3157548
2284.2517 1154.5377 5341.2471 4341308
2307.6477 1150.4213 5322.2026 4407102
2414.6624 1187.5397 5493.9243 4077624
2471.6169 1199.3783 5548.6934 3880762
2576.1619 1233.6965 5707.46 2959918
2606.6931 1232.1404 5700.2607 4933966
2628.134 1226.3821 5673.6211 4407879
2612.2124 1203.5547 5568.0146 4342088
2702.8438 1229.778 5689.3315 4802901
2622.2048 1178.3881 5451.5859 7501191
2718.7012 1206.8828 5583.4116 7501709
2823.7222 1238.431 5729.3633 7634069
2777.0476 1203.4893 5567.7119 6516105
2884.1982 1235.2487 5714.6406 7898786
2947.7188 1247.8016 5772.7144 8030629
3057.6416 1279.4839 5919.2861 8096423
3079.3521 1273.9532 5893.6997 8096423
3097.4568 1267.0717 5861.8633 8161959
3203.3567 1295.8585 5995.0405 8030633
3279.1753 1311.9786 6069.6172 8161705
3338.1362 1321.0775 6111.7109 7964326
3523.366 1379.4158 6381.6021 4148334
3498.394 1355.094 6269.082 8096426
3646.0298 1397.4398 6464.9868 7964839
3694.125 1401.1503 6482.1523 7833509
3790.0378 1422.7345 6582.0073 8030632
3830.0916 1423.1235 6583.8076 7965096
3970.2859 1460.3383 6755.9741 7833254
4012.1226 1460.9935 6759.0059 7899304
4163.7173 1501.2084 6945.0522 7964839
4213.6167 1504.3292 6959.4902 8096423
4158.2837 1470.1842 6801.5249 8162216
4346.7798 1522.0742 7041.584 8096423
4364.2681 1513.6664 7002.687 7964838
4683.1958 1608.981 7443.6411 8030374
4603.2847 1566.7683 7248.353 7899044
4483.8491 1512.0084 6995.0161 7767459
0 0 0 0
0 0 0 0
0 0 0 0
0 0 0 0
0 0 0 0
0 0 0 0
0 0 0 0
0 0 0 0
0 0 0 0
0 0 0 0
0 0 0 0
0 0 0 0
0 0 0 0
0 0 0 0
0 0 0 0
9445.0977 2774.5784 12836.054 6647434
9537.2891 2779.2764 12857.788 6055040
0 0 0 0
0 0 0 0
0 0 0 0
9959.4707 2812.4258 13011.147 2106691
9762.8232 2735.7153 12656.261 2040641
9940.2363 2764.1934 12788.009 1909057
8350.9209 2304.6636 10662.083 1975106
8580.6846 2350.29 10873.165 2107203
8900.2783 2419.658 11194.082 2107204
8747.0693 2360.4126 10919.995 2173254
9638.0938 2581.7563 11943.999 2041411
8568.4932 2278.5088 10541.083 2040898
10116.55 2670.6929 12355.447 1975106
9298.3398 2437.0527 11274.557 2040899
9718.4785 2528.9966 11699.917 1975362
9470.6611 2447.0498 11320.806 2040898
10283.198 2638.3052 12205.611 2106691
9794.6162 2495.3994 11544.486 1975364
9745.9541 2465.7783 11407.449 2040901
9828.6162 2469.562 11424.955 2106694
10086.479 2517.0144 11644.483 2106694
10066.476 2494.9529 11542.421 2106694
10689.65 2631.5242 12174.24 2040900
10576.109 2586.1187 11964.182 2106436
10581.956 2570.3169 11891.077 2172229
13178.898 3179.9282 14711.326 2172229
10604.128 2541.8484 11759.373 2106435
11455.907 2728.0942 12621.004 2171972
0 0 0 0
16047.578 3772.2908 17451.777 2171714
18114.967 4231.002 19573.918 2106179
11635.906 2700.4353 12493.045 2106435
0 0 0 0
0 0 0 0
0 0 0 0
0 0 0 0
0 0 0 0
0 0 0 0
0 0 0 0
0 0 0 0
0 0 0 0
0 0 0 0
0 0 0 0
-2865.7451 711.98181 3205.9512 6907989
-2829.4155 707.64746 3186.4341 6776404
-2864.8152 721.315 3247.9773 6381646
-2837.417 719.24915 3238.6748 4671028
-2796.3777 713.67371 3213.5696 6315338
-2773.2405 712.62189 3208.8335 5591615
-2784.9617 720.57489 3244.6445 6315338
-2809.1172 731.87805 3295.541 6183752
-2809.6343 737.13757 3319.2239 5920580
-2792.7827 737.88232 3322.5774 6249546
-2831.6541 753.46484 3392.7432 5328444
-2755.4075 738.4198 3324.9976 2368280
-2719.1714 733.95764 3304.905 5723202
-2679.0552 728.37579 3279.7708 5262911
-2681.1653 734.27673 3306.3418 5328704
-2633.3416 726.48871 3271.2734 5921355
-2599.0146 722.33624 3252.5757 5132097
-2574.8394 720.96429 3246.3979 6053200
-2604.188 734.67139 3308.1189 3487531
-2616.1396 743.64124 3348.509 6250835
-2567.9976 735.53601 3312.0125 6448213
-2554.1951 737.21735 3319.5833 4868923
-2526.7593 734.95923 3309.4153 7171677
-2535.7954 743.35742 3347.231 3947822
-2511.5608 742.05798 3341.3796 5132352
-2487.3342 740.74023 3335.446 4079666
-2458.928 738.14673 3323.7678 4803390
-2449.5623 741.27319 3337.8459 5461579
-2444.3569 745.71979 3357.8684 197635
-2423.8721 745.53979 3357.0579 2
-2394.1313 742.48621 3343.3079 8
-2370.6067 741.32562 3338.082 267
-2351.2646 741.46436 3338.7068 5
-2373.7512 754.90796 3399.2415 10137800
-2353.7222 754.94501 3399.4082 9415104
-2330.9307 754.08905 3395.554 791578
-2313.5325 754.97815 3399.5576 922904
-2302.5037 757.97974 3413.073 856080
-2300.9675 764.18707 3441.0239 4474175
-2295.5039 769.18945 3463.5488 3289897
-2275.3228 769.30597 3464.0735 3421226
-2287.8506 780.58441 3514.8589 4539700
-2284.8792 786.73352 3542.5471 5329213
-2223.8538 772.82196 3479.9055 4867893
-2185.24 766.51129 3451.4895 5328187
-2168.4734 767.81702 3457.3689 3814951
-2192.9998 783.90826 3529.8254 3223071
-2143.9204 773.74493 3484.0615 4341552
-2150.2175 783.56384 3528.2744 4867895
-2137.085 786.42554 3541.1604 6446923
-2088.4089 776.1347 3494.8223 3946019
-2087.4194 783.53735 3528.1555 4537641
-2088.8699 792.01508 3566.3293 4669227
-2068.2073 792.19592 3567.1438 4471849
-2069.9861 801.06512 3607.0806 5195828
-2041.0787 798.12036 3593.8206 5393208
-2012.1599 795.10883 3580.2603 5130550
-2011.9521 803.49933 3618.0413 7038547
-2009.2977 811.08295 3652.1892 5656893
-1963.374 801.17511 3607.5759 5788480
-1937.7384 799.41919 3599.6689 6182982
-1929.1798 804.7478 3623.6628 5920066
-1887.5117 796.22925 3585.3052 6643535
-1881.7131 802.82031 3614.9839 5393468
-1870.7043 807.31476 3635.2219 5196089
-1871.8768 817.23206 3679.8777 6249547
-1839.1876 812.42542 3658.2341 5460031
-1856.7751 829.97772 3737.2695 6183754
-1813.1982 820.28326 3693.6169 5525823
-1793.2684 821.18054 3697.6572 5854789
-1769.423 820.28479 3693.6235 5328444
-1738.1522 815.88104 3673.7942 6117447
-1738.8384 826.55646 3721.864 6117701
-1711.0603 823.80182 3709.4602 6314825
-1656.6523 807.9873 3638.2502 5525054
-1643.2506 812.01929 3656.4053 5065273
-1655.861 829.18481 3733.6992 5591618
-1649.5492 837.21149 3769.8423 5591875
-1624.0454 835.58411 3762.5146 6051909
-1598.1957 833.73096 3754.1699 4604463
-1575.2219 833.34705 3752.4412 4669743
-1570.4877 842.73962 3794.7346 5393209
-1559.7227 849.12189 3823.4731 5327415
-1537.7677 849.51074 3825.2239 3879713
-1511.989 847.76721 3817.373 5064501
-1492.0128 849.2735 3824.1558 4932660
-1465.681 847.15283 3814.6067 6051654
-1406.4213 825.6355 3717.717 6118217
-1400.4604 835.22009 3760.8752 5525824
-1402.9851 850.25726 3828.5854 5131064
-1394.8463 859.22015 3868.9443 4603950
-1358.2141 850.63751 3830.2976 6182728
-1357.4976 864.63904 3893.3445 6116934
-1335.1281 865.09473 3895.3962 4932661
-1328.8798 876.19592 3945.3833 5524799
-1277.8342 857.62878 3861.7786 4406830
-1253.926 856.92999 3858.6318 5460032
-1238.7739 862.30029 3882.8137 5328189
-1228.2284 871.14124 3922.623 6775121
-1198.6166 866.53931 3901.9014 5130548
-1158.6842 854.14825 3846.1062 5920065
-1155.9465 869.22906 3914.0127 5920066
-1109.8535 851.6582 3834.8938 4867635
-1108.1117 868.09766 3908.918 5327929
-1069.0298 855.36212 3851.5718 6709838
-1079.8368 882.85925 3975.3877 5262393
-1067.8619 892.54163 4018.9856 5460029
-1041.5717 890.42749 4009.4666 5065271
-1010.9403 884.41705 3982.4019 5065271
-998.77155 894.6571 4028.5115 4407598
-972.79547 892.72791 4019.8247 5854273
-980.99768 922.85425 4155.4795 5985605
-941.71545 908.71191 4091.7986 5591103
-901.41925 892.81775 4020.2292 4801586
-875.40735 890.59259 4010.21 5459005
-878.23138 918.39813 4135.4141 4340780
-858.91266 923.97986 4160.5479 5130296
-812.99939 900.43671 4054.5364 4406316
-798.3125 911.0976 4102.5405 5459004
-771.93439 908.6662 4091.5923 5196088
-753.96857 916.30042 4125.9683 4669745
-749.80988 941.78882 4240.7388 4867124
-719.8222 935.47784 4212.3213 6314570
-686.67078 924.45398 4162.6826 3880487
-661.25629 923.4129 4157.9946 4998969
-647.12415 938.65625 4226.6333 3552036
-610.0094 920.44849 4144.6465 6446930
-586.08038 921.44385 4149.1284 4933948
-547.65332 898.73395 4046.8691 6052430
0 0 0 0
0 0 0 0
0 0 0 0
-471.43539 937.95343 4223.4688 5526343
-455.0867 956.1922 4305.5952 5065277
-426.02042 948.28918 4270.0093 4736311
-404.4903 957.22253 4310.2344 2630423
0 0 0 0
0 0 0 0
0 0 0 0
0 0 0 0
0 0 0 0
-246.10536 937.69647 4222.3115 5591619
-222.07942 941.92255 4241.3408 6643794
-196.46918 939.65002 4231.1079 4011560
-174.31528 955.6615 4303.2056 4406060
-148.20598 951.75964 4285.6362 4340525
-123.33172 955.81549 4303.8989 4932405
-98.502892 962.43011 4333.6836 5195832
-74.320107 982.24884 4422.9243 5722177
-48.514744 990.53467 4460.2344 5524542
-21.772472 976.63062 4397.6265 4340526
4.2866063 976.13092 4395.3765 4603698
30.380909 977.62292 4402.0947 4800822
54.394726 941.71759 4240.418 4668978
80.323418 951.18011 4283.0264 4801334
108.56137 976.87799 4398.7402 4669749
137.44569 997.31421 4490.7617 3946025
164.18703 998.09314 4494.269 4669235
193.78348 1013.5883 4564.0415 4406835
218.90013 1004.726 4524.1357 3551526
245.79089 1005.0521 4525.6045 5657928
271.61484 1001.381 4509.0742 5986894
300.5419 1008.7834 4542.4058 4999486
325.85071 1003.8222 4520.0659 4999485
349.12701 993.82892 4475.0679 5657415
372.01675 984.224 4431.8184 3551783
405.39905 1001.8149 4511.0273 3157026
436.52945 1012.0087 4556.9287 5262143
470.24826 1026.6658 4622.9277 4933179
491.79324 1014.5939 4568.5698 5195582
518.62018 1014.1102 4566.3916 5656388
539.66602 1002.9307 4516.0518 4669749
575.8548 1019.6201 4591.2017 4340528
607.55054 1027.2068 4625.3638 3617061
619.64484 1002.4285 4513.7905 4735543
654.53088 1015.0463 4570.6069 3024926
688.28339 1024.9733 4615.3066 5327680
727.25446 1041.6158 4690.2456 4340529
752.9776 1038.7571 4677.373 2892826
773.28668 1028.8977 4632.9775 4208942
808.19916 1038.4788 4676.1196 4406322
841.7644 1045.7507 4708.8647 3551269
865.48047 1040.7129 4686.1797 4472629
875.77209 1020.3475 4594.4775 2235927
952.37115 1076.1348 4845.6792 4275251
958.67548 1051.5511 4734.9829 4011823
975.29663 1039.3605 4680.0898 3485992
1021.6095 1058.6111 4766.7725 3749421
1073.3566 1082.3049 4873.4629 3683627
1095.2906 1075.4836 4842.7471 5526088
1121.4111 1073.0162 4831.6367 2368025
1164.4371 1086.4449 4892.1045 4472887
1174.0764 1068.8274 4812.7749 3880746
1216.311 1081.015 4867.6543 5065021
1267.339 1100.2722 4954.3667 4407349
1252.1316 1062.4554 4784.083 4275764
1312.661 1089.1544 4904.3047 3420199
1347.0552 1093.4812 4923.7881 3090981
1377.1881 1094.2388 4927.1992 4406841
1401.2657 1090.2537 4909.2549 4274998
1436.8527 1095.2034 4931.5425 4801851
1468.4995 1097.0122 4939.6875 4274998
1511.9248 1107.3773 4986.3599 4275767
1531.787 1100.4175 4955.021 3617837
1580.8164 1114.2788 5017.4365 3223081
