# .PCD v0.7 - Point Cloud Data file format
VERSION 0.7
FIELDS x y z rgb
SIZE 4 4 4 4
TYPE F F F U
COUNT 1 1 1 1
WIDTH 1310
HEIGHT 1
VIEWPOINT 0 0 0 1 0 0 0
POINTS 1310
DATA ascii
45.99316 668.77478 3585.4619 2630942
66.339081 659.80078 3537.3501 3419943
88.041145 665.38574 3567.2922 3814187
109.23799 665.72888 3569.1321 3024927
131.96129 673.75433 3612.1584 3880235
154.18423 677.34131 3631.3892 4406321
174.23126 671.66156 3600.9385 3879977
191.89452 659.03448 3533.2419 3485475
212.4404 657.81799 3526.72 4669749
235.19951 663.05884 3554.8174 4538163
257.84967 667.15613 3576.7839 3091231
278.97861 666.99384 3575.9138 5065022
302.05658 671.18549 3598.386 4341555
328.38681 681.57434 3654.0833 7301214
343.23505 668.32098 3583.0288 5788233
368.1727 675.11267 3619.4409 3551525
392.86734 680.73547 3649.5862 4998715
411.95718 676.56671 3627.2361 5261886
439.86154 686.5697 3680.8647 5064505
455.37106 677.1947 3630.6033 4998713
474.00604 673.104 3608.6716 4077609
496.45602 674.54993 3616.4238 4999485
526.39514 685.63086 3675.8315 5789001
549.91864 687.80688 3687.4976 5657160
572.73798 688.96948 3693.7305 4143920
598.74316 693.73767 3719.2939 4406577
617.78241 690.38275 3701.3076 4274991
640.11578 690.81299 3703.614 3551266
664.80481 693.67273 3718.9456 5261884
692.65509 699.54144 3750.4092 4998713
724.95782 709.40222 3803.2754 7104347
744.08313 706.16254 3785.9065 1577739
767.83832 707.37775 3792.4216 4077612
794.32733 710.97076 3811.6846 4932920
796.44397 693.15363 3716.1626 6183240
829.33807 702.36041 3765.5225 5262137
840.34613 693.03534 3715.5283 5064247
867.08405 696.8277 3735.8604 5130040
873.4682 684.4812 3669.6677 4800819
919.50922 703.05615 3769.2527 2827283
942.52124 703.55988 3771.9529 3550236
965.64276 704.11993 3774.9556 3353113
980.13983 698.50836 3744.8706 3879457
1009.2125 703.30267 3770.5742 3024148
1027.1509 700.29822 3754.4666 2958357
1069.1409 713.4715 3825.0916 3155992
1096.1367 716.29938 3840.2527 3155736
1116.9266 715.03937 3833.4973 2826774
1132.0945 710.30219 3808.1001 2826517
1151.0144 708.05823 3796.0698 1708812
1170.4568 706.21564 3786.1912 3222046
1200.7487 710.86542 3811.1196 3814184
1228.7465 714.01031 3827.9805 3550756
1256.682 717.00586 3844.0403 2695447
1279.451 716.99933 3844.0054 4668980
1314.0907 723.52899 3879.0122 2234641
1356.3118 733.93658 3934.8101 1839882
1315.22 699.67157 3751.1069 590848
1339.9349 700.97162 3758.0769 524800
1368.5748 704.24884 3775.647 3024411
1411.298 714.55115 3830.8799 2695186
1436.8419 715.96698 3838.4705 3484702
1488.7853 730.28827 3915.2505 2300687
1517.7305 733.06195 3930.1206 2892308
1551.1731 737.89111 3956.0112 3616030
1554.865 728.63489 3906.3862 2629393
1548.0519 714.79968 3832.2124 2498062
1566.6721 712.93829 3822.2332 2892310
1584.4919 710.77106 3810.6138 3418653
1617.1295 715.21814 3834.4558 2168590
1649.8837 719.59277 3857.9094 2497554
1672.864 719.64343 3858.1807 2300175
1676.4689 711.46991 3814.3606 1511435
1720.1134 720.28009 3861.5942 3484449
1748.5315 722.56677 3873.8535 2563347
1780.4667 726.22876 3893.4866 3944743
1832.2679 737.79645 3955.5037 3681828
1869.3149 743.20587 3984.5046 2628884
1886.9231 740.84827 3971.8652 2629138
1890.2743 733.02002 3929.896 2365967
1949.3423 746.72552 4003.3748 3221274
1948.7898 737.5376 3954.116 3221275
1986.9647 743.05054 3983.6721 3155995
1988.1838 734.77625 3939.3115 4471855
1997.8335 729.7735 3912.4907 3813925
2020.8258 729.70349 3912.1152 3616546
2066.6445 737.78406 3955.437 3287070
2105.3491 743.172 3984.3232 3682084
2120.1167 740.08466 3967.771 3747621
2161.865 746.38 4001.5222 4011048
2199.6921 751.19977 4027.3618 3484961
2248.6565 759.67859 4072.8188 4142636
2280.3164 762.19324 4086.3005 4537650
2284.3279 755.5108 4050.4744 2695447
2291.6013 750.03491 4021.1169 3945514
2289.3135 741.57465 3975.7595 2892570
2332.0657 747.72778 4008.7478 3089949
2350.1157 745.91656 3999.0376 3353121
2376.0847 746.62976 4002.8611 3945257
2380.3611 740.57996 3970.4265 2761241
2418.8459 745.18726 3995.1274 4011051
2456.1101 749.33289 4017.353 2892570
2496.9155 754.46887 4044.8884 3682086
2497.2463 747.39374 4006.9568 2826777
2578.2903 764.38074 4098.0283 2103054
2593.8909 761.82983 4084.3523 3616293
2583.8091 751.85297 4030.864 4405808
2655.9961 765.77863 4105.5229 2826776
2692.0706 769.13397 4123.5117 3287071
2712.031 767.86658 4116.7168 3155742
2755.6577 773.26276 4145.647 2366226
2769.6411 770.31891 4129.8643 3747365
2829.8787 780.17859 4182.7241 2629141
2824.5137 771.93781 4138.5435 2892313
2884.979 781.67548 4190.7495 2629142
2921.3481 784.77386 4207.3608 2103055
2933.3926 781.34064 4188.9546 1971470
2952.0103 779.70123 4180.165 2958621
2958.6941 774.96338 4154.7642 3222305
3012.0552 782.42877 4194.7881 3287584
3028.501 780.26117 4183.167 3617061
3119.2761 797.12335 4273.5693 3156254
3150.833 798.70288 4282.0376 3221276
3180.7979 799.85675 4288.2236 3023896
3190.1621 795.85303 4266.7588 2694931
3264.1211 807.90009 4331.3462 3089689
3222.7544 791.43774 4243.0874 3616033
3292.1682 802.22491 4300.9199 3879205
3367.3911 814.25098 4365.3945 2826517
3327.9844 798.58704 4281.4165 3023897
3310.1201 788.29034 4226.2134 3089434
3326.3708 786.21173 4215.0693 2365712
3292.5342 772.41364 4141.0947 393472
3348.8467 779.81207 4180.7593 2891542
3416.8306 789.7995 4234.3042 3154714
3475.7126 797.55273 4275.8716 2300175
3489.6135 794.94696 4261.9014 2958102
3525.012 797.24066 4274.1982 2958103
3518.9814 790.19861 4236.4438 3221277
3491.4006 778.45135 4173.4644 2497554
3547.9243 785.48962 4211.1982 2760726
3667.0664 806.19623 4322.2109 2695191
3699.3459 807.65137 4330.0127 3287328
3763.2627 815.94604 4374.4824 3484707
3783.7268 814.77026 4368.1787 3682086
3755.3525 803.16534 4305.9619 3945258
3807.4136 808.80377 4336.1909 3682086
3820.4138 806.12476 4321.8276 3419168
3844.4961 805.80408 4320.1089 2892568
3877.2266 807.28839 4328.0664 2694932
3826.0688 791.40131 4242.8921 2365967
3888.5134 799.06622 4283.9858 2958105
3973.2334 811.17963 4348.9282 3221278
3988.4084 809.02997 4337.4033 4076587
4055.0596 817.28259 4381.6479 3221278
4085.5989 818.1983 4386.5571 2037004
4146.9683 825.23767 4424.2969 2629141
4094.1023 809.59869 4340.4526 2497554
4132.6802 812.12494 4353.9966 2563348
4182.3389 816.78387 4378.9741 2694676
0 0 0 0
0 0 0 0
0 0 0 0
0 0 0 0
0 0 0 0
0 0 0 0
0 0 0 0
0 0 0 0
0 0 0 0
0 0 0 0
0 0 0 0
0 0 0 0
-2467.8838 549.54449 2855.5146 4670520
-2459.3281 551.42041 2865.2622 3025438
-2445.759 552.19049 2869.2639 3420197
-2440.1489 554.78094 2882.7244 4933691
-2444.4919 559.68677 2908.2156 2236435
-2419.2773 557.84674 2898.6543 920323
-2372.6116 550.99878 2863.0713 1577996
-2383.8774 557.6026 2897.3857 2762780
-2336.2354 550.4234 2860.0815 657669
-2361.5144 560.44531 2912.157 4867895
-2355.1799 563.05676 2925.7266 6117961
-2332.4329 561.75415 2918.958 5591874
-2313.6245 561.38776 2917.0542 4275759
-2300.4875 562.40228 2922.3259 4538933
-2258.792 556.39764 2891.1248 6447187
-2250.2344 558.52612 2902.1848 5000255
-2249.3618 562.6098 2923.4038 5921612
-2244.4893 565.74847 2939.7131 5920843
-2245.2153 570.35852 2963.6675 6315601
-2233.9741 571.97723 2972.0786 6381392
-2205.4075 569.15039 2957.3901 5328704
-2183.45 567.99768 2951.4001 4341809
-2162.9548 567.20978 2947.3062 5196861
-2200.7488 581.81915 3023.2185 2828313
-2169.6199 578.29736 3004.9189 3091483
-2108.2686 566.59503 2944.1121 3486241
-2054.8044 556.83484 2893.3965 4538413
-2033.3416 555.6554 2887.2681 4407085
-2032.9508 560.26324 2911.2109 3091483
-2069.8369 575.31104 2989.4016 6512977
-2061.6963 577.99542 3003.3501 5065788
-2015.6216 569.99921 2961.8005 5525825
-2030.4032 579.22333 3009.7302 5328446
-2000.2283 575.67218 2991.2781 4407346
-1989.7102 577.76544 3002.155 7038810
-1939.0416 568.13257 2952.1011 4604726
-1961.7057 580.0061 3013.7979 4670519
-1932.2854 576.55682 2995.8748 4473654
-1926.7345 580.23181 3014.9707 2762779
-1905.6802 579.26306 3009.937 4933692
-1903.1649 583.96454 3034.3665 3946540
-1887.0013 584.52795 3037.2939 4867898
-1879.7844 587.90027 3054.8169 4736312
-1875.9542 592.40765 3078.238 6183759
-1855.58 591.72778 3074.7053 4341298
-1830.0809 589.38397 3062.5266 3683368
-1800.7391 585.74323 3043.6086 4407091
-1800.4755 591.58301 3073.9531 4011819
-1791.0822 594.5119 3089.1719 4341298
-1769.752 593.49805 3083.9038 4341298
-1749.6401 592.87598 3080.6714 4341298
-1719.4551 588.79126 3059.4468 5262910
-1706.3623 590.53491 3068.5071 2893338
-1703.0839 595.74915 3095.6011 4209196
-1694.0833 599.05353 3112.771 4472369
-1671.749 597.66382 3105.5498 5130811
-1642.3987 593.70691 3084.9893 5525826
-1610.1134 588.58801 3058.3906 3617834
-1618.6368 598.44031 3109.5847 5920584
-1621.0757 606.24402 3150.1338 5525056
-1616.3615 611.52338 3177.5662 4340781
-1594.3925 610.32214 3171.3245 5130298
-1570.0465 608.17151 3160.1494 5393727
-1550.2289 607.7442 3157.9292 5854536
-1500.1357 595.29242 3093.2278 4407090
-1508.3925 605.97369 3148.7292 4209198
-1475.1444 600.03973 3117.8955 4736055
-1459.009 601.00446 3122.9084 4078383
-1429.2465 596.30847 3098.5073 4078640
-1424.4419 602.0387 3128.2822 4210225
-1410.0443 603.81201 3137.4968 4144177
-1372.2913 595.49786 3094.2952 6118222
-1376.9823 605.62628 3146.9241 4868412
-1362.7828 607.61029 3157.2332 4736567
-1348.2273 609.48859 3166.9932 4736310
-1325.7927 607.80774 3158.2593 5394239
-1311.8621 610.0332 3169.8232 4867895
-1296.6499 611.71881 3178.5818 2959387
-1264.4508 605.32214 3145.3435 3946026
-1240.3181 602.65326 3131.4756 2827802
-1231.9388 607.67401 3157.5642 722945
-1221.3854 611.76056 3178.7986 4341041
-1203.8417 612.41913 3182.2207 5591366
-1192.7355 616.42566 3203.0393 5722952
-1194.8486 627.50427 3260.6052 6710103
-1164.1559 621.435 3229.0684 3748905
-1144.0321 620.89905 3226.2834 3881260
-1122.1902 619.39648 3218.4758 4341811
-1101.7631 618.63629 3214.5259 4933948
-1076.616 615.15253 3196.4238 5460292
-1072.0118 623.492 3239.7568 3157537
-1051.3757 622.64117 3235.3362 2894108
-1025.3506 618.508 3213.8594 3881003
-1003.5474 616.81348 3205.0542 4078126
-989.23706 619.74756 3220.3003 3616805
-969.06226 619.0509 3216.6802 4538163
-943.63965 614.90649 3195.1455 3419938
-920.29498 611.9743 3179.9092 3880746
-890.60974 604.61499 3141.6692 4538420
-889.39435 616.68158 3204.3691 3090717
-865.9931 613.55609 3188.1284 3419425
-848.58533 614.63214 3193.72 3946026
-828.11163 613.48615 3187.7649 3880490
-810.06714 614.12817 3191.1011 4143662
-774.41217 601.13092 3123.5654 5525316
0 0 0 0
0 0 0 0
0 0 0 0
0 0 0 0
-481.53311 424.52332 2205.8862 2763556
0 0 0 0
-668.56531 623.25214 3238.5105 4539447
-651.17236 624.97894 3247.4834 5460292
-638.19177 631.17474 3279.6777 4012846
-616.35046 628.72119 3266.9287 4933692
-599.39093 631.24982 3280.0676 5986381
-582.63837 634.17322 3295.2583 4999485
-558.95465 629.49347 3270.9417 4933179
-541.92615 632.24188 3285.2227 4275248
-524.53668 634.75836 3298.2986 4406322
-504.35654 633.96173 3294.1594 3682855
-487.12891 636.96173 3309.7476 5262142
-472.7251 644.06067 3346.6348 7169882
-449.99551 639.94128 3325.2297 5590336
-433.03122 644.01886 3346.4175 5195578
-418.60229 652.43951 3390.1724 2499097
-387.61429 634.59882 3297.4697 4209200
-373.62894 644.17828 3347.2458 6380624
-359.65442 654.85168 3402.7063 4604725
-334.55554 645.33484 3353.2556 6315088
-320.61426 657.49744 3416.4541 4143919
-297.33423 650.85736 3381.9514 3748647
-281.97043 661.83838 3439.0105 4801335
-260.56345 659.24084 3425.5132 5590596
-241.64345 663.02826 3445.1931 3814185
-221.36195 663.43427 3447.3027 2894110
-200.18982 660.98199 3434.5605 3616806
-180.22427 662.40955 3441.9783 3814185
-157.66446 653.44934 3395.4199 3419682
-135.7283 644.83044 3350.6345 4472370
-115.31009 641.7049 3334.3938 6643539
-95.690132 642.64758 3339.2922 4735542
-76.18438 645.04883 3351.7693 5130555
-57.594906 659.63806 3427.5771 6182731
-37.334049 660.5528 3432.3303 6117452
-17.129431 665.8432 3459.8201 6249296
3.4318378 677.2168 3518.9189 5065281
23.96085 668.15814 3471.8489 3749164
44.782833 671.86487 3491.1094 2959393
66.019348 677.48273 3520.3008 3090980
85.342644 665.48383 3457.9529 2433049
108.17532 680.19824 3534.4111 2761760
127.14894 669.80963 3480.4304 3222568
148.0721 671.15765 3487.4346 5064770
171.30367 681.35699 3540.4321 3222821
188.60788 668.32715 3472.7271 2959905
208.37001 665.71375 3459.1475 3683369
229.33101 667.05566 3466.1204 4143919
249.97633 667.33429 3467.5681 4275505
273.2059 673.94543 3501.9204 3485732
294.56415 675.3327 3509.1289 3287840
319.05774 683.25134 3550.2751 3616547
335.1088 673.22919 3498.199 3419168
352.93579 667.73486 3469.6494 3090204
387.1618 692.16345 3596.584 4800309
408.98715 693.02966 3601.085 4406062
428.20804 689.61566 3583.3452 3616546
447.47693 686.59784 3567.6643 2629395
468.06027 685.77832 3563.4058 4142890
493.98804 692.52179 3598.446 3353888
506.68951 680.93256 3538.2266 3617059
521.37207 672.82098 3496.0776 5657672
552.14136 685.29559 3560.8975 5592136
580.61743 694.11029 3606.7002 3815210
597.56506 689.00653 3580.1802 4275506
636.97327 709.26233 3685.4321 5196607
660.44897 711.02252 3694.5786 4406580
679.70264 708.27032 3680.2776 4603955
711.63751 718.49261 3733.3943 5788486
739.51813 724.1286 3762.6794 7170652
758.039 720.5379 3744.0217 4670262
778.19446 718.66095 3734.269 5064764
784.29675 704.26862 3659.4841 5656388
818.17615 714.92242 3714.843 5459265
847.56506 721.19702 3747.4465 5129530
862.06732 714.80737 3714.2454 4011305
876.99963 709.08374 3684.5044 3222304
906.38605 715.04089 3715.4585 1445381
920.591 709.02289 3684.1882 2300685
943.95453 710.17419 3690.1704 4142890
948.27728 697.27258 3623.1316 4603695
975.23358 701.21625 3643.6238 3484702
1015.8601 714.60547 3713.196 3287324
1042.519 717.80975 3729.8459 2497038
1062.2119 716.18414 3721.3992 2760210
1090.8694 720.54602 3744.064 3089431
1132.5021 733.13361 3809.4709 2431758
1128.4198 716.21362 3721.5522 2234635
1144.61 712.56281 3702.582 2300687
1160.0719 708.60431 3682.0132 1906444
1195.5988 716.82202 3724.7136 5129527
1225.7664 721.58698 3749.4729 3221532
1247.1272 721.09009 3746.8911 3682085
1273.1619 723.26575 3758.1963 4077099
1254.4628 700.39087 3639.3347 787715
1289.5234 707.797 3677.8184 853763
1313.4481 708.94629 3683.79 327680
1332.5781 707.51227 3676.3386 4932406
1392.0912 727.22028 3778.7444 3879973
1411.822 725.85126 3771.6309 3879460
1461.4854 739.67407 3843.4561 2563344
1478.0437 736.57495 3827.3528 1971722
1487.833 730.24719 3794.4729 1840141
1513.4285 731.75018 3802.2827 4471856
1517.0256 722.72888 3755.4065 2958619
1550.2371 727.87305 3782.1362 3682341
1568.3503 725.88263 3771.7939 3221534
1585.1301 723.33972 3758.5803 4274222
1609.14 724.12073 3762.6389 3879720
1633.9221 725.22333 3768.3679 3156510
1655.5149 724.89954 3766.6855 4735286
1669.2493 721.18921 3747.4062 1840138
1708.9888 728.66418 3786.2471 3024667
1737.7683 731.33295 3800.1145 2826519
1776.7867 738.18732 3835.7307 2365968
1823.8046 748.1499 3887.498 2694676
1836.5244 743.97003 3865.7786 3484448
1858.2742 743.50604 3863.3677 2826519
1887.21 745.89349 3875.7734 2036745
1936.3915 756.12927 3928.9597 2629139
1930.566 744.89752 3870.5981 3089689
1955.6611 745.72009 3874.8723 3484960
1976.4734 744.90942 3870.6599 4142889
1962.8353 731.28235 3799.8516 3879717
2003.4429 737.94513 3834.4724 3944742
2026.7512 738.15802 3835.5786 3221020
2048.7524 737.89539 3834.2139 2826520
2127.4241 757.82544 3937.7734 3155226
2142.2244 754.81787 3922.1455 2826518
2196.301 765.56543 3977.9915 4536879
2220.5486 765.79749 3979.1975 3089946
2236.5156 763.1991 3965.6958 3221532
2266.033 765.23059 3976.2517 2695190
2279.0129 761.69312 3957.8706 2234895
2279.5476 754.11066 3918.4709 3353376
2293.9426 751.22015 3903.4514 2893081
2339.5195 758.49677 3941.2617 2366481
2347.668 753.61487 3915.8948 2629653
2380.4531 756.65955 3931.7153 3484707
2420.6428 761.97607 3959.3406 4011051
2459.3376 766.72449 3984.0142 3090206
2488.7598 768.51923 3993.3398 5392960
2502.8154 765.57971 3978.0657 3945514
2513.6023 761.70459 3957.9299 3616293
2618.7888 786.24274 4085.4338 3353376
2612.5103 777.17261 4038.3042 2892825
2624.5227 773.659 4020.0469 3616548
2664.4951 778.37653 4044.5598 3221790
2700.6184 781.89551 4062.845 4011306
2709.5818 777.55835 4040.3083 4274478
2779.2249 790.55768 4107.855 4142892
2791.511 787.15753 4090.187 3551012
2828.5342 790.73132 4108.7573 3155741
2871.293 795.83374 4135.2705 3418914
2889.0635 793.98254 4125.6514 3155741
2884.8816 786.18018 4085.1086 3616037
2924.1584 790.25214 4106.2671 4274223
2944.8274 789.26965 4101.1621 2892570
3012.3015 800.74524 4160.791 3353632
3006.9229 792.82568 4119.6396 3484962
3049.8618 797.67072 4144.8154 3353119
3068.6367 796.16895 4137.0122 3550753
3088.7607 795.03833 4131.1372 3155739
3155.1299 805.73517 4186.7197 3944998
3163.4482 801.55609 4165.0044 3879206
3205.125 805.8288 4187.2061 3944998
3219.468 803.21625 4173.6309 4208426
3246.99 803.90668 4177.2183 3615776
3245.21 797.3866 4143.3394 4471343
3242.2539 790.6778 4108.479 2497810
3244.9028 785.4256 4081.1877 2826519
3278.7485 787.74646 4093.2473 2694933
3327.2717 793.53357 4123.3184 3089947
3391.4067 802.93262 4172.1572 3616035
3445.219 809.76935 4207.6816 2497554
3442.6394 803.34869 4174.3188 2759700
3366.6426 780.00958 4053.0454 2759956
3415.6052 785.7478 4082.8621 2037003
3475.9526 794.0058 4125.772 2365968
3524.6213 799.49933 4154.3169 3089949
3592.8235 809.31671 4205.3301 3155742
3644.1155 815.216 4235.9834 4471602
3642.3691 809.25061 4204.9863 3747879
3673.0444 810.52069 4211.5859 2695190
3668.8464 804.13019 4178.3799 2760982
3663.6384 797.60541 4144.4761 3287070
3722.7986 805.08783 4183.356 3287070
3764.5745 808.73651 4202.3149 2497554
3773.4656 805.31921 4184.5581 2431761
3844.03 815.02264 4234.9785 2168589
3833.5659 807.53168 4196.0542 2694420
3916.3105 819.6449 4258.9966 2760470
3944.6416 820.28772 4262.3369 2694933
3997.2471 825.93817 4291.6973 2826519
4047.5974 831.05408 4318.2803 2431762
4022.2495 820.66101 4264.2764 3484707
4059.6042 823.11108 4277.0073 2760727
4045.1372 815.08868 4235.3218 2629397
0 0 0 0
0 0 0 0
0 0 0 0
0 0 0 0
0 0 0 0
0 0 0 0
0 0 0 0
0 0 0 0
0 0 0 0
0 0 0 0
0 0 0 0
0 0 0 0
-2458.7539 564.37115 2844.9504 4539188
-2472.4324 571.42926 2880.5295 4802359
-2497.1106 581.14526 2929.5073 5197120
-2424.6489 568.23206 2864.4131 2302488
-2401.6152 566.80219 2857.2051 1775633
-2375.4497 564.60767 2846.1426 657154
-2359.7495 564.8869 2847.55 131072
-2308.0137 556.48175 2805.1804 2894115
-2321.261 563.73615 2841.7495 1315083
-2300.0886 562.67651 2836.408 3946797
-2299.144 566.58618 2856.116 3947053
-2293.7949 569.46027 2870.604 7105117
-2306.8093 576.97021 2908.4614 3617831
-2282.1304 575.09467 2899.0066 5262656
-2234.7166 567.41803 2860.3093 5591877
-2235.3049 571.90552 2882.9304 5460036
-2214.4749 570.93988 2878.0627 5461063
-2183.5945 567.34796 2859.9563 7105629
-2210.7744 578.90332 2918.2058 4013359
-2158.9749 569.79657 2872.2993 4802104
-2182.3909 580.55377 2926.5254 4078638
-2162.4612 579.86017 2923.0293 3552295
-2121.377 573.43707 2890.6509 4670520
-2114.3896 576.20129 2904.585 5131069
-2076.1074 570.41254 2875.4045 2894362
-2066.8125 572.55817 2886.2205 2828313
-2011.0914 561.77112 2831.8438 4933689
-2008.1981 565.68347 2851.5654 4802103
-1997.6254 567.48053 2860.6245 3486243
-2013.5773 576.90802 2908.1477 6644306
-2024.5182 585.05011 2949.1914 4341552
-2014.7799 587.30609 2960.5637 4209966
-2006.276 589.96478 2973.9656 6973018
-1974.4896 585.76337 2952.7866 6710359
-1957.6478 585.96002 2953.7781 5262913
-1947.0598 588.04895 2964.3083 5262914
-1915.0376 583.64355 2942.1011 6644567
-1911.2191 587.83167 2963.2131 3552041
-1910.0085 592.9071 2988.7979 4078640
-1877.499 588.27075 2965.4263 2170388
-1880.4513 594.76288 2998.1526 5459780
-1857.8158 593.20856 2990.3174 4867898
-1865.0229 601.245 3030.8284 5196351
-1855.3282 603.93591 3044.3931 3748905
-1776.8438 584.06769 2944.239 2959646
-1753.778 582.20276 2934.8381 1315334
-1751.3981 587.23645 2960.2124 854530
-1739.4182 589.12054 2969.7102 3749163
-1760.6622 602.41077 3036.7051 2959389
-1732.9984 599.06885 3019.8586 1446150
-1719.2352 600.51245 3027.1357 3419941
-1716.9515 606.03857 3054.9924 4998711
-1701.4099 606.95282 3059.6011 5131068
-1687.5563 608.49548 3067.3774 3617574
-1665.8599 607.21289 3060.9124 4473140
-1639.8594 604.3161 3046.3096 3552295
-1618.8542 603.21613 3040.7646 4736054
-1588.7781 598.67322 3017.8645 6775893
-1578.6465 601.62793 3032.7588 3354658
-1565.4409 603.46564 3042.0225 4669748
-1571.3788 612.81183 3089.136 3353630
-1568.5231 618.90851 3119.8689 1643530
-1552.1177 619.74048 3124.0627 3288610
-1535.594 620.54474 3128.1169 5920331
-1511.652 618.33423 3116.9739 3026208
-1479.8011 612.79388 3089.0454 2499352
-1461.824 612.93188 3089.7412 2038548
-1448.2858 614.95831 3099.9561 3025698
-1436.6357 617.84875 3114.5266 2104854
-1401.3521 610.51813 3077.5735 4012592
-1393.4575 615.08398 3100.5896 4144432
-1355.8713 606.49054 3057.271 6644308
-1347.6313 610.96893 3079.8459 921096
-1331.7323 612.05023 3085.2969 4473393
-1333.4281 621.36066 3132.2297 6118475
-1317.3954 622.55597 3138.2554 4604978
-1288.2983 617.52344 3112.8867 5262908
-1258.4398 611.97437 3084.9143 5328701
-1247.0837 615.39203 3102.1426 5591874
-1243.5946 622.85211 3139.748 4868155
-1219.9733 620.30243 3126.8955 2565401
-1203.6521 621.44312 3132.6458 3485734
-1184.6122 621.19397 3131.3896 2828058
-1181.1484 629.23474 3171.9226 3156510
-1165.6674 631.03009 3180.9727 5327934
-1143.0026 628.93158 3170.3945 5656899
-1117.7659 625.32416 3152.2097 1381129
-1088.5504 619.33038 3121.9956 4209968
-1081.231 625.80255 3154.6211 4802105
-1076.6306 634.10382 3196.4673 3486503
-1042.1616 624.79572 3149.5457 3618089
-1026.4939 626.62531 3158.7688 1446667
-1014.7901 630.98761 3180.7588 2170643
-995.34735 630.612 3178.8652 3354660
-967.79749 624.98639 3150.5071 5065022
-938.06586 617.70288 3113.7915 4472884
-912.90204 613.19531 3091.0688 3683369
-903.11853 619.04541 3120.5591 3420196
-895.62091 626.73987 3159.3462 4603956
-867.69037 620.15906 3126.1726 3748647
-855.67657 624.91522 3150.1484 3287839
-832.55029 621.58698 3133.3708 4275248
-822.71973 628.26001 3167.009 3683368
-805.81219 629.71429 3174.3398 4538676
-777.32892 621.97565 3135.3301 4341811
0 0 0 0
0 0 0 0
0 0 0 0
0 0 0 0
-482.17517 438.17935 2208.8274 3289387
0 0 0 0
-655.05438 629.46118 3173.0642 3552039
-650.94135 643.99561 3246.3311 3749163
-624.62146 636.77643 3209.9397 4933435
-607.93121 639.22906 3222.3032 6249038
-592.01233 642.67822 3239.6899 1512203
-563.96765 632.75366 3189.6614 4143662
-551.25879 639.94391 3225.9065 4341298
-529.60822 636.89752 3210.55 6052171
-509.30859 635.30933 3202.5439 2894109
-500.73145 648.78674 3270.4827 3157025
-483.57358 651.78394 3285.5913 4603957
-461.42819 648.0282 3266.6589 2235667
-448.33771 657.21704 3312.9792 4867128
-428.12769 656.33319 3308.5237 4340783
-409.06271 657.20392 3312.9131 4274989
-388.00647 654.80219 3300.8059 4143403
-371.00647 659.35413 3323.752 5919816
-349.59396 656.13483 3307.5237 4209199
-335.34702 666.78064 3361.1885 5656644
-311.76605 659.03986 3322.1677 2433048
-300.34668 677.69684 3416.2161 4143663
-273.6713 662.13922 3337.7915 4538163
-256.10437 667.91199 3366.8916 3287071
-235.4187 665.8396 3356.4448 2366738
-212.78798 657.37561 3313.7786 2958876
-193.20735 657.57153 3314.7659 5985354
-174.60342 661.51196 3334.6296 2696218
-154.17241 658.65265 3320.2158 3419170
-134.12502 656.83539 3311.0552 3946025
-113.94365 653.62671 3294.8806 4472370
-94.380257 653.36902 3293.5815 5196093
-75.713203 660.79987 3331.0398 3813927
-56.08408 662.1142 3337.6653 3156253
-36.57391 667.03015 3362.4463 3616804
-16.687418 668.63617 3370.542 4472114
3.3232195 675.97662 3407.5447 5722695
23.45846 674.29236 3399.0544 6051405
43.892441 678.78418 3421.6975 4999229
64.685844 684.2392 3449.1956 5459525
84.524307 679.39874 3424.7952 3288104
105.4361 683.38953 3444.9126 3354662
125.57224 681.87372 3437.2715 5591367
146.93205 686.49835 3460.584 4604471
167.46985 686.61993 3461.1965 4012335
187.21083 683.80438 3447.0039 3880494
207.08191 681.97144 3437.7642 2958878
228.68513 685.66016 3456.3586 2695704
249.82367 687.46368 3465.4502 3682342
269.8793 686.23981 3459.2805 4208685
292.42023 691.06195 3483.5886 3222046
306.32104 676.1759 3408.5493 3484705
327.29242 677.77374 3416.6038 2958361
349.634 681.8576 3437.1902 3550754
371.29016 684.2287 3449.1426 1642504
398.36978 695.82532 3507.6003 2103566
415.59219 689.90826 3477.7729 2169358
436.98328 691.14362 3484.0002 1774858
456.61362 689.60834 3476.261 3353376
474.66992 685.93091 3457.7234 3419680
494.74857 685.35938 3454.8425 2761237
517.4339 688.30084 3469.6699 3616289
536.19379 685.99518 3458.0476 4340527
560.65289 690.88245 3482.6836 4143404
579.11932 688.30011 3469.6665 4801335
608.44989 698.3645 3520.4001 4604470
636.16406 705.96777 3558.7278 4537907
671.67096 721.45349 3636.79 3682600
687.74438 715.7514 3608.0461 3748392
713.93103 720.60083 3632.4919 3024668
752.07867 736.88586 3714.5833 5327424
753.90991 717.67371 3617.7363 4538164
780.54504 722.48297 3641.9792 4867128
797.45392 718.27277 3620.7561 4867128
827.89172 726.14954 3660.4622 6182987
843.58624 721.02289 3634.6191 6906708
865.75903 721.5506 3637.2793 5656642
897.83868 730.10889 3680.4211 3025178
912.75232 724.63306 3652.8179 2827288
930.7088 721.77075 3638.3894 4274220
947.28064 717.98859 3619.3237 4340012
969.93005 718.87836 3623.8091 4735027
995.45013 721.8111 3638.5928 4010534
1013.5168 719.32971 3626.084 4010791
1030.2567 716.02905 3609.4458 2694932
1049.6311 714.65643 3602.5266 3550495
1077.3627 718.91534 3623.9951 2234634
1105.1027 723.01312 3644.6519 1905669
1119.213 718.20758 3620.4277 1971207
1155.4301 727.50214 3667.2805 2628881
1174.5945 725.91461 3659.2783 3616034
1187.1185 720.35522 3631.2537 3747105
1211.9368 722.32129 3641.1646 3286811
1240.0118 726.12555 3660.3416 2892566
1262.363 726.50507 3662.2544 2300175
1279.7087 724.03955 3649.8262 4931895
1316.1355 732.2724 3691.3271 2695446
1330.1483 727.96918 3669.635 2827029
1384.7003 745.63409 3758.6824 4603181
1385.7186 734.36908 3701.8965 4537389
1418.3002 739.92163 3729.8865 4735284
1430.5111 734.83966 3704.2686 4274990
1461.6234 739.47388 3727.6294 3879722
1448.5685 721.95752 3639.3308 4866617
1486.2876 729.88934 3679.3145 5063997
1487.7032 720.02155 3629.5718 5985099
1527.014 728.51422 3672.3826 3550757
1583.9692 745.06775 3755.8276 3222048
1588.9517 737.05432 3715.4326 2234898
1604.6952 734.18347 3700.9607 1248262
1638.2181 739.41479 3727.3313 1708296
1670.4923 743.95074 3750.1968 2234639
1678.9523 737.90125 3719.7017 4406320
1701.4193 738.08484 3720.6274 3221788
1738.8975 744.69232 3753.9351 2827031
1772.8524 749.64313 3778.8918 2695446
1800.4264 751.80597 3789.7944 3090202
1805.1327 744.48425 3752.8862 3155995
1849.6084 753.54303 3798.5508 3879719
1870.0138 752.6955 3794.2786 2629653
1882.5237 748.72784 3774.2781 4011305
1895.293 744.95532 3755.261 3879206
1942.2655 754.55823 3803.6682 2563602
1956.0717 751.20355 3786.7576 3286812
1986.1881 754.11774 3801.448 4076586
2008.3079 753.96442 3800.675 4537393
2033.1637 754.83026 3805.0396 3616549
2078.7349 763.28351 3847.6519 3616548
2121.2092 770.42859 3883.6697 3682341
2152.3245 773.33887 3898.3401 3155997
2209.0757 785.3006 3958.6382 2761754
2209.3887 777.15869 3917.5957 4208685
2189.637 762.20172 3842.1985 3155485
2222.4395 765.65802 3859.6216 3221279
2219.3062 756.78986 3814.9177 4010795
2230.7266 753.01331 3795.8806 2563605
2271.2747 759.04651 3826.2935 3352864
2302.6357 761.92053 3840.781 2300433
2346.5076 768.83734 3875.6484 2760984
2349.9036 762.48676 3843.6355 2761241
2399.8203 771.20801 3887.5986 4603701
2440.637 776.86694 3916.1245 4340528
2470.2483 778.88593 3926.3022 4143151
2453.9849 766.53772 3864.0559 4077356
2513.7212 777.93799 3921.5237 3155998
2550.4851 782.08496 3942.4285 3945258
2580.0928 783.98224 3951.9927 3879720
2592.6665 780.71606 3935.5281 3353376
2649.0337 790.57788 3985.2405 3682341
2665.7234 788.52869 3974.9106 2629653
2693.3608 789.72534 3980.9429 2563603
2712.2676 788.36353 3974.0781 2563860
2720.5803 783.97235 3951.9426 3419169
2749.1543 785.44482 3959.3652 4932408
2778.0559 786.98517 3967.1301 3682341
2792.624 784.47333 3954.468 3616292
2811.1147 783.09601 3947.5249 3616291
2861.5413 790.56433 3985.1724 2563347
2934.05 803.96118 4052.7048 3287067
2951.0813 802.0625 4043.1338 3287068
2969.4263 800.54865 4035.5022 3287068
2997.7041 801.71533 4041.3838 2694931
3033.4133 804.83533 4057.1113 3221274
3097.6953 815.42767 4110.5063 2826517
3122.4402 815.52826 4111.0132 3221274
3107.1614 805.2547 4059.2253 3352861
3122.9307 803.12366 4048.4829 3484447
3077.2114 785.3327 3958.7998 2694931
3157.6206 799.75635 4031.5088 3155227
3162.0659 794.86804 4006.8672 4273965
3190.6458 796.07434 4012.9475 3352863
3197.4187 791.862 3991.7139 3089691
3190.1643 784.26312 3953.4084 3221020
3291.5576 803.29004 4049.3218 3747621
3286.6746 796.29297 4014.0496 3089434
3281.344 789.28876 3978.7422 2431761
3341.3567 797.99005 4022.6047 2760213
3328.9939 789.40552 3979.3306 2233869
3396.3762 799.71869 4031.3186 2562834
3444.4585 805.37524 4059.8328 2826519
3500.1433 812.71844 4096.8496 2497811
3518.3118 811.30945 4089.7466 2958105
3583.6362 820.7193 4137.1812 4273965
3546.9702 806.80237 4067.0266 2432017
3570.1296 806.58936 4065.9534 2826775
3608.5071 809.79437 4082.1091 3221533
3672.6013 818.68939 4126.9487 4142379
3659.9055 810.4621 4085.4753 2629140
3707.0178 815.5 4110.8711 2760726
3669.3816 801.95026 4042.5676 2365968
3676.8594 798.37195 4024.53 3155483
3836.8889 827.75067 4172.6255 3352864
3877.6021 831.17706 4189.8979 3155485
3892.6428 829.09216 4179.3877 2300177
3884.9275 822.21716 4144.7319 2168590
3927.8616 826.08099 4164.209 2694934
3964.041 828.4848 4176.3262 1313286
3955.7307 821.6181 4141.7119 2563347
0 0 0 0
0 0 0 0
0 0 0 0
0 0 0 0
0 0 0 0
0 0 0 0
0 0 0 0
0 0 0 0
0 0 0 0
0 0 0 0
0 0 0 0
0 0 0 0
0 0 0 0
-2415.896 575.04285 2814.6614 4935484
-2405.155 576.46637 2821.6292 5987918
-2406.9561 580.93689 2843.5112 3685419
-2391.7319 581.33234 2845.4468 4013875
-2329.9016 570.32501 2791.5691 3947569
-2294.3064 565.62805 2768.5789 3684142
-2268.3628 563.26001 2756.9883 5658189
-2297.7273 574.69098 2812.9392 3618605
-2301.137 579.74988 2837.7009 4079154
-2289.1047 580.96411 2843.6445 5921358
-2243.7422 573.67468 2807.9646 7368804
-2260.0046 582.15015 2849.4495 6776667
-2225.6172 577.60815 2827.2178 5066050
-2217.6357 579.90228 2838.447 5197378
-2208.5747 581.94708 2848.4556 5855563
-2134.2153 566.68506 2773.7527 5987406
-2159.5957 577.87494 2828.5239 7302750
-2151.0808 580.09912 2839.4106 6578770
-2133.6433 579.93323 2838.5984 6184267
-2126.2302 582.51099 2851.2158 4012843
-2109.092 582.44427 2850.8894 4407601
-2105.4453 586.13251 2868.9421 4867896
-2038.6309 572.15234 2800.5134 5526083
-2045.0508 578.66504 2832.3911 7565411
-2019.5176 576.16925 2820.175 3486242
-1987.349 571.72296 2798.4116 4473137
-1993.5515 578.33337 2830.7676 6183756
-1989.9789 582.19617 2849.6748 5131068
-1976.4056 583.17419 2854.4619 5393983
-1996.1299 594.07892 2907.8372 5460034
-1984.338 595.71222 2915.8318 4801593
-1974.8223 598.06348 2927.3406 4933435
-1938.3369 592.21655 2898.7214 6183755
-1929.5906 594.8158 2911.4441 6578257
-1902.866 591.87 2897.0254 6710871
-1872.156 587.61963 2876.2212 7434338
-1873.7341 593.51874 2905.0955 4605241
-1878.1418 600.4317 2938.9324 5263427
-1857.1664 599.28339 2933.3115 5066304
-1802.2655 587.06262 2873.4946 4869182
-1815.5042 597.01587 2922.2129 5460806
-1821.0931 604.62109 2959.4382 5526341
-1785.9579 598.72198 2930.5637 3354917
-1752.4196 593.24756 2903.7681 5065534
-1713.5786 585.85162 2867.5671 1249803
-1725.8268 595.94922 2916.9919 2696987
-1711.73 597.06189 2922.438 3618602
-1712.9399 603.59094 2954.3958 3223073
-1708.3979 608.20715 2976.9907 3946797
-1704.1052 613.00928 3000.4958 2630680
-1682.5568 611.63995 2993.7935 1907215
-1676.4706 615.92218 3014.7534 3749161
-1663.9901 617.92206 3024.5425 5788744
-1638.8871 615.22711 3011.3516 3617575
-1598.0782 606.51221 2968.6943 3748904
-1587.4507 609.18518 2981.7778 3551780
-1574.3087 610.94263 2990.3801 4867640
-1549.0275 607.97552 2975.8572 6183502
-1549.0255 614.97626 3010.1235 5065278
-1538.4988 617.91296 3024.4978 5788745
-1528.2816 621.04468 3039.8267 5262655
-1498.0031 616.00159 3015.1421 3420965
-1486.9287 618.8291 3028.9822 4933949
-1487.229 626.51752 3066.6145 4407605
-1459.0758 622.26135 3045.782 4144432
-1445.3734 624.13867 3054.9709 4933950
-1443.7053 631.32623 3090.1519 2302230
-1414.7549 626.61475 3067.0903 4538936
-1381.2412 619.73322 3033.4072 3355173
-1328.2595 603.82001 2955.5171 4999742
-1358.1025 625.63641 3062.302 3486504
-1334.3647 623.02643 3049.5266 6315600
-1319.3151 624.45703 3056.5291 5854792
-1295.3793 621.6629 3042.8528 4407601
-1277.2267 621.60455 3042.5671 5328702
-1242.715 613.46875 3002.7449 5131836
-1240.1241 621.08331 3040.0156 4670774
-1224.4938 622.29559 3045.9495 4999740
-1223.9941 631.34875 3090.262 5263169
-1205.4893 631.2486 3089.7715 2762780
-1188.6598 632.03619 3093.6267 2433302
-1173.3879 633.68964 3101.7197 3222818
-1157.2413 634.91571 3107.7212 4472885
-1150.0887 641.19586 3138.4604 2499349
-1117.588 633.31812 3099.9014 3946539
-1106.1669 637.32208 3119.4995 7237217
-1082.7733 634.44702 3105.427 4408630
-1052.0917 627.12823 3069.6038 4539189
-1046.5675 634.81158 3107.2114 4078640
-1019.8564 629.68866 3082.1365 2894365
-1013.9548 637.46167 3120.1829 2762780
-998.47321 639.38867 3129.615 1710351
-982.6228 641.14807 3138.2266 2696987
-951.78778 633.0094 3098.3904 4078383
-951.88837 645.52972 3159.6736 4999485
-932.67615 645.19263 3158.0234 1906959
-905.61279 639.29938 3129.1777 3288609
-887.40137 639.53912 3130.3513 3946281
-869.18787 639.78766 3131.5679 3288095
-844.60223 635.25433 3109.3787 3025438
-811.48303 623.95721 3054.0828 4604210
-810.94336 637.76691 3121.6768 3288607
-792.87732 638.11591 3123.3853 3222557
0 0 0 0
0 0 0 0
0 0 0 0
0 0 0 0
0 0 0 0
-481.99445 451.10019 2207.9995 2959650
0 0 0 0
-627.96063 621.45251 3041.8228 4867642
-635.91473 647.92377 3171.3916 5130814
-614.06561 644.71649 3155.6929 4867898
-598.36066 647.96124 3171.575 7038809
-579.83124 648.25867 3173.0308 5328193
-561.22742 648.49005 3174.1633 3683368
-530.78839 634.58777 3106.116 4209712
-526.50299 652.07806 3191.7256 3880746
-506.20621 650.3028 3183.0361 4867642
-487.53494 650.55908 3184.2908 3222817
-474.03159 658.0097 3220.7593 5130815
-453.98428 656.62061 3213.96 4669751
-437.68692 660.77106 3234.2754 6248526
-414.45166 654.34808 3202.8367 4406321
-395.61496 654.5863 3204.0029 5393472
-378.04263 657.04614 3216.0427 3617061
-358.30606 655.80585 3209.9722 5261885
-346.65109 670.04761 3279.6812 4340784
-330.3042 676.37341 3310.644 2301462
-310.85468 676.74365 3312.4563 2695961
-293.67578 682.44025 3340.3396 3879721
-271.56128 676.66211 3312.0571 2037775
-251.78302 676.25836 3310.0808 4142892
-231.03404 672.95892 3293.9312 3551268
-211.24971 672.11963 3289.823 3682599
-192.43738 674.51666 3301.5557 3354409
-172.17834 671.81146 3288.3147 2893858
-152.41814 670.61047 3282.4363 1446927
-133.03584 670.96423 3284.1677 3946798
-112.56026 664.98016 3254.8774 5459779
-92.40815 658.82727 3224.761 4274991
-74.402321 668.75763 3273.3669 3946025
-55.094997 669.86823 3278.8032 5261886
-35.693798 670.42584 3281.5325 2827032
-16.209272 668.87994 3273.9658 2827289
3.2245913 675.50916 3306.4138 3550755
23.008869 681.12665 3333.9099 4340014
42.777077 681.29785 3334.7478 4867127
62.731312 683.38739 3344.9753 5393472
83.714783 692.99353 3391.9944 4472372
102.85165 686.55322 3360.4712 2630682
124.21169 694.63513 3400.0295 4012335
143.57536 690.8548 3381.5261 3157027
164.7415 695.61133 3404.8079 3025442
185.57545 698.08032 3416.8928 2959906
206.32481 699.77649 3425.1953 2762529
225.65767 696.79498 3410.6016 2696733
244.25812 692.22797 3388.2473 2038548
261.45169 684.67059 3351.2563 2498583
282.75851 688.19128 3368.489 3353377
303.94382 690.97144 3382.0972 2827033
324.67593 692.44104 3389.2903 3090203
345.76117 694.44867 3399.1169 3550754
370.48041 703.13226 3441.6204 3287583
391.43314 704.13409 3446.5242 3222303
410.3327 701.52643 3433.7605 2827545
429.36026 699.37366 3423.2231 3683110
447.47476 695.99493 3406.6855 2367254
469.46548 698.6767 3419.812 3090717
480.70352 685.7962 3356.7659 4208429
497.92285 682.13348 3338.8379 4274477
519.85638 684.96222 3352.6838 3024411
540.71619 686.21997 3358.8401 4209968
565.69629 692.43182 3389.2451 4802106
594.74048 703.02167 3441.0793 3814437
615.58899 703.54279 3443.6299 3945766
639.99127 707.96161 3465.2588 3616802
672.09344 720.35852 3525.938 3616805
694.90057 722.34576 3535.6648 4208685
705.51929 711.9176 3484.6223 4734774
733.64429 719.24536 3520.4893 3616805
761.37537 725.79224 3552.5342 4866872
789.67328 732.51263 3585.4287 4472115
799.65009 722.3313 3535.594 4472370
837.22485 736.96283 3607.2109 4670006
854.91949 733.802 3591.7397 6183246
875.60077 733.29608 3589.2634 5196093
896.49133 732.98523 3587.7417 3748389
907.56104 724.84515 3547.8987 3353118
912.05914 711.94391 3484.751 3484961
943.1156 719.88623 3523.6262 3616289
955.71863 713.70386 3493.3655 3287068
973.94043 711.89069 3484.4905 3616033
986.1142 705.82379 3454.7949 4273961
1018.3787 714.09149 3495.2627 3681825
1061.3904 729.41522 3570.2678 3154709
1085.9608 731.71436 3581.5215 2958100
1095.7155 724.13397 3544.4177 2562829
1124.7866 729.36444 3570.0193 2234634
1148.5162 731.00208 3578.0352 1971207
1178.4886 736.48175 3604.8562 2300172
1194.7443 733.34662 3589.5107 1971208
1214.8933 732.66925 3586.1953 2628881
1229.9124 728.97467 3568.1116 2760725
1274.3843 742.56671 3634.6404 4602929
1277.0045 731.72583 3581.5776 3221530
1318.8632 743.35553 3638.5015 3682080
1334.8754 740.27753 3623.4355 3879715
1362.4182 743.59027 3639.6504 3681823
1370.8326 736.5224 3605.0552 3089944
1382.5864 731.43805 3580.1689 2958615
1412.0778 735.74939 3601.2715 2366222
1435.298 736.7135 3605.9907 3155740
1474.3447 745.65363 3649.7498 2694677
1486.062 740.71313 3625.5676 1905676
1500.1027 737.05499 3607.6621 2892569
1542.3041 747.14166 3657.0332 4537393
1545.1938 738.16882 3613.114 4734771
1588.7565 748.60602 3664.2009 3748390
1619.3218 752.72003 3684.3376 2563860
1635.4337 750.09546 3671.4915 1840136
1653.5507 748.44739 3663.4246 2432531
1674.9489 748.30792 3662.7419 985859
1690.0944 745.41437 3648.5789 1248004
1733.3081 754.81708 3694.6021 3682341
1767.8094 760.23834 3721.1377 4142890
1794.3907 762.16199 3730.5535 2827029
1785.3732 749.10242 3666.6306 2827030
1799.481 745.94312 3651.1667 2695446
1846.0422 756.15198 3701.1362 2432018
1873.184 758.26019 3711.4551 2695190
1883.1157 753.43372 3687.8311 2695191
1902.8563 752.59753 3683.7383 2168590
1928.8997 754.24481 3691.801 2826263
1950.7042 754.21625 3691.6614 2826777
1989.6763 760.75232 3723.6533 3813671
2003.0557 757.46698 3707.5728 1905675
2060.261 770.64618 3772.0808 3024155
2086.3945 772.04468 3778.926 3353121
2137.1235 782.41803 3829.7004 3616293
2147.8457 778.08051 3808.4697 3353121
2172.6716 778.88934 3812.4287 3813416
2178.8181 773.05396 3783.8662 3089949
2202.7727 773.59155 3786.4976 2169106
2254.8157 783.88312 3836.8716 4208430
2236.8799 769.88403 3768.3503 3089949
2262.4041 770.9718 3773.6748 2432019
2311.8333 780.10486 3818.3784 2760984
2336.7485 780.86896 3822.1184 3089949
2361.1411 781.44556 3824.9404 3287328
2391.7195 784.03882 3837.6338 3813672
2427.6941 788.33563 3858.6653 3418914
2422.0781 779.17267 3813.8154 2497554
2454.7998 782.39813 3829.6033 2299918
2473.1816 781.03613 3822.9363 3089691
2470.4646 773.09607 3784.0723 3090203
2534.6863 786.05804 3847.5173 3682341
2589.6182 795.93359 3895.855 3419425
2572.2378 783.60541 3835.5125 3945513
2620.6365 791.35663 3873.4521 3748134
2652.3545 793.9798 3886.292 2695446
2696.3838 800.21149 3916.7942 3813927
2715.459 798.99438 3910.8369 3945513
2677.7383 781.22766 3823.8743 3418911
2736.4312 791.65173 3874.8967 3155482
2780.5535 797.72198 3904.6091 2300174
2810.958 799.78906 3914.7266 2629138
2820.3337 795.88812 3895.6326 2497551
2900.3069 811.81104 3973.5703 2958102
2884.7014 800.93994 3920.3596 3155482
2950.1211 812.55957 3977.2341 3747875
2956.4463 807.84747 3954.1699 2760723
2988.0247 810.05554 3964.978 4273963
3028.3674 814.58673 3987.1567 2892310
3016.9175 805.22412 3941.3296 3221275
3005.9758 796.14001 3896.8655 2102794
3061.1584 804.5741 3938.1477 2759953
3074.1018 801.86255 3924.876 2958103
3106.0803 804.11981 3935.9241 2826776
3108.4265 798.72919 3909.5388 3418656
3134.5894 799.49286 3913.2764 4405551
3159.6094 799.95599 3915.5435 2826519
3177.7356 798.67957 3909.2959 3352863
3209.4348 800.80847 3919.7163 3221277
3249.0354 804.86414 3939.5671 3023898
3275.8435 805.71533 3943.7341 3089434
3254.2083 794.72418 3889.9353 1707782
3308.6562 802.33752 3927.2002 2299918
3364.636 810.2132 3965.7495 2497297
3410.9258 815.66248 3992.4221 3221277
3399.8115 807.40411 3952.0002 2892312
3440.1201 811.38739 3971.4971 3549985
3474.4578 813.91779 3983.8823 3418655
3509.5491 816.58942 3996.959 3155484
3538.3887 817.78027 4002.7881 2234382
3589.115 823.97992 4033.1338 2892312
3597.9221 820.53772 4016.2849 3747621
3626.4902 821.61761 4021.5706 3352863
3640.6943 819.45038 4010.9626 3352863
3633.7522 812.58252 3977.3467 2365968
3750.7437 833.33875 4078.9421 2168589
3748.6655 827.5437 4050.5771 2563347
3797.5408 832.99921 4077.28 2826262
3733.8381 813.84753 3983.5383 2958105
3828.8516 829.31384 4059.2412 2760726
3896.5911 838.71643 4105.2642 2497556
3919.1169 838.33081 4103.377 2694933
0 0 0 0
0 0 0 0
0 0 0 0
0 0 0 0
0 0 0 0
0 0 0 0
0 0 0 0
0 0 0 0
0 0 0 0
0 0 0 0
0 0 0 0
0 0 0 0
-2363.0024 574.79926 2734.1594 5987145
-2375.5686 581.84564 2767.6772 5527108
-2345.4333 578.45862 2751.5659 5526853
-2336.8567 580.37842 2760.6978 4671544
-2302.8228 575.95813 2739.6716 7040094
-2272.5205 572.41492 2722.8179 5921358
-2238.5134 567.88129 2701.2524 5329221
-2253.4966 575.80005 2738.9199 5789516
-2269.823 584.17932 2778.7778 6316116
-2187.6257 567.1391 2697.7219 5395013
-2142.4766 559.52325 2661.4956 6908252
-2192.4573 576.82251 2743.7834 5921613
-2149.3137 569.69678 2709.8884 4539961
-2163.8237 577.86053 2748.7212 5460552
-2158.2583 580.74622 2762.4473 4934206
-2129.1667 577.29712 2746.041 5592391
-2112.5088 577.19214 2745.5417 6644310
-2111.9158 581.50891 2766.0752 5723207
-2093.1169 580.84113 2762.8989 5197120
-2086.9873 583.70618 2776.5271 7434081
-2082.9175 587.19757 2793.1345 6907737
-2029.308 576.66711 2743.0442 7302751
-2011.9194 576.34259 2741.5007 5329215
-1997.4403 576.85309 2743.929 5394752
-1995.824 581.11713 2764.2119 6842453
-1979.1869 581.04211 2763.8547 4539441
-1960.4447 580.34259 2760.5273 4670513
-1944.6313 580.50562 2761.303 5460031
-1933.6228 582.11792 2768.9722 5131067
-1941.6316 589.53192 2804.2385 6841942
-1948.4258 596.70209 2838.345 6446931
-1936.9069 598.33984 2846.1353 4670520
-1918.4154 597.83356 2843.7271 3420710
-1892.246 594.90442 2829.7939 6315602
-1880.5321 596.50824 2837.4229 5394500
-1879.7911 601.65295 2861.895 5394500
-1849.3005 597.28296 2841.1082 4341811
-1811.0455 590.30188 2807.9009 5591879
-1804.6321 593.66614 2823.9038 5657415
-1777.4146 590.18549 2807.3472 6776152
-1776.5942 595.487 2832.5649 6052428
-1757.9011 594.8418 2829.4961 6250577
-1740.8553 594.74689 2829.0447 6381909
-1735.1403 598.5589 2847.1772 7434853
-1718.6941 598.70758 2847.8845 6184786
-1706.2665 600.27295 2855.3306 2960931
-1681.314 597.41925 2841.7563 6907740
-1678.3536 602.40125 2865.4543 5328707
-1684.8639 610.91913 2905.9717 5394500
-1692.0183 619.84894 2948.448 3157795
-1675.0282 620.02777 2949.2986 3156770
-1657.3096 619.93774 2948.8706 1446664
-1637.4972 619.05438 2944.6685 3683113
-1625.8757 621.28186 2955.2639 2828060
-1606.1968 620.44537 2951.2852 2959646
-1583.401 618.37329 2941.4287 3814955
-1565.4885 618.18335 2940.5254 3748904
-1546.2223 617.44861 2937.0303 5656645
-1538.322 621.28754 2955.291 4867640
-1518.6199 620.39343 2951.0381 5065275
-1500.8479 620.27625 2950.4807 5788998
-1478.8068 618.37122 2941.4189 3618086
-1470.1234 622.07288 2959.0269 4210221
-1443.9507 618.37415 2941.4329 6052682
-1448.1256 627.74017 2985.9846 4079151
-1404.3492 616.29474 2931.5417 5789256
-1391.6283 618.36182 2941.3743 5723462
-1394.1577 627.34369 2984.0986 4802359
-1399.2983 637.74652 3033.5818 6775892
-1360.9137 628.32465 2988.7649 4670517
-1337.5912 625.70026 2976.281 6183501
-1327.7949 629.41748 2993.9631 3617576
-1301.8481 625.47595 2975.2141 4999483
-1308.2585 637.18561 3030.9138 5855820
-1262.6423 623.52911 2965.9536 5592904
-1243.6338 622.81213 2962.5432 4999995
-1238.8267 629.28845 2993.3494 5657669
-1221.1594 629.32562 2993.5261 5065531
-1215.1295 635.44952 3022.6558 4341552
-1192.6238 633.01178 3011.0601 6775123
-1193.5138 643.10638 3059.0774 4406573
-1162.7725 636.20551 3026.2517 4012331
-1144.3732 635.94702 3025.0222 4604982
-1121.7372 633.28845 3012.3762 4670776
-1120.7843 642.98334 3058.4919 4473141
-1097.5867 640.02563 3044.4229 5065792
-1078.2905 639.28198 3040.8855 4933949
-1063.375 641.1543 3049.7917 3354662
-1035.3981 635.08008 3020.8982 2236436
-1028.1204 641.71155 3052.4424 3354917
-963.23779 611.98212 2911.0278 4539190
-998.60913 646.02502 3072.9604 3749673
-991.4726 653.32245 3107.6724 2762779
-961.39612 645.49396 3070.4343 3091744
-940.53662 643.6712 3061.7639 4012333
-923.10309 644.16748 3064.1245 4867642
-910.67822 648.2489 3083.5388 4736056
-892.90997 648.61609 3085.2854 4275248
-874.44739 648.4837 3084.6558 4472367
-839.36383 635.75653 3024.116 3682852
-819.60138 634.33179 3017.3389 2761750
-792.13275 626.74615 2981.2563 3814437
-785.52917 635.69983 3023.8464 4209196
-760.62805 629.9184 2996.3457 3749415
0 0 0 0
0 0 0 0
0 0 0 0
0 0 0 0
-494.50415 463.64575 2205.4333 131072
-483.8425 465.96506 2216.4653 2235928
0 0 0 0
0 0 0 0
-612.84229 642.52795 3056.3259 5065276
-600.0567 648.28302 3083.7009 4933688
-584.50201 651.3139 3098.1182 5525311
-567.22107 652.55542 3104.0237 4999482
-539.96747 642.02258 3053.9221 4012333
-526.46143 647.672 3080.7947 6052172
-517.36932 659.35272 3136.3564 4538932
-490.51614 648.42505 3084.3767 5986379
-481.21527 660.75238 3143.0144 6315088
-460.12897 657.2384 3126.2993 4933179
-443.37854 659.88263 3138.8772 4998715
-429.21512 666.77734 3171.6736 5393472
-412.76724 670.59216 3189.8196 5919816
-388.99225 662.2981 3150.3667 4143404
-373.51685 668.01099 3177.5415 4998711
-355.35767 669.27588 3183.5581 5064503
-336.83475 669.95911 3186.8081 5261883
-318.92615 672.01794 3196.6016 4406576
-305.30405 683.93945 3253.3088 4669750
-284.04028 679.1955 3230.7432 4208943
-261.37805 670.17999 3187.8589 4144176
-243.91714 674.13501 3206.6716 4669492
-225.53374 675.99335 3215.5112 2761751
-204.03862 668.00726 3177.5237 4406066
-186.01762 670.92761 3191.415 3881004
-171.32898 687.88849 3272.0933 3157027
-149.98814 679.06134 3230.105 3880748
-131.51768 682.54797 3246.6897 3748648
-110.18594 669.83545 3186.22 3683113
-91.01709 667.73267 3176.2175 4800820
-73.72007 681.84601 3243.3508 4274219
-54.388538 680.46051 3236.7605 5392701
-35.173847 679.82349 3233.7305 1906444
-15.891501 674.78888 3209.782 3551782
3.1231816 673.24341 3202.4307 3617575
22.364269 681.24866 3240.5095 3880748
41.554367 681.02167 3239.4297 5262400
61.022194 684.05145 3253.8416 4604470
81.341919 692.88275 3295.8496 5262655
100.87546 692.89398 3295.9031 4275505
121.53364 699.37341 3326.7236 3880747
143.20134 709.04254 3372.717 3552040
164.09081 712.96173 3391.3596 3289124
180.58466 699.01105 3325.0002 3486249
203.47334 710.12329 3377.8582 6051662
226.65131 720.16418 3425.6196 2170130
242.87784 708.28229 3369.1008 1775117
258.90659 697.67255 3318.6333 4406322
281.26031 704.40149 3350.6411 1840394
301.74286 705.86572 3357.606 2893082
321.39603 705.32867 3355.0513 2827033
337.35825 697.22607 3316.5095 3024667
366.30881 715.38104 3402.8677 3880232
381.50003 706.1723 3359.0642 3419682
402.39377 707.90906 3367.3254 3880234
420.54123 704.87854 3352.9104 2629910
437.11185 699.59778 3327.7913 4406321
464.01962 710.60339 3380.1416 2827803
477.69135 701.26715 3335.7317 4077869
496.61023 700.06976 3330.0361 1972235
518.61749 703.15125 3344.6938 5129784
534.21735 697.63824 3318.4702 4143401
550.56708 693.46143 3298.6021 5130042
576.67572 701.44116 3336.5596 3353629
597.38318 702.53992 3341.7859 2826515
628.07593 714.93433 3400.7427 4471342
