# .PCD v0.7 - Point Cloud Data file format
VERSION 0.7
FIELDS x y z rgb
SIZE 4 4 4 4
TYPE F F F U
COUNT 1 1 1 1
WIDTH 1290
HEIGHT 1
VIEWPOINT 0 0 0 1 0 0 0
POINTS 1290
DATA ascii
-2332.5437 726.27972 2755.6023 6250576
-2319.7898 727.40131 2759.8574 4145204
-2313.7476 730.65808 2772.2141 8553332
-2285.9741 727.04987 2758.5242 6052942
-2287.6853 732.83484 2780.4731 5921355
-2241.8254 723.35425 2744.5024 6118477
-2238.2673 727.48413 2760.1719 5065788
-2238.4163 732.88849 2780.6768 5723461
-2187.2781 721.45636 2737.3018 6184012
-2184.4519 725.9079 2754.1914 4275759
-2173.5667 727.72815 2761.0977 4407345
-2169.3225 731.81628 2776.6086 5723205
-2169.0637 737.32178 2797.4971 5920584
-2106.7576 721.65802 2738.0669 6249550
-2147.344 741.27008 2812.4775 6710358
-2083.5344 724.86908 2750.25 5789256
-2053.7395 720.1366 2732.2944 4933948
-2048.3804 723.96539 2746.8213 5131071
-2029.2496 722.9491 2742.9653 7302497
-2026.6431 727.85095 2761.5637 5197121
-2006.464 726.47021 2756.325 5789256
-2007.4174 732.78101 2780.2688 4473395
-1989.4781 732.24255 2778.2261 5197376
-1952.0524 724.46326 2748.7102 7368290
-1941.4644 726.59698 2756.8059 5789258
-1906.6204 719.61206 2730.3042 5394499
-1887.0115 718.30701 2725.3525 5723459
-1863.4739 715.47101 2714.5923 5065274
-1865.1238 722.34027 2740.6555 5262397
-1838.0397 718.10431 2724.5835 5394499
-1836.6459 723.91913 2746.6458 6578773
-1816.5994 722.42017 2740.9585 6249808
-1800.6534 722.53949 2741.4114 6907738
-1793.4071 726.18384 2755.2383 6117964
-1772.2124 724.19513 2747.6929 6841687
-1762.2104 726.78577 2757.522 4604983
-1784.8378 743.00818 2819.072 5263683
-1771.1664 744.28351 2823.9109 4737595
-1734.3488 735.76385 2791.5862 5920844
-1763.89 755.50281 2866.4783 5525829
-1753.5887 758.39429 2877.4492 4604984
-1695.1726 740.32959 2808.9092 7302240
-1674.5212 738.56311 2802.207 5196864
-1635.8048 728.71368 2764.8369 7105116
-1646.2944 740.80682 2810.72 4538419
-1612.4011 732.97144 2780.9915 5196606
-1616.4515 742.40088 2816.7681 5854793
-1619.3361 751.48615 2851.2388 6643539
-1602.5327 751.53015 2851.4055 4867641
-1567.2646 742.82349 2818.3713 4078380
-1546.233 740.74939 2810.502 3157278
-1529.4452 740.68536 2810.259 5130041
-1526.5621 747.42798 2835.8413 3946022
-1487.7344 736.52557 2794.4763 5525054
-1484.7216 743.30823 2820.2104 3946021
-1465.929 742.25531 2816.2156 3419679
-1451.6687 743.49951 2820.9363 3551008
-1436.5193 744.31195 2824.0188 5063991
-1430.2759 749.81244 2844.8884 1972234
-1403.0393 744.30743 2824.0017 5064247
-1394.1893 748.54126 2840.0654 1183752
-1376.7101 748.18884 2838.7283 4209965
-1364.2094 750.56683 2847.7507 3617576
-1335.7219 744.09863 2823.2095 2433302
-1304.6653 736.01685 2792.5461 5328190
-1305.0454 745.69012 2829.2478 6051914
-1293.4025 748.65594 2840.5005 5591618
-1271.5503 745.71259 2829.333 4407088
-1248.405 741.92224 2814.9519 4932917
-1237.2823 745.27087 2827.657 5261626
-1224.3947 747.63367 2836.6218 5854019
-1225.8453 758.93939 2879.5173 4867124
-1189.0889 746.57574 2832.6079 5722176
-1176.4005 749.18579 2842.5107 5261882
-1163.5007 751.73492 2852.1826 4801846
-1140.937 748.0235 2838.1008 7302493
-1126.2158 749.41949 2843.3975 4538159
-1109.4686 749.48932 2843.6624 4604465
-1089.6465 747.45209 2835.9329 4932916
-1067.8804 743.99658 2822.8223 4209191
-1051.2018 744.03192 2822.9565 4472106
-1021.6937 734.84113 2788.0852 3748384
-1014.3497 741.55133 2813.5447 5853760
-998.53119 742.18695 2815.9563 3617055
-990.15576 748.47052 2839.7969 6182983
-974.11908 749.07996 2842.1094 4538157
-962.42358 753.10791 2857.3918 3419418
-947.73694 754.89764 2864.1824 3617054
-927.86353 752.54584 2855.2593 3682847
-907.2821 749.52179 2843.7856 3682590
-885.98895 745.78424 2829.6047 3485211
0 0 0 0
0 0 0 0
0 0 0 0
-660.1864 601.23138 2281.1521 196608
-650.68573 604.96698 2295.3254 3946027
-654.2605 621.27844 2357.2134 3353117
-775.47247 752.44568 2854.8794 2760977
-758.1568 752.05182 2853.385 3418136
-739.64191 750.4234 2847.2063 4668457
-720.36945 747.93225 2837.7546 4668714
-704.86877 749.33179 2843.0647 4405799
-688.59174 749.95416 2845.4263 4406056
-673.01996 751.39545 2850.8945 3682334
-659.0307 754.72308 2863.52 3155990
-639.94409 752.23486 2854.0793 6116932
-623.21259 752.45502 2854.9148 5195829
-601.75061 746.81665 2833.522 2893077
-583.23962 744.62213 2825.1956 3484701
-568.41962 747.14935 2834.7844 3024150
-550.23413 745.27216 2827.6619 3550237
-530.49969 741.11316 2811.8821 2760978
-515.65668 743.73926 2821.8459 2432014
-498.20471 742.65247 2817.7224 3879971
-486.56335 750.45215 2847.3157 5459260
-464.2457 741.75421 2814.3145 3485471
-454.76944 753.69006 2859.6006 4406060
-439.63107 756.80286 2871.4109 4208423
-423.07181 757.62183 2874.5183 5130040
-405.6759 756.94849 2871.9634 5986119
-387.51199 754.72028 2863.5093 5854021
-369.6199 752.84167 2856.3818 4999226
-349.72659 746.51105 2832.3625 3814954
-331.80182 743.95593 2822.668 3091486
-315.02573 743.84174 2822.2346 3682849
-297.57617 742.0354 2815.3813 4341036
-282.97839 747.54797 2836.2969 3156766
-265.36621 745.29083 2827.7327 3419167
-248.89258 746.14258 2830.9644 3419167
-233.09955 749.30524 2842.9639 2892826
-218.93614 758.6073 2878.2573 2432274
-200.72855 754.28436 2861.8555 2563603
-184.87167 758.81201 2879.0339 3090717
-166.77934 754.15192 2861.353 3485219
-148.60577 748.02814 2838.1184 2104596
-134.23686 761.93665 2890.8894 3748902
-117.27252 763.02771 2895.0291 4472369
-101.13793 770.81665 2924.5811 2038545
-83.363518 766.74451 2909.1311 6314826
-65.123489 755.15009 2865.1401 2301198
-48.313553 757.80865 2875.2273 1182979
-31.773247 769.89758 2921.0942 3748387
-14.46694 770.14886 2922.0476 3090974
2.8516674 770.67059 2924.0271 3551267
20.107981 767.9173 2913.5808 2761240
37.504852 770.59595 2923.7439 2761496
54.628304 767.73914 2912.9045 3353635
72.17305 770.75336 2924.3411 4209455
89.55204 771.17291 2925.9329 2630167
106.51217 768.43445 2915.543 4011820
124.26286 771.36798 2926.6731 4801592
141.60663 771.36621 2926.6663 1840652
160.05084 776.70508 2946.9229 4076842
175.30942 767.05499 2910.3091 2497812
193.96713 772.67426 2931.6292 2892313
211.96892 774.97144 2940.345 1839626
229.90085 776.68365 2946.8413 3550497
247.07117 775.76276 2943.3474 4340781
264.72928 776.39386 2945.7419 7498845
281.44614 774.3573 2938.0149 3880746
299.7424 776.65027 2946.7146 4274993
318.29138 779.30957 2956.8042 3485477
333.59305 774.1554 2937.2488 3814184
349.31918 770.44861 2923.1848 2498581
362.90869 762.60236 2893.415 2893336
382.48349 767.47388 2911.8982 3155995
402.52487 772.82056 2932.1843 5393470
417.54074 768.4754 2915.6982 4209197
440.43176 778.39374 2953.3296 3748389
459.58038 781.1925 2963.9485 3484962
476.03549 779.37537 2957.0542 3222047
495.75198 782.83728 2970.1892 4932921
515.43341 786.00836 2982.2207 2827291
532.26471 784.76703 2977.5107 2498327
557.27899 795.28302 3017.4099 1314051
568.07379 785.4837 2980.23 4406322
578.74207 776.10565 2944.6484 2169614
600.2157 781.34271 2964.5183 2037515
615.005 777.82788 2951.1829 2300690
631.26587 776.3172 2945.4509 2498066
636.98804 762.27618 2892.1775 3748134
665.63153 775.68195 2943.0408 2695704
682.53552 775.07208 2940.7268 2037516
701.18811 776.42877 2945.8743 2695705
719.48505 777.33521 2949.3135 1774603
731.89301 771.98712 2929.0222 2563601
751.95276 774.77094 2939.5842 3090203
770.16241 775.56555 2942.5991 2366734
784.49408 772.5061 2930.9912 3945509
803.90747 774.47504 2938.4617 3484702
813.78027 767.36401 2911.4814 2695185
836.24829 772.17859 2929.7485 3352861
857.05658 775.29572 2941.5754 2168584
875.19946 775.92566 2943.9656 5458236
897.36591 780.02838 2959.5317 3155482
926.48285 789.89966 2996.9846 3089689
936.41235 783.34845 2972.1284 2563344
949.914 779.97223 2959.3188 2037002
963.34113 776.65839 2946.7456 2892566
981.33093 777.07544 2948.3279 3550753
994.27747 773.55432 2934.9683 4208685
1006.1619 769.34216 2918.9868 2892826
1036.8958 779.44159 2957.3052 2169102
1038.4689 767.64923 2912.5637 5919303
1063.0436 772.96759 2932.7422 3748131
1079.5696 772.35657 2930.4238 3682599
1112.0066 782.96796 2970.6848 3748133
1125.1602 779.88251 2958.9783 3221789
1135.4762 774.95526 2940.2837 3353116
1149.6903 772.79724 2932.0957 2695186
1179.4208 780.97784 2963.134 2497293
1189.1021 775.83716 2943.6296 1708291
1208.3628 777.005 2948.0605 2432271
1238.797 785.22198 2979.2368 4537647
1242.9771 776.80042 2947.2844 2694931
1258.4097 775.54712 2942.5293 2629394
1263.101 767.79877 2913.1309 1971208
1293.7532 775.82739 2943.5925 1839621
1315.9512 778.64008 2954.2642 1707781
1323.1078 772.59595 2931.332 1773312
1349.8131 777.9754 2951.7424 1707777
1365.1625 776.75592 2947.1155 3088914
1390.8472 781.37354 2964.6355 3680794
1396.5798 774.80682 2939.7205 1575682
1410.8335 773.07111 2933.1348 1970693
1420.0913 768.67334 2916.4492 3418650
1439.3884 769.75018 2920.5349 3220758
1451.0066 766.74371 2909.1279 4668207
1486.4032 776.22534 2945.1025 1774086
1505.2295 776.93396 2947.7913 1905673
1531.1395 781.24084 2964.1318 2563345
1546.5262 780.14142 2959.9607 1642244
1559.3123 777.76953 2950.9614 1246720
1573.2081 775.99762 2944.2385 2365450
1586.4332 773.93744 2936.4219 2233864
1613.9995 778.84241 2955.0317 3088913
1632.4934 779.31104 2956.8098 3154706
1646.901 777.83966 2951.2275 1838338
1657.1055 774.43512 2938.3101 3286036
1677.4178 775.77588 2943.3972 3220500
1728.7688 791.29633 3002.2837 2825741
1731.4086 784.43134 2976.2373 3220500
1760.9395 789.76532 2996.4749 4602410
1788.2867 794.02313 3012.6296 3023377
1801.2164 791.85858 3004.417 4799789
1798.3317 782.85193 2970.2446 3220758
1867.0322 804.88043 3053.8237 4273703
1882.1676 803.61572 3049.0251 3154966
1907.8636 806.84113 3061.2629 3155479
1926.051 806.86023 3061.3354 2694416
1936.6439 803.72723 3049.4482 1970694
1956.881 804.61761 3052.8267 1575938
1987.0103 809.52173 3071.4336 3286810
2007.1194 810.29181 3074.355 2168330
2032.9712 813.34534 3085.9407 1444865
2016.9066 799.72424 3034.2603 2891796
2041.7997 802.44049 3044.5662 2234379
2059.8425 802.44049 3044.5662 2366219
2092.8264 808.21045 3066.4583 2760978
2096.1917 802.54132 3044.949 3549724
2116.2288 803.29755 3047.8181 2694415
2142.6943 806.46051 3059.8186 2759951
2174.7275 811.64832 3079.502 3352088
2199.1152 813.91992 3088.1206 3747103
2208.5835 810.67792 3075.8201 4010534
2221.1938 808.63269 3068.0605 3023896
2231.7913 805.89404 3057.6694 2037516
2251.2681 806.37982 3059.5127 3089689
2264.4651 804.62653 3052.8604 2300173
2291.2571 807.69342 3064.4966 2498061
2296.325 803.11432 3047.1228 2036742
2329.1174 808.22736 3066.5225 2037255
2335.5967 804.20093 3051.2456 2695185
2370.4988 809.948 3073.0505 3287322
2370.6118 803.81122 3049.7668 3681824
2386.4373 803.05475 3046.8967 327680
2386.582 797.07245 3024.1992 1379330
2383.6892 790.17255 2998.02 2102796
2417.8364 795.56226 3018.4695 2299917
2455.823 802.12695 3043.3765 2695444
2474.4036 802.30353 3044.0466 3089945
2471.041 795.41437 3017.9082 2629138
2550.8418 815.20154 3092.9834 3287066
2542.8721 806.85663 3061.3218 3484446
2547.6741 802.65381 3045.3757 2892053
2570.3369 804.09766 3050.854 3221275
2587.9163 803.94214 3050.2637 2694932
2601.7561 802.63519 3045.3049 2234383
2612.554 800.41418 3036.8782 721920
2627.7227 799.55359 3033.613 787200
2615.9529 790.5636 2999.5037 1708035
2624.3638 787.75256 2988.8381 2957330
2627.9622 783.54437 2972.8718 2759950
2664.2273 789.06714 2993.8259 2760205
2679.9104 788.4613 2991.5273 2628619
2718.7273 794.625 3014.9133 1970433
2711.2666 787.27069 2987.0098 3352343
2734.4885 788.86316 2993.052 3154964
2772.4922 794.67194 3015.0916 2957587
2792.1714 795.18781 3017.0486 1904643
2820.4412 798.12805 3028.2041 2825744
2789.45 784.36737 2975.9944 2825744
2846.7407 795.44775 3018.0349 2299402
2826.9097 784.97461 2978.2983 1970950
2848.1936 785.97748 2982.1033 2102280
0 0 0 0
0 0 0 0
0 0 0 0
0 0 0 0
0 0 0 0
0 0 0 0
0 0 0 0
0 0 0 0
0 0 0 0
-2349.7161 717.91998 2663.9849 5592904
-2320.8601 713.90015 2649.0684 6118737
-2314.6245 716.83081 2659.9434 5131842
-2332.8994 727.44464 2699.3281 5132354
-2337.8325 734.01611 2723.7126 4145202
-2295.3044 725.67377 2692.7568 4473397
-2299.9771 732.24188 2717.1292 5591876
-2279.7703 730.92596 2712.2461 5394495
-2259.1333 729.45233 2706.7781 5986888
-2257.1626 734.02802 2723.7568 6776149
-2214.1565 725.2287 2691.1055 6907736
-2197.3398 724.9422 2690.0422 5262911
-2185.9392 726.45135 2695.6423 5328704
-2161.6763 723.6767 2685.3464 5394239
-2129.1157 718.06256 2664.5139 4275759
-2115.1418 718.67969 2666.804 5065275
-2115.3804 724.17169 2687.1831 4802103
-2119.073 730.93842 2712.2925 4933945
-2119.082 736.5282 2733.0344 5131582
-2085.3655 730.39191 2710.2646 6512979
-2090.7688 737.96832 2738.3782 5065789
-2033.7834 723.46991 2684.5789 4539445
-2052.9624 736.05017 2731.2605 5131326
-2022.0332 730.72223 2711.4902 5657671
-2011.8175 732.85443 2719.4021 5855050
-1996.5367 733.16107 2720.54 4802363
-1981.4385 733.54022 2721.947 4144689
-1955.6324 729.92896 2708.5466 2499351
-1919.2145 722.2644 2680.1057 3157281
-1908.5538 724.24609 2687.4592 3683369
-1913.9243 732.39569 2717.7 5986378
-1889.3557 729.12982 2705.5811 4670516
-1851.5677 720.66272 2674.1624 5131324
-1827.3486 717.37628 2661.9673 6381134
-1844.9713 730.60175 2711.0432 4867896
-1831.0898 731.47455 2714.2817 6315600
-1806.6919 728.12439 2701.8503 6907736
-1786.8181 726.55402 2696.0232 7236700
-1777.9027 729.45142 2706.7747 6447185
-1772.8087 733.9837 2723.5925 6710357
-1765.9895 737.87842 2738.0447 6973529
-1750.418 738.1546 2739.0693 4604981
-1735.4391 738.68811 2741.0491 5526339
-1731.3191 743.89734 2760.3792 5065788
-1725.7761 748.58887 2777.7878 6249807
-1694.7676 742.21814 2754.1479 5460035
-1675.3851 740.86469 2749.1257 4868152
-1663.0397 742.62695 2755.665 5591876
-1634.5746 737.1546 2735.3589 5262653
-1614.6946 735.48309 2729.1562 5065274
-1616.3406 743.68188 2759.5796 5065532
-1594.0414 740.9184 2749.3252 4736309
-1577.104 740.61597 2748.2029 6052170
-1595.4915 757.06891 2809.2546 6446674
-1552.771 744.56702 2762.864 5460032
-1526.3774 739.711 2744.8447 3881001
-1515.6083 742.40387 2754.8372 4538675
-1504.8986 745.18475 2765.1562 5064503
-1481.684 741.76666 2752.4727 4406828
-1461.3964 739.75403 2745.0046 4143142
-1452.8392 743.70099 2759.6504 5196343
-1441.6841 746.39264 2769.6384 4604205
-1427.5864 747.60547 2774.1387 6643278
-1413.8215 749.02271 2779.3977 5525567
-1394.5342 747.51331 2773.7966 6249290
-1386.099 751.85419 2789.9045 3880490
-1380.9091 758.08154 2813.0125 6249548
-1366.4968 759.33643 2817.6689 4473137
-1348.3771 758.53668 2814.7012 4933689
-1315.1155 749.0921 2779.6553 4801847
-1282.4198 739.73431 2744.9314 5131065
-1280.1826 747.93109 2775.3472 6117958
-1261.6056 746.67065 2770.6699 5262652
-1252.4366 751.01837 2786.8032 5459517
-1224.998 744.38074 2762.1729 4999221
-1214.2255 747.82758 2774.9631 5591101
-1189.4586 742.63196 2755.6836 7169877
-1187.955 752.01801 2790.5125 4998709
-1167.2798 749.36163 2780.6553 4867123
-1159.0433 754.7287 2800.5708 5327675
-1147.4717 758.0484 2812.8894 5459004
-1124.8035 754.02728 2797.9683 5261625
-1095.7904 745.56885 2766.5815 4143144
-1080.6775 746.45465 2769.8684 4011812
-1062.7047 745.36188 2765.8135 4406055
-1042.9301 742.95135 2756.8687 4998449
-1030.1815 745.54895 2766.5076 6249031
-1022.1539 751.70233 2789.3411 5262649
-1015.8068 759.31415 2817.5862 3880226
-1004.2899 763.25146 2832.1965 2564881
-984.26086 760.74353 2822.8901 6973014
-967.85626 760.99866 2823.8369 4999222
-944.60291 755.78296 2804.4832 5656894
-931.45459 758.61041 2814.9749 2827285
-918.7785 761.93256 2827.3025 4077349
-892.45343 753.849 2797.3066 3879971
-873.03101 751.40039 2788.2207 2564367
0 0 0 0
0 0 0 0
0 0 0 0
-662.24469 616.66663 2288.2642 196608
-649.23541 617.19086 2290.2095 3551784
-647.15778 628.35144 2331.623 3485732
-760.31104 754.32233 2799.063 2169357
-738.27728 748.79883 2778.5669 2234636
-725.24768 752.36401 2791.7964 2169097
-704.87244 748.29755 2776.707 2826769
-692.46417 752.69678 2793.031 5063474
-679.74768 756.96808 2808.8806 2629134
-663.82489 757.79364 2811.9441 4340521
-647.66522 758.3844 2814.1362 4143401
-618.22742 743.04749 2757.2253 6972499
-606.9314 749.27423 2780.3311 4209195
-595.33148 755.46295 2803.2957 2893080
-576.71069 752.84186 2793.5696 1774599
-561.81995 755.07904 2801.8711 3090459
-549.82806 761.4671 2825.5752 919553
-530.4455 757.69952 2811.5947 2103563
-512.69055 756.08783 2805.6143 4735027
-500.04953 762.16272 2828.1562 1117959
-479.56985 756.29706 2806.3906 6249292
-458.14255 748.46179 2777.3164 2498579
-446.78241 757.10211 2809.3779 3024919
-432.87625 761.92993 2827.2925 1840135
-413.99863 758.04358 2812.8713 3616802
-403.07617 769.00836 2853.5583 4340783
-385.31592 767.31677 2847.2815 1709067
-366.19757 762.64191 2829.9343 2696472
-347.85284 759.20673 2817.1875 3091233
-328.25073 752.54248 2792.4585 4867894
-310.99796 750.84259 2786.1509 4802357
-291.68472 743.69867 2759.6418 2564371
-280.76114 758.36743 2814.0732 3418910
-264.9032 760.71893 2822.7991 3813668
-244.70549 750.08502 2783.3396 3090202
-231.57727 761.14984 2824.3979 2169358
-214.6008 760.30487 2821.2625 2827288
-197.15181 757.50159 2810.8604 3946026
-182.55009 766.13049 2842.8796 2564630
-163.30721 755.05542 2801.7834 3420197
-148.41753 763.8786 2834.5234 3288867
-132.77931 770.6095 2859.4998 656641
-115.76043 770.12469 2857.7009 4801335
-99.807549 777.78076 2886.1104 3485476
-82.104172 772.1413 2865.1838 4143405
-65.197647 773.00879 2868.4028 4472114
-48.220131 773.34955 2869.6675 590592
-31.042925 769.11432 2853.9517 2234897
-14.215567 773.78278 2871.2749 2629911
2.8307307 782.21356 2902.5591 3157283
20.028587 782.08368 2902.0769 3749421
36.685154 770.70203 2859.8433 5064767
53.800987 773.11316 2868.7903 3288610
70.722801 772.2478 2865.5791 2630937
87.781563 772.92346 2868.0862 3682343
104.81246 773.17432 2869.0171 4208943
120.95026 767.68652 2848.6536 4603700
138.74728 772.78448 2867.5706 4406576
157.38229 780.92798 2897.7886 4143405
172.99147 773.93213 2871.8291 3353889
191.29788 779.17554 2891.2859 4077098
208.67027 780.06531 2894.5876 2761240
224.80287 776.53729 2881.4961 3945513
241.23293 774.46234 2873.7966 5656131
260.3598 780.74811 2897.1211 2629911
281.74915 792.62091 2941.1777 5393216
299.10342 792.42029 2940.4331 3682599
315.41641 789.63477 2930.0969 3353635
331.72684 787.13391 2920.8169 5787975
344.61832 777.17084 2883.8469 3551014
360.27322 774.08673 2872.4028 2300434
375.5882 770.5835 2859.4033 5195325
399.94315 785.12909 2913.3777 2432788
417.15509 785.02881 2913.0054 3945768
438.82434 792.99097 2942.5508 3484961
459.01965 797.78302 2960.3325 2432530
474.73352 794.72003 2948.9666 2629652
491.97046 794.33368 2947.5332 3814439
509.33524 794.17316 2946.9375 4274735
526.13818 793.17633 2943.2385 2762268
539.70959 787.5282 2922.2798 1643787
560.48596 792.41748 2940.4229 3550757
575.58484 789.22717 2928.5845 2169103
592.3584 788.45276 2925.7107 2761496
599.76819 775.61316 2878.0669 1116675
626.44452 787.70996 2922.9546 853504
642.37543 786.00781 2916.6384 2169620
660.26324 786.72656 2919.3054 2037518
680.09265 789.6629 2930.2014 2103824
695.40991 787.34448 2921.5984 2762009
713.55859 788.26654 2925.0198 2432274
716.22192 772.44391 2866.3069 2037259
744.43713 784.27368 2910.2036 4208682
764.99689 787.68524 2922.8628 4932406
775.98639 781.30981 2899.2056 3682339
785.93201 774.18225 2872.7573 4011303
808.61005 779.63318 2892.9839 2827030
824.08392 778.05585 2887.1311 4866100
843.38959 780.08698 2894.668 4208426
868.33795 787.15216 2920.8848 3089689
883.98413 785.67365 2915.3984 3484703
905.30243 789.19641 2928.4702 6511438
926.42499 792.41925 2940.4292 2300948
942.79266 791.53107 2937.1333 3748134
946.43665 780.18634 2895.0366 3748646
975.64691 789.9458 2931.251 4340783
979.37579 779.09332 2890.9807 3814438
986.36377 771.16199 2861.55 1906441
1018.8362 783.08649 2905.7981 4143150
1028.9716 777.73132 2885.9268 5525059
1045.0927 777.00159 2883.219 3946540
1062.7139 777.39276 2884.6704 2235409
1096.5593 789.45172 2929.4177 4011564
1114.4579 789.83319 2930.8333 3814184
1131.1638 789.37067 2929.1169 2564116
1140.639 783.95251 2909.0117 1774344
1147.972 777.2453 2884.1233 2037003
1170.86 781.11206 2898.4714 1971209
1185.8636 779.68298 2893.1689 2102794
1216.3351 788.31976 2925.2173 2497038
1217.402 777.92407 2886.6421 1839108
1227.8069 773.70081 2870.9707 2628624
1258.5673 782.24469 2902.6746 2497295
1280.5685 785.18744 2913.5942 2102538
1287.9056 779.18018 2891.303 1642243
1310.5997 782.49957 2903.6204 1312768
1328.0176 782.62347 2904.0803 852736
1338.7413 778.84991 2890.0774 2233865
1364.113 783.58575 2907.6509 2233608
1382.4215 784.19684 2909.9182 3286807
1407.8054 788.75696 2926.8394 1905413
1412.3893 781.69409 2900.6316 3813412
1430.7794 782.35052 2903.0671 2168843
1438.4038 777.1745 2883.8606 3023636
1478.9438 789.69562 2930.3228 3089173
1492.6669 787.77319 2923.1892 3221016
1479.8629 772.05548 2864.8655 2102536
1525.3528 786.76166 2919.4358 1576450
1551.2938 791.16809 2935.7866 1576199
1559.0107 786.28546 2917.6685 1970693
1559.6904 777.99957 2886.9221 2036485
1574.0156 776.62628 2881.8262 3022609
1612.2828 786.96869 2920.2039 2299398
1624.5947 784.55701 2911.2549 2759949
1653.5891 790.16772 2932.0747 2496776
1634.9481 773.13605 2868.875 3812636
1681.8689 787.13861 2920.8345 3944223
1712.1969 793.16937 2943.2129 2759949
1732.3652 794.41962 2947.8521 3154707
1747.1112 793.18311 2943.2637 3154963
1742.4597 783.25165 2906.4111 2957327
1786.6989 795.27631 2951.031 6115392
1820.3451 802.39862 2977.4597 2233866
1818.6643 793.96173 2946.1528 3944480
1852.5272 801.05469 2972.4727 2957588
1866.6473 799.5575 2966.917 2562828
1886.6344 800.57788 2970.7034 2825999
1907.2308 801.83545 2975.3699 3154965
1924.5405 801.70093 2974.8706 3023380
1951.9567 805.74066 2989.8608 2891794
1960.568 802.01508 2976.0366 1970691
1985.3031 804.89301 2986.7156 2826001
2010.2904 807.82141 2997.582 3418138
2008.1943 799.91052 2968.2273 2365450
2031.826 802.29602 2977.0791 3023123
2065.3574 808.51593 3000.1592 2891794
2105.6387 817.24933 3032.5664 2496779
2108.3525 811.37756 3010.7778 2694415
2165.7407 826.46857 3066.7761 2102279
2153.2034 814.84619 3023.6489 2430986
2157.4253 809.70563 3004.5737 2628365
2195.1274 817.11182 3032.0562 2957587
2181.4841 805.44019 2988.7458 2431243
2168.7578 794.2923 2947.3796 2562829
2230.3447 810.3219 3006.8606 1773571
2260.0388 814.60211 3022.7429 1707780
2265.084 810.00037 3005.6675 1445376
2292.5908 813.44006 3018.4314 1774083
2320.3188 816.90454 3031.2866 1510913
2310.9895 807.36926 2995.9041 2760721
2324.219 805.80048 2990.083 3287066
2364.9377 813.71381 3019.447 3747618
2352.6099 803.39337 2981.1509 3089689
2348.7441 796.09497 2954.0688 2760468
2369.7095 797.25867 2958.387 3089689
2367.2341 790.57684 2933.5928 2563599
2406.709 797.90033 2960.7681 2629136
2430.5583 799.97498 2968.4663 2957587
2442.1865 798.02631 2961.2351 2826001
2471.699 801.90759 2975.6377 2628622
2488.5889 801.66785 2974.748 2628622
2507.6802 802.13556 2976.4836 2497036
2522.9558 801.38477 2973.6978 2036485
2533.7292 799.2243 2965.6807 2365450
2534.2502 793.8819 2945.8567 2694415
2567.0913 798.66791 2963.616 1838853
2565.2224 792.66345 2941.3352 852480
2555.4509 784.31439 2910.3547 2891796
2600.7583 792.86884 2942.0974 3220758
2611.4995 790.84155 2934.575 2036485
2621.957 788.75574 2926.8352 2431241
2658.9773 794.63574 2948.6541 2299655
2697.2874 800.82178 2971.6086 2760206
2693.0637 794.38141 2947.7102 3089170
2731.1499 800.42383 2970.1316 3154965
2763.9177 804.84015 2986.5193 3023380
2753.874 796.81305 2956.7334 2102278
2768.3411 795.93469 2953.4739 2563085
2763.3528 789.50885 2929.6294 3549724
2752.3818 781.46454 2899.7795 2891538
2797.2544 789.27698 2928.769 2826001
0 0 0 0
0 0 0 0
0 0 0 0
0 0 0 0
0 0 0 0
0 0 0 0
0 0 0 0
0 0 0 0
0 0 0 0
-2295.4541 716.76379 2602.4656 6118734
-2299.1868 722.78564 2624.3298 5921355
-2283.0776 722.6095 2623.6902 6052684
-2275.1133 725.02637 2632.4656 5657925
-2244.1853 720.10809 2614.6082 5065275
-2234.3831 721.94739 2621.2864 5197118
-2257.6936 734.58643 2667.1768 4999739
-2240.8577 734.24902 2665.9517 5262911
-2207.4978 728.45404 2644.9109 4144174
-2196.0457 729.8573 2650.0061 5394240
-2184.7383 731.32922 2655.3503 7302237
-2157.0105 727.28601 2640.6699 4933687
-2150.1318 730.26477 2651.4854 5394239
-2125.6306 727.25806 2640.5686 5394239
-2094.002 721.75012 2620.5701 4867895
-2089.4722 725.57001 2634.4395 4802102
-2073.2932 725.3717 2633.7195 4604724
-2076.0823 731.85699 2657.2666 5854788
-2060.5957 731.94971 2657.6033 5394237
-2043.9556 731.63092 2656.4458 5328445
-2054.0588 740.95428 2690.2974 4933688
-2013.7443 732.09412 2658.1274 4933431
-1965.994 720.36969 2615.5579 4144172
-1969.6351 727.43909 2641.2258 4999994
-1972.0969 734.18274 2665.7112 6578773
-1957.8901 734.77979 2667.8789 6447186
-1948.1981 737.09467 2676.2839 5657671
-1932.365 737.10504 2676.3215 1052167
-1910.4819 734.7887 2667.9111 5723463
-1894.533 734.73505 2667.7163 4999228
-1867.6819 730.41687 2652.0376 5525826
-1846.776 728.37018 2644.6064 5525826
-1828.0421 727.1524 2640.1851 5723203
-1814.1658 727.86249 2642.7632 4538929
-1801.3304 729.00629 2646.9163 5986634
-1810.9574 739.34064 2684.4387 7236701
-1777.4384 732.08728 2658.1028 7368287
-1751.3049 727.77338 2642.4397 7697251
-1756.1144 736.35632 2673.603 4999739
-1745.4775 738.55975 2681.6033 5131326
-1728.1549 737.94867 2679.3848 6644565
-1738.1996 749.12097 2719.9497 4802361
-1723.4741 749.72723 2722.1509 5197119
-1701.6989 747.24915 2713.1533 5262912
-1692.4911 750.29517 2724.2129 4670773
-1666.7657 746.0069 2708.6428 5459261
-1651.0684 746.16711 2709.2246 4801844
-1640.4436 748.64545 2718.2231 4077864
-1610.0693 742.07062 2694.3508 4011559
-1583.9194 737.33051 2677.1401 4077607
-1566.6823 736.68536 2674.7979 5788484
-1550.4071 736.48413 2674.0671 4274989
-1541.0272 739.58801 2685.3367 5328191
-1554.5903 753.88251 2737.238 6314572
-1533.092 751.29663 2727.8491 6182984
-1498.1852 742.01465 2694.1475 4143659
-1481.8667 741.8382 2693.5068 6577742
-1456.1844 736.91925 2675.647 4603951
-1469.2457 751.71454 2729.3665 3683362
-1434.0197 741.85883 2693.5818 6511948
-1431.788 749.04224 2719.6638 5920067
-1421.7805 752.27496 2731.4014 5723459
-1414.9142 757.26337 2749.5134 6052168
-1404.5961 760.49902 2761.2617 4670515
-1375.2626 753.39398 2735.4644 2565397
-1365.3315 756.87531 2748.1045 5393982
-1351.3855 758.18805 2752.8708 4736053
-1322.9905 751.32733 2727.9604 5328189
-1302.316 748.73553 2718.55 5722946
-1290.7964 751.40808 2728.2539 4209709
-1267.3918 747.14221 2712.7651 3090974
-1262.4188 753.77191 2736.8364 6314829
-1233.3842 746.02026 2708.6914 4341037
-1224.0834 750.15778 2723.7141 5591103
-1201.6815 746.2699 2709.5977 4143399
-1175.45 739.86609 2686.3464 5788224
-1168.3994 745.52533 2706.8945 6840914
-1168.2661 755.81732 2744.2632 3946022
-1153.5948 756.86176 2748.0554 5656640
-1141.2573 759.48914 2757.595 5063988
-1128.5574 761.94812 2766.5232 3287835
-1112.0133 761.84601 2766.1523 4866610
-1085.6244 754.89514 2740.9148 6183499
-1069.2949 754.83429 2740.6938 3551007
-1041.8668 746.81598 2711.5806 4866866
-1038.8691 756.3327 2746.1343 3551007
-1021.5503 755.55994 2743.3286 6051651
-1004.4468 754.92426 2741.0205 5985602
-983.21527 751.11395 2727.1858 5327928
-978.45032 759.96594 2759.3262 4143656
-969.77051 766.02661 2781.3315 4669745
-947.80603 761.6217 2765.3379 5656640
-930.06757 760.5174 2761.3284 6116934
-920.39832 766.08997 2781.5615 4801585
-901.23859 763.82227 2773.3279 4406827
-882.90778 762.18597 2767.3867 2827540
-863.75262 759.76263 2758.5879 6117705
-836.68445 750.15118 2723.6902 5131325
0 0 0 0
0 0 0 0
-664.73492 632.59717 2296.8687 131072
-656.22058 637.54956 2314.8501 4867384
-695.77661 690.41327 2506.7903 4932917
-746.0705 756.47113 2746.637 3814178
-731.10626 757.83203 2751.5781 4340267
-721.46381 764.89716 2777.2307 4341036
-699.34564 758.75665 2754.9353 4012071
-688.11261 764.41479 2775.4792 4341034
-666.89832 758.99036 2755.7839 4011814
-652.53839 761.29041 2764.135 4077351
-634.31989 759.09125 2756.1501 4340778
-617.27441 758.21674 2752.9751 6314567
-605.98071 764.5517 2775.9763 4275241
-593.42023 769.59723 2794.2959 3485470
-579.47363 773.08331 2806.9534 1117190
-562.04602 771.99402 2802.9983 2038028
-546.50043 773.5022 2808.4744 3551268
-521.41327 761.17603 2763.7197 3288096
-507.51544 764.91473 2777.2944 4274988
-497.17166 774.44006 2811.8796 2827545
-476.4819 767.95135 2788.3201 2366994
-456.98578 762.98938 2770.3037 3354661
-441.04837 763.82074 2773.3223 4736314
-431.59714 776.38409 2818.938 1709837
-414.92279 776.44263 2819.1506 854276
-391.12073 762.60834 2768.9204 2828318
-378.02686 769.35577 2793.4192 3354407
-360.66898 767.64563 2787.21 3881261
-345.28793 770.18079 2796.4148 2301719
-323.72412 758.48535 2753.9502 5723208
-307.85117 759.5896 2757.9597 4736056
-286.50815 746.56409 2710.666 3748904
-272.07764 751.0733 2727.0383 2695445
-256.76822 753.57257 2736.1128 4405807
-242.46367 759.55676 2757.8406 2564116
-227.06374 762.72644 2769.3491 5985353
-211.89865 767.24042 2785.7385 1905932
-194.52466 763.84338 2773.4045 1709067
-178.51843 765.68579 2780.094 3749161
-162.11957 766.04749 2781.4075 3091744
-146.12059 768.59467 2790.6558 3684138
-129.26537 766.7132 2783.8245 5131071
-112.51189 764.97308 2777.5063 3223074
-97.464226 776.22186 2818.3491 4802104
-80.959328 778.11761 2825.2322 4077868
-64.932999 786.80072 2856.7595 3880488
-47.917721 785.39917 2851.6707 2827802
-31.032343 785.75946 2852.9788 2169616
-14.122459 785.61908 2852.469 1840395
2.7490742 776.35449 2818.8306 4143150
19.474676 777.177 2821.8171 3025441
35.863167 770.00159 2795.7642 4078129
52.260578 767.49207 2786.6523 3091234
68.56395 765.13824 2778.106 6710106
84.800293 763.09277 2770.6792 3354405
102.40961 772.06177 2803.2444 4078383
119.04675 772.2207 2803.8215 4406322
135.72797 772.59174 2805.1687 3945771
152.86021 775.16895 2814.5261 4143406
168.68961 771.28223 2800.4138 6248782
185.80832 773.45868 2808.3164 2498584
205.36725 784.60016 2848.7693 4208945
219.36633 774.4212 2811.811 3616293
237.99916 780.88306 2835.2729 4735544
255.70195 783.64233 2845.2917 6248781
273.10693 785.20398 2850.9619 4866873
289.83331 784.74628 2849.3 3879978
304.30212 778.56305 2826.8494 3156256
325.94769 790.42877 2869.9324 2301204
342.12521 788.5152 2862.9841 3879721
357.40103 784.80219 2849.5032 2629910
373.86859 783.92328 2846.3118 4011564
393.24026 788.94659 2864.5508 3748135
410.37878 789.2594 2865.6863 3287842
432.07404 797.96265 2897.2866 2630423
442.62326 786.20264 2854.5879 2104335
471.06549 805.92072 2926.1814 2696986
477.35229 787.67993 2859.9517 3552547
499.14874 795.40497 2888 3224353
519.67261 800.65704 2907.0698 3223074
540.65204 806.25159 2927.3826 2301717
559.98517 809.11938 2937.7954 3354922
572.36902 802.07617 2912.2224 2959908
588.46252 800.49152 2906.4685 525828
596.86542 788.83289 2864.1377 3289130
621.92804 799.22803 2901.8809 2301977
637.00415 796.57556 2892.2505 3288871
652.34155 794.38043 2884.2803 1117705
676.01373 802.18781 2912.6274 1249032
689.86389 798.24121 2898.2981 788225
699.33191 789.53912 2866.7019 1511946
711.40924 784.12579 2847.0469 2169874
730.06836 786.04956 2854.0322 920325
753.57349 792.98596 2879.2168 1708554
768.13782 790.41492 2869.8818 2958618
777.65833 782.87769 2842.5154 4866101
790.66187 779.09204 2828.7703 2234380
808.74438 780.36438 2833.3901 2695185
829.96069 784.5473 2848.5774 2760978
846.99597 784.69 2849.0955 3221530
876.07471 795.76654 2889.3127 3550240
883.65338 787.26361 2858.4399 2958359
906.32544 792.27454 2876.634 3879462
927.04724 795.42719 2888.0808 4997943
934.19019 787.02563 2857.5762 4340013
953.01685 788.59131 2863.2607 4471342
966.72852 785.94373 2853.6477 4142888
982.89423 785.34796 2851.4846 3024663
1012.2393 795.12482 2886.9829 3287583
1024.7086 791.54095 2873.9705 2695446
1038.8586 789.35132 2866.0203 3551267
1060.832 793.08105 2879.5623 1511688
1093.417 804.50018 2921.0234 4143662
1096.4224 794.13879 2883.4028 3485732
1125.4299 802.63995 2914.2693 3880748
1129.7773 793.56274 2881.311 591365
1141.8267 790.08496 2868.6838 3353376
1160.8977 791.4967 2873.8098 3090204
1162.5684 781.17566 2836.3354 2169359
1192.2441 789.6983 2867.28 1905415
1204.6504 786.70343 2856.406 2234379
1217.7094 784.21191 2847.3599 2629137
1242.4049 789.18018 2865.3989 1707522
1248.4587 782.33282 2840.5371 2562831
1273.7834 787.58282 2859.5991 1576194
1303.7079 795.50171 2888.3513 1378560
1311.7744 790.0509 2868.5603 1313024
1330.1174 790.84961 2871.4602 1115392
1347.9391 791.32208 2873.1755 2102277
1367.1893 792.6109 2877.8552 2430986
1390.7375 796.32904 2891.3552 1970434
1411.1278 798.17047 2898.041 1707008
1423.8772 795.69757 2889.0625 1444098
1419.7643 783.97247 2846.4902 2233607
1441.418 786.58344 2855.9705 2825741
1458.0728 786.43768 2855.4412 3812635
1471.8397 784.75555 2849.3335 4273443
1479.8123 780.05701 2832.2739 3352343
1487.5712 775.35266 2815.1931 2167815
1534.9291 791.16345 2872.5999 2365452
1551.0653 790.71112 2870.9573 1773316
1579.4131 796.42627 2891.7083 2233867
1589.9432 793.13049 2879.7419 3483929
1610.3007 794.755 2885.6401 2496776
1627.4824 794.79443 2885.7834 3220497
1628.7262 787.13068 2857.9573 3549462
1649.7551 789.08789 2865.0637 3746841
1690.29 800.24017 2905.5559 3351829
1693.1428 793.5072 2881.1096 2562827
1712.4752 794.55511 2884.9143 3418392
1723.8873 791.9436 2875.4324 3681308
1731.3945 787.60699 2859.6868 2431240
1780.8867 802.26813 2912.9194 4076069
1804.8512 805.2583 2923.7761 3549724
1823.3945 805.79584 2925.7278 3023380
1853.278 811.2876 2945.6675 2694415
1834.7657 795.68884 2889.0308 1904901
1865.1823 801.40137 2909.7722 3812894
1878.4076 799.69055 2903.5603 3483929
1923.1233 811.29547 2945.696 5918270
1918.0286 801.86731 2911.4639 1839106
1944.6279 805.7395 2925.5234 3483931
1989.2953 816.9635 2966.2759 2760208
2001.2274 814.66479 2957.9297 2891793
2001.7991 807.82147 2933.0828 2628622
2029.6167 811.99658 2948.2417 3483932
2041.5807 809.81177 2940.3091 3286552
2081.8474 818.79553 2972.9277 2826001
2105.8188 821.27325 2981.9241 2233863
2147.4875 830.55444 3015.6226 2168072
2109.0793 808.96753 2937.2439 3088915
2135.2463 812.30011 2949.344 2891278
2136.3074 806.10529 2926.8513 2233862
2151.2969 805.22357 2923.6501 2760205
2174.1555 807.27783 2931.1086 2497035
2182.0637 803.7923 2918.4534 3155736
2213.4917 808.95734 2937.2068 1971205
2227.7749 807.82471 2933.0945 853248
2255.1494 811.41998 2946.1484 1576452
2256.3831 805.62677 2925.114 1576449
2280.199 807.92316 2933.4517 2497808
2362.2346 830.6571 3015.9956 3879460
2327.4407 812.27625 2949.2573 2365962
2317.158 802.66003 2914.3423 2760721
2313.999 795.6355 2888.8372 2431757
2317.1968 790.88373 2871.584 2892051
2379.0662 806.08057 2926.7615 2563343
2386.2976 802.67871 2914.4099 2957331
2399.5305 801.33008 2909.5132 3220759
2441.4231 809.5033 2939.1892 2694415
2456.6025 808.76636 2936.5132 2497036
2478.4211 810.2099 2941.7546 2891794
2508.1384 814.19751 2956.2332 1839366
2500.9785 806.2417 2927.3467 3023122
2509.1633 803.30804 2916.6951 2299143
2524.3237 802.63251 2914.2424 2759951
2535.5139 800.7124 2907.2708 3418138
2559.4661 802.82123 2914.9275 2233865
2560.0842 797.63171 2896.0852 2891794
2587.5063 800.80688 2907.6135 2826001
2597.1445 798.47241 2899.1377 3089173
2637.6499 805.59625 2925.0032 3220759
2643.594 802.1402 2912.4548 2233864
2663.5229 802.94476 2915.376 2497036
2691.6367 806.19055 2927.1609 2431243
2689.8911 800.50861 2906.5308 2562829
2722.2747 804.99127 2922.8064 2431243
2733.4185 803.17609 2916.2158 1575683
2744.3374 801.31812 2909.4697 2892051
2709.4285 786.18555 2854.5256 2826001
2706.3098 780.40814 2833.5486 2431243
0 0 0 0
0 0 0 0
0 0 0 0
0 0 0 0
0 0 0 0
0 0 0 0
0 0 0 0
0 0 0 0
0 0 0 0
-2280.7581 727.49902 2585.8042 5394752
-2251.5979 723.05579 2570.0112 6644561
-2249.3669 727.25867 2584.95 7104859
-2242.3132 729.9494 2594.5137 5065273
-2250.4897 737.66937 2621.9534 6117960
-2217.5967 731.94116 2601.5933 4670771
-2200.658 731.43567 2599.7964 4078123
-2176.511 728.51025 2589.3984 4801590
-2153.825 726.03571 2580.603 3617058
-2144.7297 728.13995 2588.0823 5787969
-2136.4062 730.53833 2596.6069 5459004
-2136.6694 735.92908 2615.7678 5657154
-2103.1428 729.67542 2593.5398 5459773
-2101.6907 734.53967 2610.8293 5591357
-2088.8486 735.46576 2614.1208 5262650
-2063.1553 731.84698 2601.2585 3880999
-2047.3403 731.70435 2600.7515 5920582
-2043.3801 735.82843 2615.4099 6775891
-2032.0466 737.34003 2620.7827 6315340
-2039.0363 745.57483 2650.0522 5065787
-2018.0295 743.62103 2643.1079 4407857
-1966.0731 730.14307 2595.2019 4407345
-1958.9069 733.21729 2606.1289 2433554
-1939.8513 731.85492 2601.2866 6183501
-1949.8563 741.5224 2635.6484 4538677
-1926.4208 738.52588 2624.9978 5328192
-1904.5507 736.08575 2616.3245 6710616
-1892.9242 737.59698 2621.696 3683626
-1899.2063 746.16925 2652.1653 4012334
-1844.3413 730.6604 2597.0408 4801848
-1837.7822 734.18854 2609.5813 5262399
-1815.7819 731.55554 2600.2224 4275759
-1800.002 731.40497 2599.6873 6710098
-1786.6075 732.22955 2602.6182 3815209
-1774.8981 733.76508 2608.0759 5525571
-1780.7495 742.65118 2639.6606 6512210
-1733.6749 729.42676 2592.656 5262912
-1742.2994 739.61023 2628.8518 6841942
-1727 739.72998 2629.2776 5131067
-1719.3306 743.1499 2641.4333 5065271
-1721.3572 750.86212 2668.8452 4670258
-1709.6652 752.6778 2675.2988 6644561
-1688.3313 750.24286 2666.6443 6117704
-1670.4663 749.31799 2663.3569 6314570
-1647.6653 746.14014 2652.0618 3551262
-1651.1421 754.91553 2683.2527 4736307
-1629.9528 752.47443 2674.5759 6643278
-1625.5449 757.80865 2693.5359 3222042
-1585.3063 746.37921 2652.9114 3748384
-1562.2017 742.86835 2640.4326 4143142
-1562.2098 750.38855 2667.1621 4472365
-1548.0648 751.19464 2670.0273 7038292
-1520.3447 745.36206 2649.2961 3879972
-1511.7631 748.88843 2661.8301 4669490
-1498.2285 750.00983 2665.8159 5130297
-1479.5554 748.5553 2660.646 4735538
-1467.7341 750.5733 2667.8188 6117191
-1455.652 752.50049 2674.6687 5459517
-1440.3077 752.76514 2675.6094 4341290
-1424.2609 752.66443 2675.2515 6643788
-1428.7574 763.53998 2713.9072 6709582
-1401.5228 757.51276 2692.4841 5064757
-1399.5964 765.18311 2719.7476 5656638
-1394.7833 771.43555 2741.9709 4801331
-1356.8542 759.30359 2698.8494 3551263
-1336.8463 757.03052 2690.77 2827287
-1320.3876 756.73663 2689.7256 3683110
-1317.7927 764.47839 2717.2427 4736052
-1299.835 763.3891 2713.3708 4933432
-1278.2646 760.12433 2701.7666 3946537
-1242.1895 748.04187 2658.821 7565665
-1223.5654 746.29297 2652.605 3682853
-1212.0361 748.8822 2661.8081 4538415
-1201.3688 752.07941 2673.1719 5262138
-1196.8384 759.25513 2698.6772 3683108
-1174.7518 755.33716 2684.7512 2893855
-1158.4989 755.11383 2683.9575 4143402
-1152.7303 761.81329 2707.7698 4867124
-1141.2914 764.90143 2718.7463 4998707
-1131.3331 769.08472 2733.6152 5064244
-1107.4668 763.79742 2714.8223 4406314
-1093.7506 765.45776 2720.7236 4603693
-1081.9955 768.56079 2731.7529 4801072
-1064.2347 767.42731 2727.7241 2761488
-1029.5931 753.89825 2679.637 6183489
-1026.5532 763.44745 2713.5784 7236184
-1016.9933 768.37463 2731.0913 6117961
-997.34613 765.71649 2721.6433 5788227
-967.69958 755.16779 2684.1494 6380366
-968.57684 768.48456 2731.4822 5525054
-948.87311 765.64716 2721.397 5130296
-942.77429 773.87939 2750.6572 5590846
-923.4303 771.33752 2741.6226 4998451
-908.45929 772.42285 2745.4802 5525308
-891.03699 771.42548 2741.9351 5262137
-871.79773 768.78882 2732.5635 4341035
-846.57111 760.67242 2703.7148 5854528
-821.36121 752.2583 2673.8079 7038805
0 0 0 0
0 0 0 0
-664.99689 646.46362 2297.7739 131072
-649.66174 644.75854 2291.7134 4472885
-747.17847 757.37213 2691.9844 3288094
-741.99432 768.52631 2731.6306 4998454
-728.64551 771.53284 2742.3169 3879972
-715.56201 774.96393 2754.5122 5327418
-693.69611 768.82159 2732.6802 3485214
-678.97528 770.4939 2738.624 3551007
-661.16791 768.65973 2732.1047 3090455
-646.09308 769.98993 2736.8328 2234891
-631.91388 772.48358 2745.696 2696468
-613.66071 769.99713 2736.8584 4604461
-600.58942 774.05426 2751.2788 4406827
-585.82812 776.09894 2758.5464 4209193
-570.75714 777.83893 2764.731 4209193
-553.06396 776.00256 2758.2039 3748387
-539.55841 780.10895 2772.7993 3682855
-523.70178 780.96722 2775.8501 4735287
-504.72095 777.07111 2762.002 5920074
-487.853 776.276 2759.1758 5722951
-470.2471 774.21063 2751.8347 3485988
-451.75214 770.48065 2738.5769 3617828
-436.28305 771.82568 2743.3577 6184013
-416.23184 764.85486 2718.5808 5657413
-403.79056 771.86957 2743.5137 3288611
-384.32309 765.47839 2720.7971 2828574
-367.59753 764.22772 2716.3518 2433559
-347.2865 755.0672 2683.7917 4736571
-335.30576 764.00818 2715.5713 5789259
-320.75449 767.69824 2728.6873 4143919
-306.79068 773.26093 2748.459 5130042
-288.98853 769.23041 2734.1331 4998712
-269.32721 759.47833 2699.4707 3485217
-252.4745 756.91492 2690.3594 5459264
-236.95039 758.25745 2695.1311 4998458
-225.00858 772.08624 2744.2837 4801592
-207.88411 768.9007 2732.9612 5064765
-192.04808 770.34503 2738.095 2630681
-177.0143 775.57098 2756.6699 4012077
-160.76611 775.9978 2758.187 3157024
-144.22101 774.9259 2754.377 2433045
-127.73283 773.92517 2750.8201 2828059
-112.33787 780.22449 2773.2102 4867898
-95.424355 776.32861 2759.3628 6512977
-78.29509 768.703 2732.2585 4735795
-63.741463 788.98193 2804.3374 3946280
-47.003212 786.98694 2797.2466 2235668
-30.469358 788.10498 2801.2205 4801335
-13.716937 779.47919 2770.561 2301716
2.7418749 790.9826 2811.4485 1709325
19.220467 783.53668 2784.9829 854275
35.746819 784.01813 2786.6941 1578252
51.54678 773.29803 2748.5911 3617579
67.533501 769.85516 2736.3538 2893600
84.661308 778.23486 2766.1382 3814956
100.99928 777.81317 2764.6394 3486249
119.14957 789.51819 2806.2434 5460036
133.4828 776.16083 2758.7664 3879718
149.51903 774.54041 2753.0068 3814182
166.60347 778.13458 2765.782 2366480
183.94818 782.19165 2780.2021 5195064
199.93213 780.271 2773.3755 3221786
216.84509 781.99243 2779.4941 4340268
231.58838 776.19885 2758.9016 4340270
250.08815 782.92944 2782.8247 3353631
268.53592 788.67456 2803.2449 5459263
284.33832 786.43359 2795.2798 4538163
303.12888 792.24915 2815.9504 2827292
318.59143 789.21362 2805.1611 4472114
334.40225 787.29919 2798.3564 5590852
354.97891 796.25598 2830.1921 3222304
372.72833 798.34882 2837.6309 3945771
388.82867 796.88135 2832.4148 4538167
400.83017 787.48242 2799.0078 5919819
409.61191 772.75647 2746.666 4669752
426.83908 774.47992 2752.7917 3814442
455.89841 796.755 2831.9658 5393986
471.60291 794.93744 2825.5054 5459779
486.83142 792.4696 2816.7339 6315345
505.11505 794.97363 2825.6343 4933437
527.10004 802.95551 2854.0049 3683628
548.11707 809.01239 2875.533 3946801
560.71545 802.65277 2852.9287 3288871
581.05713 807.42542 2869.8926 3091235
598.45483 807.95215 2871.7646 3881008
616.48193 809.27588 2876.4697 3618092
630.25647 805.09613 2861.6135 3617580
646.08649 803.69238 2856.624 1643534
655.35193 794.40289 2823.6055 1446410
677.73145 801.0766 2847.3264 196608
694.60522 801.0766 2847.3264 722945
714.23993 804.185 2858.375 1446412
723.45093 795.68512 2828.1631 460033
744.42444 800.21399 2844.2605 197120
753.24518 791.76819 2814.2407 2498326
778.33783 800.42175 2844.999 985603
789.73413 794.92212 2825.4512 2432017
799.45905 788.00336 2800.8594 1181697
818.16309 790.03656 2808.0859 2629137
833.13928 788.46075 2802.4849 2102794
862.6496 800.43243 2845.0366 3089688
869.32318 791.1615 2812.0845 2760980
883.23285 788.70111 2803.3391 3352860
905.21173 793.40411 2820.0554 2563603
919.84607 791.61578 2813.6992 3879718
932.9444 788.59296 2802.9548 4998199
950.50842 789.38446 2805.7681 4471854
965.52124 788.06647 2801.0835 4208683
1001.6371 803.72644 2856.7449 1643018
1009.6213 796.66772 2831.6555 3879718
1029.4351 799.02173 2840.0225 2893339
1046.6976 799.35162 2841.1953 4604213
1062.0189 798.21204 2837.1445 5262401
1083.6904 801.8064 2849.9202 2038804
1133.3209 825.6593 2934.7026 5327941
1134.7675 814.21844 2894.0374 2433308
1138.5032 804.73621 2860.334 1709838
1148.3973 799.82135 2842.865 4998459
1156.4364 793.77533 2821.375 1576966
1158.7729 784.04321 2786.7834 1774343
1187.0305 791.87671 2814.6267 788739
1208.7659 795.20233 2826.4473 4471596
1232.6963 799.86157 2843.0076 1511169
1243.6471 796.08636 2829.5894 3550749
1268.1437 800.96735 2846.9382 2957587
1290.0868 804.12854 2858.1741 2628620
1309.8979 805.89612 2864.4568 3023379
1323.6517 803.93945 2857.502 2957586
1335.5026 800.89105 2846.6667 2233862
1347.0928 797.76434 2835.5532 2628619
1364.6067 798.17944 2837.0288 2036486
1388.5499 802.29938 2851.6726 2431241
1404.1898 801.58026 2849.1167 2299656
1410.0502 795.36188 2827.0142 2497036
1428.8466 796.50073 2831.062 1773313
1443.2141 795.17291 2826.3425 2299398
1462.6201 796.61981 2831.4854 3154706
1472.9136 793.12695 2819.0706 3549977
1500.7784 799.06812 2840.1875 4470824
1510.6689 795.41339 2827.1973 3418135
1536.4462 800.112 2843.8979 1970435
1539.6455 793.07861 2818.8987 1839106
1595.9459 813.25537 2890.6143 3220757
1583.9331 798.56232 2838.3899 2694155
1605.854 801.10651 2847.4329 2562567
1625.8848 802.66473 2852.9714 2957325
1644.4825 803.49072 2855.907 4404771
1659.8994 802.76154 2853.3152 3417877
1666.2557 797.70935 2835.3579 3089426
1682.7175 797.54755 2834.783 3023378
1697.2736 796.49481 2831.041 1707523
1711.1698 795.15594 2826.2822 3812896
1745.4344 803.21625 2854.9316 4536618
1767.9796 805.78052 2864.0459 3418137
1795.9087 810.7265 2881.6257 2299400
1807.136 808.11047 2872.3274 2825999
1835.6395 813.1969 2890.4065 3615257
1818.6737 798.23224 2837.2166 4142114
1850.234 804.64532 2860.011 3878685
1879.1862 809.81787 2878.3962 3352342
1907.1461 814.47382 2894.9451 3417622
1909.6418 808.26874 2872.8899 3286293
1937.5747 812.84448 2889.1541 3154708
1947.3815 809.80267 2878.3423 2891536
1964.3558 809.76831 2878.2202 2628363
1974.4187 806.91003 2868.0605 3352342
2032.6705 823.62634 2927.4766 3089171
2007.2191 806.43066 2866.3569 3088914
2028.5144 808.14722 2872.458 2364938
2043.6311 807.39417 2869.7812 2496523
2062.6216 808.17133 2872.5437 2694159
2096.9934 814.91321 2896.5068 2430984
2109.7158 813.20062 2890.4197 3220757
2128.0515 813.66193 2892.0593 2562827
2128.7388 807.42181 2869.8796 2891792
2145.1179 807.18536 2869.0393 2957586
2155.302 804.63983 2859.9915 3549723
2217.9937 821.58374 2920.2166 2431243
2207.2158 811.26166 2883.5278 1839876
2240.5742 817.19562 2904.6196 2563342
2238.124 810.07855 2879.3228 2432013
2237.5068 803.72748 2856.7488 2233608
2267.3618 808.33551 2873.1272 2825743
2279.3928 806.56769 2866.844 2694412
2274.4424 798.86169 2839.4539 2497035
2289.533 798.25623 2837.3015 2233864
2318.3459 802.40906 2852.0625 1510144
2361.5916 811.461 2884.2363 1115648
2388.5237 814.81763 2896.1672 2825743
2384.4092 807.61072 2870.5513 2694156
2404.9556 808.7995 2874.7764 2562570
2386.5444 796.96204 2832.7019 3286293
2453.9065 813.73315 2892.3125 2496778
2480.405 816.81476 2903.2659 2168071
2471.4382 808.25549 2872.8428 3549467
2483.5767 806.66827 2867.2014 2102278
2472.8779 797.7356 2835.4512 2957586
2518.5952 806.99994 2868.3804 3220757
2521.9163 802.64685 2852.9077 2628622
2544.9705 804.59033 2859.8154 2299657
2567.1802 806.24286 2865.6892 2168071
2578.6626 804.52679 2859.5896 3220759
2613.7412 810.14685 2879.5657 3023380
2622.0408 807.44769 2869.9717 2760208
2631.4475 805.12201 2861.7053 2365193
2642.7878 803.41388 2855.634 2233864
2663.1523 804.45343 2859.3289 2365450
2680.877 804.68744 2860.1606 2299656
2696.2227 804.20898 2858.46 2957587
2659.384 788.26849 2801.8015 2168071
2636.6792 776.68915 2760.6443 2760209
0 0 0 0
0 0 0 0
0 0 0 0
0 0 0 0
0 0 0 0
0 0 0 0
0 0 0 0
0 0 0 0
0 0 0 0
-2264.1199 737.40405 2566.9404 3024403
-2244.377 735.91852 2561.769 5590587
-2233.0859 737.20294 2566.2402 6775118
-2231.6086 741.76685 2582.1274 4538928
-2227.5771 745.539 2595.2585 4604209
-2192.512 738.90491 2572.1648 4341036
-2173.9912 737.7926 2568.293 4276015
-2151.9106 735.448 2560.1311 4012843
-2141.7734 737.18091 2566.1636 3222044
-2123.2556 736.03339 2562.1689 3288094
-2112.7156 737.65479 2567.8132 3748901
-2096.8457 737.42535 2567.0146 5328445
-2073.5762 734.57123 2557.0791 5525311
-2057.1362 734.11218 2555.4812 3551264
-2040.2435 733.48364 2553.2932 4802101
-2042.3354 739.72186 2575.0088 6513232
