# .PCD v0.7 - Point Cloud Data file format
VERSION 0.7
FIELDS x y z rgb
SIZE 4 4 4 4
TYPE F F F U
COUNT 1 1 1 1
WIDTH 1289
HEIGHT 1
VIEWPOINT 0 0 0 1 0 0 0
POINTS 1289
DATA ascii
2268.7886 1000.7347 3413.1951 2299143
2268.52 991.77393 3382.6328 2299398
2306.3086 999.46271 3408.8569 2891535
2342.688 1006.4128 3432.5613 2891535
2376.989 1012.358 3452.8384 2693898
2394.4231 1011.0792 3448.4771 2693898
2421.0461 1013.6695 3457.3118 2891534
2457.4536 1020.2786 3479.853 2825484
2468.6833 1016.4114 3466.6636 2694155
2535.1689 1035.1704 3530.6448 2957585
2529.0203 1024.2067 3493.2507 2760206
2541.4622 1020.8887 3481.9343 3681308
2588.5413 1031.4258 3517.8728 5128755
2584.5491 1021.6072 3484.3848 3286551
2641.0137 1035.6519 3532.2869 2365193
2632.6245 1024.2439 3493.3777 2693901
2662.6248 1027.833 3505.6189 2825742
2695.8245 1032.592 3521.8508 3023121
2711.4175 1030.5859 3515.0083 2430984
2719.186 1025.6589 3498.2039 3549465
2744.3503 1027.3184 3503.864 2759949
2771.1584 1029.5637 3511.522 2957328
2785.2766 1027.0959 3503.1055 3023121
2775.2126 1015.8135 3464.6243 2694156
2801.4409 1017.8832 3471.6833 2430984
2828.8066 1020.3329 3480.0386 2365191
2868.2449 1027.0702 3503.0171 2562315
2899.4673 1030.7898 3515.7036 2431499
2876.6714 1015.3893 3463.1775 1575936
2924.1045 1024.8204 3495.344 2497036
2974.3955 1035.1134 3530.4502 2891794
2986.6782 1032.1278 3520.2673 3220502
3035.3289 1041.6643 3552.7932 2497035
2991.6189 1019.5916 3477.51 3089942
3050.9851 1032.7104 3522.2544 2760721
3092.3452 1039.5977 3545.7446 2168583
3138.7012 1048.0601 3574.6072 1707779
3136.4937 1040.3016 3548.1458 1970951
3185.9077 1049.6544 3580.0449 2036744
3209.1914 1050.3311 3582.3528 1905157
3228.3955 1049.6724 3580.1062 1641987
3256.2549 1051.8181 3587.4248 2168587
3256.4119 1045.0459 3564.3267 2168586
3298.8069 1051.8285 3587.4602 2234638
3290.8892 1042.5846 3555.9324 2037257
3313.48 1043.0624 3557.5618 1839108
3331.5115 1042.1078 3554.3062 1773316
3362.6453 1045.238 3564.9824 1970691
3346.0259 1033.5785 3525.2148 1838849
3407.4958 1046.0354 3567.7014 1838593
0 0 0 0
0 0 0 0
0 0 0 0
0 0 0 0
0 0 0 0
0 0 0 0
0 0 0 0
0 0 0 0
0 0 0 0
-2149.4756 728.9494 2436.9629 5393722
-2154.3906 735.55829 2459.0571 5328186
-2188.2451 752.20514 2514.7095 5788482
-2164.9292 749.29327 2504.9749 5394238
-2150.2976 749.36761 2505.2234 5196856
-2132.3616 748.28345 2501.5989 4539186
-2105.5337 744.04199 2487.4192 3815206
-2097.1853 746.31689 2495.0244 3683620
-2060.1985 738.36029 2468.4246 4867636
-2024.6156 730.79663 2443.1384 4999480
-2014.4813 732.37604 2448.4185 3552034
-2027.1849 742.34143 2481.7339 2828311
-2011.2928 741.90442 2480.2729 3420448
-2006.6764 745.65076 2492.7974 3814436
-2007.6946 751.56195 2512.5593 4735536
-1981.7324 747.38623 2498.5994 4735791
-1985.8782 754.58795 2522.6755 4538670
-1980.2386 758.15247 2534.5923 5591613
-1953.7373 753.72339 2519.7852 6710094
-1940.8541 754.5202 2522.449 4998963
-1902.5798 745.38177 2491.8982 4802098
-1884.6997 744.15277 2487.7896 5526336
-1881.764 748.85162 2503.4983 5591618
-1867.8094 749.2052 2504.6804 4671029
-1869.9575 756.07532 2527.6479 3026209
-1855.5814 756.32123 2528.47 5131326
-1819.7745 747.76495 2499.8655 3749161
-1830.7074 758.43176 2535.5259 2894108
-1808.257 755.33051 2525.158 5196607
-1797.7579 757.21136 2531.446 3880744
-1786.8793 758.96265 2537.3008 3814694
-1778.6846 761.89343 2547.0986 2959383
-1761.4243 760.95789 2543.9709 6709840
-1747.704 761.54858 2545.9458 5526078
-1724.3512 757.91589 2533.8013 6578509
-1718.2913 761.88696 2547.0769 4801584
-1689.0647 755.56519 2525.9426 4801584
-1700.4906 767.47809 2565.7688 5064243
-1682.6624 766.28363 2561.7756 4603692
-1661.8195 763.68201 2553.0781 2828051
-1654.4526 767.28241 2565.1145 5393980
-1644.3566 769.67206 2573.1035 4341293
-1630.8553 770.49762 2575.8635 3025692
-1620.6173 772.89514 2583.8787 5131067
-1601.4745 771.05103 2577.7136 4736310
-1583.2892 769.63684 2572.9858 3552293
-1569.1971 770.20428 2574.8828 3881001
-1557.2386 771.84027 2580.3521 4012333
-1555.323 778.53583 2602.7361 1774604
-1538.525 777.84143 2600.4146 3353885
-1514.0283 773.20123 2584.9019 4735281
-1491.2333 769.34412 2572.0071 4538156
-1474.7349 768.68933 2569.8181 6512202
-1467.3218 772.80591 2583.5803 4867381
-1446.2405 769.73474 2573.313 4801331
-1446.5612 778.11023 2601.3132 2893333
-1430.9786 778.01965 2601.0105 2695956
-1433.2407 787.73486 2633.4895 3682853
-1428.8784 793.98291 2654.3777 1183234
-1412.7365 793.75171 2653.6045 4932662
-1394.7982 792.49463 2649.4021 7433824
-1386.1287 796.53522 2662.9102 2434068
-1373.8077 798.54639 2669.6338 3223326
-1354.7996 796.67212 2663.3679 5196863
-1346.2731 800.98993 2677.8027 5196351
-1327.8035 799.42432 2672.5688 1315081
-1319.6216 804.08954 2688.1653 2235925
-1288.7731 794.88861 2657.4053 4670780
-1281.8345 800.38947 2675.7954 2302488
-1271.9247 804.14972 2688.3662 3947314
-1241.1527 794.64832 2656.6021 3289123
-1228.4813 796.64056 2663.2622 4538930
-1211.8389 796.07593 2661.3748 6447183
-1187.8207 790.58752 2643.0261 4671028
-1178.22 794.67639 2656.6958 5657408
-1176.0933 803.98535 2687.8169 4670513
-1172.8274 812.7605 2717.1531 4406827
-1140.9055 801.64514 2679.9932 1971979
-1124.3739 801.18243 2678.4463 4143401
-1104.3396 798.1748 2668.3914 3288092
-1089.0071 798.5274 2669.5703 2893588
-1084.3173 806.80939 2697.2581 3551519
-1071.6575 809.32025 2705.6521 4472619
-1057.6818 810.8985 2710.9282 3814690
-1040.2898 809.86584 2707.4761 5262135
-1031.7438 815.79547 2727.2993 4538157
-1007.3916 809.2168 2705.3062 3880482
-992.22961 809.92712 2707.6809 4669999
-986.61884 818.58545 2736.6265 5656893
-969.60675 817.91541 2734.3865 5656893
-951.88788 816.61627 2730.0435 5459259
-932.37781 813.70898 2720.324 5656894
-925.43152 821.85718 2747.5642 3814178
-906.15411 819.1499 2738.5137 4866609
-895.84796 824.60175 2756.7397 3551008
-855.81323 802.38354 2682.4617 3617056
-849.76257 811.78961 2713.9075 4735796
0 0 0 0
0 0 0 0
-709.73511 718.83502 2403.1494 1578765
-793.85016 820.49255 2743.0024 3682853
-794.38409 838.20844 2802.2285 3288092
-774.89667 835.1037 2791.8491 2301453
-760.87469 837.8822 2801.1379 3090712
-734.98712 827.4267 2766.1841 4801076
-717.89471 826.6214 2763.4917 788225
-702.91125 828.26349 2768.9814 2037773
-691.47882 834.26843 2789.0566 2629655
-681.15771 841.9411 2814.7073 2761498
-655.05109 829.99756 2774.7786 2630422
-638.16113 829.41779 2772.8406 5130557
-624.8902 833.6355 2786.9407 4867384
-612.60522 839.43317 2806.323 5328446
-595.54791 838.8324 2804.3147 4538931
-577.32819 836.51306 2796.5608 3683623
-564.8479 842.61847 2816.9717 5130811
-548.17999 842.65851 2817.1057 5196604
-532.78876 844.72522 2824.0149 4867896
-517.62225 847.29388 2832.6023 3946796
-502.70477 850.45593 2843.1736 2762267
-486.41672 851.43829 2846.4578 5788745
-467.25229 847.27551 2832.5408 4341812
-447.75934 842.18451 2815.521 3749421
-426.2926 832.84326 2784.292 3815469
-414.21985 841.84155 2814.3745 2564890
-395.03958 836.54388 2796.6638 5986380
-378.59192 836.82233 2797.5947 4472884
-358.07697 827.72437 2767.1792 4801849
-345.20657 836.27228 2795.7559 4472370
-330.47565 840.94763 2811.386 4143404
-315.3049 844.94086 2824.7358 2761750
-295.99725 837.67432 2800.4429 4077609
-281.5585 844.14203 2822.0652 1577482
-266.54062 849.58075 2840.2476 3748133
-250.39008 851.89886 2847.9973 1182980
-234.73399 856.35614 2862.8984 2629653
-216.15564 850.01624 2841.7034 3748132
-198.08481 844.76947 2824.1628 3617059
-183.42542 854.4455 2856.511 4998712
-169.59424 870.3396 2909.647 1183239
-151.25346 864.06946 2888.6851 6446159
-135.00145 869.65411 2907.3552 3156762
-117.61625 868.50519 2903.5142 3288350
-101.2801 876.03638 2928.6919 3945767
-83.442871 871.01373 2911.9004 1117186
-66.253693 871.90015 2914.864 3419682
-48.402039 861.61908 2880.4932 3420197
-31.867598 876.3584 2929.7683 3420198
-14.489852 875.43317 2926.6753 4736316
2.8146367 863.28326 2886.0566 3025439
19.996048 866.66498 2897.3621 2235666
37.437981 872.99707 2918.531 2827290
55.207554 880.55304 2943.7917 3287841
72.304695 876.33057 2929.6753 4866617
89.94603 879.06171 2938.8057 3682855
108.94839 892.05054 2982.2292 3945771
125.61472 884.95624 2958.512 2564118
144.78561 895.0835 2992.3684 3879981
163.45638 900.24585 3009.627 1511692
178.05077 884.15045 2955.8181 1445384
194.73659 880.39368 2943.2588 4142637
215.58917 894.54364 2990.5637 5524034
234.22758 898.05457 3002.301 4603955
254.44121 906.68274 3031.1462 4538162
270.35263 899.85352 3008.3152 3353630
283.49472 885.2218 2959.3999 4669491
304.47015 895.3299 2993.1924 3682593
325.41632 904.24377 3022.9922 2893079
340.60672 897.06812 2999.0034 3156508
357.79297 895.6001 2994.0955 5590849
374.07025 892.10309 2982.4045 4472883
388.54327 884.81268 2958.0322 4078892
414.39523 902.94598 3018.6538 4276013
440.52148 920.15149 3076.1736 3749160
463.00922 928.69135 3104.7234 3748905
476.14722 918.54175 3070.7922 2103824
490.62671 911.63208 3047.6924 2564117
509.21033 912.56824 3050.822 2301201
525.04187 908.67712 3037.8137 5196090
541.19537 905.58289 3027.4692 3024665
561.9693 910.17041 3042.8059 3419422
584.27075 916.86981 3065.2026 2498065
602.48865 916.9502 3065.4714 3024409
616.67261 911.06628 3045.8008 3352863
636.9646 914.2843 3056.5591 2827032
658.28412 918.75842 3071.5166 2958618
671.39697 911.84607 3048.4077 3682341
673.99255 891.38629 2980.0083 4011304
702.17902 904.95239 3025.3613 3550753
721.97076 907.29333 3033.1875 2432529
749.48486 918.98938 3072.2888 3748391
772.18311 924.36572 3090.2625 3023637
790.21674 924.03851 3089.1685 3615259
810.18286 925.93463 3095.5073 3681052
819.9256 916.32135 3063.3691 3352857
847.28033 926.38086 3096.9993 3089945
868.935 929.9137 3108.8101 4800562
879.13306 921.29382 3079.9927 3616546
911.62866 935.9162 3128.877 2760982
930.92114 936.6709 3131.4001 2234895
946.20911 933.44562 3120.6177 2827033
971.08575 939.62201 3141.2661 1314313
977.26477 927.81451 3101.7922 2827032
1001.3643 933.14258 3119.6045 4274738
1016.1896 929.79181 3108.4026 3551011
1040.4901 935.07562 3126.0669 2366994
1063.0337 938.62329 3137.927 2103564
1061.4768 921.13495 3079.4614 2168843
1081.4436 922.59991 3084.3591 2432271
1113.0479 933.77936 3121.7332 1839878
1134.2794 936.03333 3129.2688 1839621
1156.2513 938.81604 3138.5718 1379072
1167.4218 932.87927 3118.7244 1444608
1200.5657 944.41284 3157.2822 1641728
1216.7893 942.48645 3150.842 3089173
1235.7616 942.71497 3151.6062 1971462
1265.0437 950.68469 3178.2498 3484444
1286.6483 952.73553 3185.1062 3089943
1273.5273 929.38531 3107.0435 3155481
1328.1388 955.42548 3194.0989 1839879
1332.3474 944.98486 3159.1946 2168844
1328.5464 929.23151 3106.5293 1313539
1379.0826 951.39465 3180.6233 1510917
1395.0874 949.45892 3174.1519 3221277
1421.108 954.30054 3190.3379 2300174
1444.149 957.04028 3199.4973 2497297
1471.5594 962.5672 3217.9746 1050624
1486.1113 959.64941 3208.22 2102797
1506.4132 960.4715 3210.9683 2497554
1526.5679 961.1803 3213.3379 1839625
1551.2175 964.66705 3224.9944 2365967
1563.7048 960.59741 3211.3892 1773831
1587.0164 963.19513 3220.0737 1839624
1623.2621 973.48785 3254.4834 1708039
1627.2593 964.42621 3224.1895 1313281
1649.1671 966.06683 3229.6741 1313280
1674.1338 969.44098 3240.9543 1576708
1708.2017 977.94916 3269.3982 1774085
1722.0449 974.81763 3258.929 3220502
1739.8799 973.99011 3256.1626 3878689
1770.1213 980.0498 3276.4209 2694158
1764.7517 966.4754 3231.04 2496779
1784.2318 966.65546 3231.6421 2826000
1821.2278 976.22058 3263.6191 2562829
1813.3086 961.76208 3215.283 2365450
1834.1611 962.70581 3218.438 3549467
1884.0482 978.71283 3271.9512 2167302
1868.7317 960.86731 3212.2915 3351575
1926.4027 980.53198 3278.0327 2496520
1931.4409 973.28162 3253.7939 2957327
1957.0718 976.44891 3264.3826 3088915
1991.78 984.03888 3289.7568 2957328
2011.0986 983.95221 3289.467 2825742
2041.9696 989.46503 3307.897 1707264
2062.1169 989.7262 3308.7703 3022864
2114.2354 1005.1826 3360.4424 2496777
2107.1543 992.46765 3317.9351 2891791
2123.3582 990.85352 3312.5388 2497036
2166.6624 1001.7993 3349.1321 2694415
2200.4453 1008.1841 3370.4768 2036484
2233.3901 1014.0734 3390.1658 1905157
2239.5996 1007.8267 3369.2825 1575680
2252.4714 1004.6621 3358.7026 1509632
2271.5752 1004.3082 3357.5195 2496777
2310.0088 1012.4323 3384.679 2825484
2340.145 1016.811 3399.3181 4733479
2354.3096 1014.2346 3390.7048 2430981
2398.179 1024.3905 3424.657 2299652
2432.5632 1030.3582 3444.6074 2431239
2457.0586 1032.0728 3450.3394 2760206
2485.7913 1035.524 3461.8779 2694157
2549.7217 1053.4617 3521.845 1248001
2555.8 1047.3993 3501.5781 3089171
2564.512 1042.5051 3485.2166 2760206
2570.0278 1036.4005 3464.8079 4470825
2586.4202 1034.7439 3459.2695 2825999
2595.0718 1030.0409 3443.5466 2431242
2624.7092 1033.676 3455.6995 1838849
2657.9905 1038.6787 3472.4241 2233864
2680.0991 1039.2721 3474.408 4010273
2699.2859 1038.7322 3472.6025 2431241
2696.9749 1029.9901 3443.3772 2957328
2695.0552 1021.5278 3415.0867 2628363
2742.876 1031.9045 3449.7773 2694156
2756.78 1029.4624 3441.6128 3088914
2759.3135 1022.8411 3419.4771 1904645
2771.5388 1019.8827 3409.5869 2101763
2776.9812 1014.4893 3391.5559 2167302
2814.2427 1020.7141 3412.366 2233864
2834.4651 1020.7141 3412.366 2299657
2854.8154 1020.7596 3412.5188 2826002
2910.2048 1033.2451 3454.259 2563089
2963.1904 1044.7087 3492.583 4076327
2962.3154 1037.1558 3467.3325 3221275
2997.8491 1042.3663 3484.752 3418654
3027.6277 1045.5181 3495.2891 3023895
3027.144 1038.2478 3470.9836 2958102
3064.2976 1043.8973 3489.8706 2892310
3063.554 1036.6473 3465.6333 2892310
3113.2083 1046.4342 3498.3516 2957846
3120.1465 1041.8284 3482.9539 2168330
3155.1853 1046.6042 3498.9202 1049856
3163.5549 1042.5293 3485.2971 2365708
3218.8965 1053.8859 3523.2637 2233866
3235.1516 1052.3817 3518.2349 2168074
3255.6138 1052.2563 3517.8157 2431501
3254.3181 1045.145 3494.0417 1904900
3282.1587 1047.4218 3501.6531 1707522
3302.2942 1047.2264 3501 1773315
3312.1279 1043.7869 3489.5015 2760210
3325.5537 1041.5153 3481.9067 1641474
0 0 0 0
0 0 0 0
0 0 0 0
0 0 0 0
0 0 0 0
0 0 0 0
0 0 0 0
0 0 0 0
0 0 0 0
-2136.4783 738.89624 2422.2271 4275756
-2136.3975 743.86621 2438.5195 4933687
-2140.2134 750.26996 2459.512 3551520
-2117.1819 747.28528 2449.7278 3683620
-2122.8945 754.47516 2473.2974 3420448
-2118.0559 757.98895 2484.8162 3552035
-2089.1282 752.87079 2468.0381 4144171
-2051.1826 744.40778 2440.2949 4407344
-2054.4214 750.8772 2461.5027 5262654
-2012.6462 740.8692 2428.6948 5657156
-2002.093 742.29279 2433.3616 3091487
-1990.8545 743.4812 2437.2573 2828058
-1994.9534 750.45648 2460.1235 1709833
-1956.7369 741.49921 2430.76 3090714
-1991.1173 760.12341 2491.8135 2827800
-1979.6041 761.37494 2495.916 5590847
-1966.1381 761.88849 2497.5996 3090712
-1952.1133 762.19165 2498.5935 4340777
-1953.0426 768.38287 2518.8892 4341035
-1911.598 757.86987 2484.426 3091224
-1894.1208 756.76959 2480.8191 4144171
-1873.7158 754.47321 2473.291 5657668
-1866.7629 757.59985 2483.5408 5131326
-1859.9978 760.85309 2494.2053 5526084
-1854.6997 764.76337 2507.0239 5197119
-1854.1141 770.69556 2526.4707 4736569
-1822.5333 763.73578 2503.6553 4078639
-1799.6307 760.32825 2492.4849 3223330
-1780.8861 758.6355 2486.9358 4604726
-1787.9508 768.00073 2517.6365 4933434
-1764.5684 764.33521 2505.6204 4407345
-1759.6853 768.68854 2519.8914 3091740
-1743.0676 767.94659 2517.459 4999479
-1725.3379 766.69751 2513.3645 7039062
-1724.8779 773.16779 2534.5752 4801584
-1680.288 759.79694 2490.7432 4275241
-1678.5171 765.72284 2510.1692 4274729
-1665.2935 766.48328 2512.6621 3946021
-1677.6998 779.16052 2554.2205 3946022
-1645.2661 771.05432 2527.6467 4143401
-1637.7021 774.56152 2539.144 2300941
-1622.7321 774.59845 2539.2651 3748643
-1608.0374 774.76892 2539.8237 3748643
-1606.7692 781.4726 2561.7996 4078380
-1594.1274 782.71973 2565.8879 3552036
-1573.2168 779.89172 2556.6172 6052427
-1560.3361 781.02814 2560.3425 5065275
-1560.3136 788.6864 2585.4475 3749415
-1541.2766 786.78979 2579.2305 1117444
-1522.4131 784.94482 2573.1821 5064249
-1486.7979 774.33795 2538.4111 5590592
-1483.3467 780.43689 2558.4045 4670514
-1453.5123 772.63739 2532.8364 7235669
-1454.0616 780.99463 2560.2327 6906704
-1436.5999 779.75195 2556.1592 4669999
-1450.634 795.76044 2608.6375 3288346
-1434.7549 795.52753 2607.8743 4274987
-1421.2375 796.61365 2611.4343 4801074
-1412.6719 800.52948 2624.2712 1577732
-1393.3037 798.3429 2617.1033 3485468
-1382.0404 800.80328 2625.1689 5788997
-1366.5934 800.86792 2625.3806 3354655
-1351.5989 801.20227 2626.4768 3946278
-1329.7401 797.42804 2614.1042 2498321
-1324.9609 803.92798 2635.4121 3090717
-1314.0343 806.80835 2644.8545 3748649
-1289.959 801.58777 2627.7405 2894109
-1285.3046 808.45532 2650.2534 5130815
-1258.7667 801.55774 2627.6421 2038544
-1250.2604 806.11334 2642.5762 2827804
-1226.201 800.62939 2624.5989 3354404
-1202.6642 795.35016 2607.2925 2564631
-1186.3295 794.75836 2605.3525 4670516
-1167.8884 792.72119 2598.6746 3881001
-1150.152 791.11438 2593.407 5525826
-1135.031 791.28735 2593.9741 5262654
-1140.616 806.09833 2642.5271 5657669
-1120.7979 803.11902 2632.7603 2236176
-1106.8313 804.30768 2636.657 4012843
-1093.0378 805.65796 2641.0833 5131067
-1061.8545 794.04352 2603.009 3749667
-1055.8713 801.20886 2626.4983 5920835
-1054.8564 812.41492 2663.2339 3551259
-1041.6346 814.41742 2669.7983 4406311
-1024.4658 813.34796 2666.2925 4998705
-1007.1592 812.13391 2662.3125 6249543
-990.17975 811.14923 2659.0847 4604717
-971.24829 808.50769 2650.4253 1380875
-959.44635 811.81183 2661.2568 3090716
-949.44586 816.77618 2677.5308 3222301
-935.14874 818.15021 2682.0352 4340782
-918.64215 817.60529 2680.2488 3353887
-898.95905 814.16431 2668.9685 5195833
-896.07416 826.08624 2708.0508 3288093
-876.92712 823.17767 2698.5159 5327675
-864.3844 826.47552 2709.3269 2564631
-839.78375 818.15106 2682.0378 5723204
0 0 0 0
0 0 0 0
-701.85474 724.93707 2376.4666 2893856
-772.05188 813.77203 2667.6826 5986123
-769.08008 827.58606 2712.9673 3223075
-758.61328 833.75262 2733.1824 4868411
-743.54431 835.0199 2737.3369 4078638
-730.70929 838.90845 2750.084 5328449
-718.10394 843.24414 2764.2971 1380613
-699.47284 840.5412 2755.4365 986116
-686.20245 844.30493 2767.7747 2827802
-665.31775 838.65485 2749.2527 3748649
-652.15106 842.69409 2762.4941 3946283
-639.83514 848.06909 2780.1143 4078126
-617.81616 840.52734 2755.3911 4670262
-601.09198 839.97516 2753.5811 3157283
-579.66656 832.63928 2729.5327 5590595
-566.01721 836.3725 2741.7708 3946024
-550.96741 838.19574 2747.7478 3814437
-534.75848 838.31305 2748.1323 4406318
-532.67828 861.28229 2823.4294 4604467
-511.75357 854.28375 2800.4868 5064763
-499.42084 861.63953 2824.6003 4801848
-481.70081 859.88861 2818.8606 5130557
-453.40942 838.46295 2748.6238 7104605
-435.35892 835.08398 2737.5469 4604727
-417.62399 832.0722 2727.6736 3618089
-404.76712 838.92828 2750.1489 2170387
-387.58398 837.0166 2743.8823 3946540
-373.97363 842.99121 2763.468 2762010
-358.97711 846.2453 2774.1355 4999228
-344.22861 850.4245 2787.8354 5590850
-322.88068 837.89893 2746.7749 5064503
-305.33545 834.43573 2735.4219 4735538
-291.16183 840.31488 2754.6948 5854788
-276.03009 843.96307 2766.6541 4210219
-264.63043 860.20337 2819.8923 4933175
-248.01472 860.53503 2820.9797 4406833
-231.29533 860.52875 2820.9592 4077610
-214.10049 858.61493 2814.6853 3485216
-197.74686 860.03625 2819.3445 3617059
-180.175 855.93262 2805.8921 2696215
-166.84996 873.22046 2862.5647 5656385
-148.50185 865.15778 2836.1338 3025180
-131.64973 864.86487 2835.1736 6315341
-115.42788 869.23242 2849.4912 4341299
-99.694061 879.40198 2882.8289 4078383
-82.896301 882.45184 2892.8267 3419940
-65.423462 878.03198 2878.3376 2696216
-48.18655 874.77759 2867.6692 1972494
-31.075916 871.51825 2856.9846 3090975
-14.345942 883.91046 2897.6084 4341044
2.7978146 875.12482 2868.8076 2827803
19.758451 873.33344 2862.9351 6644053
36.661663 871.83173 2858.0122 3748904
54.355911 884.14594 2898.3801 4078383
70.382454 869.93335 2851.7891 4538162
86.915962 866.27747 2839.8044 3880234
104.49777 872.5611 2860.4031 4340529
121.33012 871.70605 2857.6001 4603699
137.75218 868.47375 2847.0042 3485733
158.60394 890.82697 2920.282 3617064
173.94194 880.85974 2887.6077 3946028
193.73155 893.20227 2928.0684 5394244
212.35268 898.57104 2945.6682 3353889
231.48241 905.11298 2967.1135 5919816
248.68823 903.73956 2962.6113 2959132
265.16046 900.05713 2950.54 3090716
281.62946 896.82013 2939.9285 5788230
299.67947 898.7016 2946.0962 3156769
318.29498 901.97827 2956.8376 3090715
337.81628 907.34595 2974.4338 5196091
354.22806 904.24347 2964.2634 1643790
369.14072 897.78827 2943.1021 3880231
387.53644 900.00439 2950.3669 4011817
413.04456 917.83386 3008.8149 3156765
435.19559 927.03644 3038.9824 2893851
451.55072 923.6521 3027.8882 2433302
471.35715 927.31622 3039.8999 1709066
488.42844 925.52795 3034.0374 2498069
493.35526 901.67084 2955.8298 1840139
520.86115 919.30103 3013.6245 3616806
535.76428 914.25629 2997.0872 2169360
550.83459 909.81152 2982.5164 2103309
573.26819 917.42688 3007.4807 2432273
588.099 912.78284 2992.2568 2827288
602.79816 908.21216 2977.2734 2892569
627.74628 918.90411 3012.3235 3484961
638.66681 909.03882 2979.9832 1708551
657.89563 911.21167 2987.1062 2103309
677.23309 913.41724 2994.3364 3879718
691.65808 909.05353 2980.0315 5261371
717.57007 919.62872 3014.699 2892566
739.94598 925.26855 3033.1873 4142121
751.66388 917.62952 3008.145 3747360
755.9353 901.46436 2955.1531 2760464
795.21747 926.83667 3038.3279 3352601
815.82983 929.8075 3048.0667 3681566
838.50122 934.94543 3064.9094 3748129
854.24731 932.30743 3056.2617 2300172
874.19989 934.27435 3062.7097 3287323
899.67065 941.93884 3087.835 4010789
917.68494 941.64648 3086.8767 4471597
927.67932 933.297 3059.5059 4405806
934.75159 922.38446 3023.7324 4735285
968.73541 937.93817 3074.7202 4406576
991.46594 942.22339 3088.7678 4801335
1002.8286 935.74567 3067.533 2695959
1021.2407 935.95947 3068.2336 3814696
1031.3716 928.7088 3044.4648 1971982
1048.3011 927.72412 3041.2371 3879976
1074.4456 934.79004 3064.4001 3747875
1092.1874 934.43195 3063.2263 2235410
1116.0154 939.20764 3078.8818 2826771
1134.4459 939.36035 3079.3823 2958357
1158.3232 943.9469 3094.418 1904900
1183.0966 949.10938 3111.3413 1971719
1195.0142 943.95837 3094.4556 3221529
1203.2717 936.11584 3068.7463 1773830
1241.5911 951.54578 3119.3284 2826517
1268.219 957.69427 3139.4841 2431760
1286.7163 957.61401 3139.2209 2563344
1313.0682 963.29828 3157.855 2365966
1313.7773 950.27502 3115.1626 2103049
1337.9044 954.31635 3128.4109 3023893
1353.7761 952.43939 3122.2578 2760721
1374.2147 953.78284 3126.6616 3353115
1390.073 951.95355 3120.665 4340011
1388.2236 938.20502 3075.5952 2103049
1419.2843 946.76636 3103.6606 2432015
1457.3242 959.70459 3146.0742 3023898
1461.7189 950.43915 3115.7007 3550241
1484.3301 953.10205 3124.4299 2694933
1509.5774 957.37085 3138.4241 3221276
1534.2008 961.14514 3150.7966 2629139
1541.8978 954.35199 3128.5276 1905415
1579.5876 966.06366 3166.9207 2037001
1607.9122 971.8399 3185.856 3747619
1614.4127 964.44434 3161.6121 1774091
1638.611 967.66986 3172.1858 3221274
1683.4915 982.89728 3222.104 1774086
1679.9646 969.83783 3179.293 1642500
1693.6826 966.91309 3169.7051 1839365
1704.1621 962.22388 3154.333 2825746
1736.7601 969.98981 3179.791 3023381
1758.2722 971.46393 3184.6235 2694415
1781.6482 973.92554 3192.6931 2497036
1802.7145 975.08618 3196.4978 2957330
1819.8942 974.14221 3193.4033 1707266
1830.6697 969.82495 3179.2507 2497036
1872.2367 981.74194 3218.3164 2364936
1907.8103 990.30737 3246.3953 2562570
1921.8914 987.65668 3237.7061 2694156
1945.6256 989.97034 3245.2905 2628363
1976.0256 995.59705 3263.7358 2759949
1986.485 991.16528 3249.2078 2693386
2020.1461 998.28394 3272.5439 3023121
2047.8893 1002.3706 3285.9409 2694155
2067.9624 1002.6615 3286.8943 3154706
2084.3738 1001.1882 3282.0647 3220499
2105.917 1002.1842 3285.3298 3286292
2124.9038 1001.9565 3284.5835 3023376
2154.2036 1006.5518 3299.6472 3417878
2203.2053 1020.1873 3344.3469 1641473
2204.1997 1011.5482 3316.0266 1970179
2227.7327 1013.3138 3321.8142 1575680
2249.071 1014.0589 3324.2568 2035971
2262.3218 1011.1761 3314.8069 2628106
2286.6765 1013.2635 3321.6494 3023119
2318.0986 1018.4201 3338.5537 2759948
2365.6658 1030.5225 3378.2273 3023633
2394.9731 1034.5342 3391.3784 2299910
2439.8049 1045.1293 3426.1108 1904897
2466.907 1048.0173 3435.5784 1773312
2492.052 1050.0334 3442.1877 3089173
2525.0061 1055.2806 3459.3889 2300427
2553.7517 1058.6986 3470.5933 3287065
2565.5376 1055.087 3458.7544 3089686
2562.8647 1045.6338 3427.7649 3484187
2567.4895 1039.2832 3406.9463 3747358
2598.876 1043.7799 3421.6873 3747103
2584.2432 1029.8673 3376.0798 2431242
2642.8433 1045.1292 3426.1106 3023380
2647.8108 1039.1105 3406.3804 3023377
2646.8149 1030.8605 3379.3352 3549721
2661.6436 1028.8512 3372.7485 2957071
2707.7585 1038.8752 3405.6094 2891535
2709.6853 1031.923 3382.8186 2957328
2757.7898 1042.5295 3417.5886 2628362
2751.8945 1032.7167 3385.4202 2036486
2758.3364 1027.6421 3368.7849 2891794
2761.7649 1021.5258 3348.7349 2497037
2804.4956 1029.9303 3376.2861 2102279
2808.7109 1024.1715 3357.4077 2891795
2876.0713 1041.3569 3413.7444 2760465
2870.1863 1031.9672 3382.9631 3221016
2956.325 1055.5649 3460.3208 4339498
2953.4961 1047.2904 3433.1953 3682082
2952.1123 1039.6379 3408.1094 2760468
2968.5701 1038.33 3403.8215 2695185
2971.5601 1032.3608 3384.2537 2497036
3018.7781 1041.7339 3414.9805 2826001
3071.9055 1053.0081 3451.939 2892050
3048.6235 1038.1143 3403.1143 3221271
3011.448 1018.7161 3339.5239 3681053
3113.3435 1046.3092 3429.979 2562573
3157.1575 1054.1514 3455.687 2497036
3169.9641 1051.6062 3447.3433 2365451
3196.7725 1053.7086 3454.2354 2431244
3212.0991 1052.0239 3448.7129 2233866
3230.2515 1051.2802 3446.2744 1378560
3233.0737 1045.5879 3427.6145 1575937
3263.7776 1048.9274 3438.5618 1575937
3272.4968 1045.2039 3426.3552 1970438
0 0 0 0
0 0 0 0
0 0 0 0
0 0 0 0
0 0 0 0
0 0 0 0
0 0 0 0
0 0 0 0
0 0 0 0
0 0 0 0
-2121.843 753.15131 2421.907 5394493
-2129.3159 760.95105 2446.9885 5986374
-2105.1504 757.47375 2435.8066 4078377
-2090.4255 757.36877 2435.469 2630675
-2079.7661 758.74554 2439.8962 3419679
-2052.2556 753.95074 2424.4778 2498576
-2004.5577 741.61981 2384.8252 2959642
-1982.2913 738.58936 2375.0801 3551782
-1988.8021 746.31439 2399.9216 3486245
-1998.6522 755.41296 2429.1797 3485988
-1985.2319 755.78436 2430.374 2038543
-1966.7931 754.23663 2425.397 1446662
-1939.3961 749.20544 2409.2183 5130296
-1948.0089 758.11377 2437.8647 4406829
-1965.0822 770.47247 2477.6064 5328183
-1949.7098 770.20013 2476.7307 5920322
-1931.6487 768.85333 2472.3999 3815202
-1912.8021 767.17096 2466.99 4143910
-1884.9575 761.82611 2449.8025 3486495
-1876.3799 764.24554 2457.5828 4736051
-1852.3234 760.34912 2445.053 5131066
-1858.4451 768.87665 2472.4749 4670774
-1858.0292 774.81329 2491.5654 4012332
-1850.2588 777.75372 2501.021 3946540
-1835.924 777.96002 2501.6843 4275762
-1816.4425 775.97107 2495.2883 4209968
-1790.8022 771.29681 2480.2573 5525573
-1774.2947 770.51123 2477.7312 1314569
-1767.869 774.1272 2489.3591 3617576
-1755.8601 775.33868 2493.2549 4144176
-1726.5953 768.88635 2472.5061 2959388
-1706.8275 766.58899 2465.1184 1446405
-1732.281 784.73761 2523.4788 4801846
-1710.3508 781.55011 2513.2288 6117192
-1685.126 776.78784 2497.9148 4604468
-1673.1981 778.12506 2502.2148 3683621
-1664.5388 781.01971 2511.5234 4144171
-1633.7147 773.4729 2487.2551 5394494
-1628.3547 777.95428 2501.6658 4078378
-1615.1246 778.72339 2504.1392 4209964
-1610.0679 783.48407 2519.448 3815206
-1583.6793 777.85638 2501.3511 3880999
-1579.7871 783.27631 2518.7798 4407345
-1555.283 778.48248 2503.3643 7565408
-1545.8135 781.19427 2512.0845 3420449
-1530.4735 780.96326 2511.3416 5460029
-1531.5366 789.17981 2537.7637 5460029
-1519.5201 790.75287 2542.8223 4406574
-1507.0386 792.11304 2547.196 3617060
-1481.7134 786.68164 2529.7305 4735797
-1459.5233 782.8208 2517.3152 5130040
-1441.5544 781.16766 2511.999 4669489
-1424.6918 780.08569 2508.5198 6972243
-1432.8131 792.80511 2549.4216 5854274
-1432.1548 800.88586 2575.4067 4011813
-1439.1244 813.45233 2615.8167 5327673
-1406.6353 803.74579 2584.6035 3288094
-1390.9615 803.53979 2583.9409 5459261
-1363.2393 796.2912 2560.6318 3222555
-1360.2288 803.47662 2583.738 4143402
-1341.7112 801.56134 2577.5791 5722431
-1333.3751 805.7547 2591.0637 3683620
-1310.41 801.10254 2576.1035 2959900
-1290.9127 798.48566 2567.6885 4802103
-1283.0089 803.06293 2582.4077 3814953
-1268.5699 803.61084 2584.1694 2894107
-1255.0951 804.79028 2587.9624 4604468
-1233.1366 800.49176 2574.1396 6249551
-1222.437 803.48596 2583.7681 3025438
-1212.3544 806.96674 2594.9609 5262400
-1175.499 792.48761 2548.4004 2762266
-1173.5229 801.45209 2577.2275 3157024
-1154.7498 799.03021 2569.4397 4538674
-1142.6483 801.22192 2576.4875 4670260
-1136.4342 807.65704 2597.1809 5064759
-1130.7009 814.61523 2619.5564 5459772
-1117.8611 816.57605 2625.8618 4472620
-1105.616 819.03265 2633.7615 3617571
-1081.9006 812.94098 2614.1726 4143915
-1062.4437 809.9187 2604.4536 4867892
-1039.704 804.2677 2586.2817 5328443
-1016.077 797.75098 2565.3259 5393722
-1014.9241 808.94952 2601.3369 5393722
-1015.6951 822.05042 2643.4656 2762003
-1002.5973 824.16132 2650.2537 4801332
-978.5752 817.21649 2627.9211 3946280
-972.39288 825.18604 2653.5488 3814952
-955.94171 824.56018 2651.5361 3222813
-945.59424 829.26605 2666.6689 1249029
-925.84534 825.74695 2655.3528 3157278
-916.9035 831.91156 2675.176 4867640
-906.38708 836.83917 2691.022 4275244
-884.21692 830.99121 2672.2166 5525566
-869.14642 831.72382 2674.5725 4867122
-853.09424 831.52692 2673.9392 5656894
-831.14093 825.46167 2654.4353 3354654
0 0 0 0
0 0 0 0
-704.85443 742.17908 2386.6235 2894111
-761.35028 818.08228 2630.7053 8815477
-753.03992 826.06799 2656.385 6051910
-735.34625 823.88171 2649.3545 5196342
-727.49506 832.86804 2678.252 4406825
-721.46747 844.38965 2715.3018 4274987
-707.32074 846.71765 2722.7878 2959383
-693.66626 849.75732 2732.5627 3748644
-682.13013 855.59937 2751.3489 3420196
-663.92871 853.16254 2743.5129 722947
-639.38025 842.24261 2708.3975 3617575
-630.30316 851.66498 2738.6973 4604470
-615.20374 853.23322 2743.7402 4538677
-589.41791 839.66302 2700.1025 4341297
-570.15015 834.88013 2684.7219 4275761
-552.37036 832.06384 2675.6658 4538677
-536.59967 832.19702 2676.094 4143403
-526.86145 841.97888 2707.5496 2695704
-517.427 852.87585 2742.5911 3024923
-496.39581 844.74481 2716.4441 1774857
-485.67816 854.20825 2746.8755 3288094
-466.3364 848.63385 2728.95 3946538
-448.60141 845.68805 2719.4771 5591620
-434.32388 849.28333 2731.0383 5394500
-413.94016 840.75476 2703.613 4078639
-398.763 842.54022 2709.3545 3156768
-389.51352 857.52539 2757.5422 3813924
-372.48904 855.95667 2752.4978 3287837
-357.88486 860.06049 2765.6946 3616545
-340.06421 856.45764 2754.1089 4931893
-320.58179 848.09528 2727.218 4077351
-306.17731 852.99182 2742.9639 5195831
-290.61459 855.02979 2749.5173 4340520
-275.07962 857.3963 2757.1272 5195830
-254.06369 841.89923 2707.2935 4932917
-243.3342 860.69727 2767.7422 4011817
-226.80296 860.20789 2766.1687 4012076
-211.57651 864.97668 2781.5034 4275506
-195.13266 865.15369 2782.0728 3551783
-179.3389 868.51172 2792.8711 1972751
-161.97983 864.20123 2779.01 2629913
-146.06262 867.47845 2789.5486 3222306
-129.69382 868.56775 2793.0513 6248526
-113.87401 874.19037 2811.1318 3485730
-98.385544 884.71954 2844.9907 3880232
-80.684418 875.5918 2815.6387 3551268
-63.954132 874.98694 2813.6936 2827806
-47.289768 875.1756 2814.3 2366739
-30.746086 879.01965 2826.6614 1578255
-14.000791 879.40289 2827.894 919553
2.7392411 873.44904 2808.748 4274482
19.470242 877.31329 2821.1743 3354148
36.164215 876.70947 2819.2327 3485736
52.138 864.54523 2780.1162 3815724
69.896957 880.71631 2832.1174 5328454
86.179977 875.62885 2815.7576 3748647
103.04977 877.18658 2820.7671 4011818
119.71535 876.81396 2819.5688 3288095
135.89775 873.42719 2808.6777 4603956
153.71451 880.13739 2830.2559 4340784
171.37262 884.70837 2844.9546 3090977
188.07425 883.96478 2842.5637 3946283
205.61856 886.97876 2852.2554 5854280
221.57889 883.22089 2840.1714 4867385
240.68991 891.66583 2867.3276 4143662
258.62839 894.93958 2877.8552 3946026
279.59802 907.64819 2918.7222 2103824
298.5618 912.7439 2935.1084 3354407
317.17563 916.26758 2946.4395 2893337
331.83786 908.6037 2921.7947 4274988
351.41611 914.49274 2940.7324 2695700
366.45465 908.56995 2921.6865 3419423
380.74026 901.39899 2898.6267 2038031
393.17767 890.66052 2864.095 3419422
423.51364 919.67828 2957.4072 4406319
440.39774 918.33923 2953.1013 3879975
465.01343 932.60864 2998.9875 3682599
481.86206 930.82373 2993.2478 2235923
492.1185 916.88342 2948.4199 2038547
507.09698 912.39526 2933.9873 3288357
513.008 892.43079 2869.7876 2104084
542.20636 912.95844 2935.7983 2366741
560.3551 914.18304 2939.7363 1116675
580.73596 918.86536 2954.7932 788227
595.71753 914.98083 2942.3018 2892829
620.29071 925.63025 2976.5471 2103568
633.06506 918.57074 2953.8457 2169359
654.04285 923.47394 2969.613 3879977
669.14368 920.03967 2958.5696 2103821
678.6524 909.28827 2923.9961 2958874
706.17352 922.60516 2966.8193 4471857
717.69366 914.87781 2941.9705 2366740
736.46545 916.54175 2947.3213 3616294
750.71448 912.63037 2934.7434 3813672
774.38702 920.09277 2958.7402 4405550
795.92786 924.74786 2973.7097 2958363
815.89038 927.40747 2982.262 2168588
844.94763 940.07269 3022.9897 5392957
859.51044 936.42078 3011.2461 2695444
871.89459 930.59198 2992.5024 2432272
901.69287 943.21149 3033.083 2695189
913.50995 936.89624 3012.7751 1577222
935.76611 941.32416 3027.0139 3484961
939.4519 927.25623 2981.7759 3418913
946.00122 916.48199 2947.1292 3879720
983.71826 935.74609 3009.0767 4406062
1012.7251 946.1864 3042.6494 4800821
1019.3888 935.75128 3009.0933 2827032
1041.7939 939.87665 3022.3591 1840139
1050.1298 931.38403 2995.0496 3550242
1075.2139 937.78137 3015.6213 2234382
1086.7122 932.3139 2998.0396 2432016
1124.5415 949.24878 3052.4973 1971461
1140.9723 947.87067 3048.0654 3549465
1163.2697 951.33313 3059.2 2235145
1188.1226 956.74731 3076.6101 2629904
1198.9115 950.84381 3057.6262 3879971
1221.6633 954.4624 3069.2625 1576965
1245.5237 958.82825 3083.3018 2037258
1238.816 939.87622 3022.3579 1708041
1272.2108 951.45612 3059.5952 2629138
1301.7915 959.89801 3086.7419 1444865
1308.0297 951.13257 3058.5549 2299657
1319.9973 946.71606 3044.3528 3023378
1336.7103 945.77625 3041.3303 3483929
1358.2765 948.24933 3049.2832 1838851
1379.6633 950.53406 3056.6301 2628363
1401.2887 952.92163 3064.3081 3154963
1409.8682 946.49017 3043.6262 2233607
1443.1843 956.61786 3076.1938 2496780
1446.34 946.75037 3044.4629 2694674
1480.6443 957.2641 3078.272 2365709
1500.2625 958.14264 3081.0972 1379074
1523.7469 961.43964 3091.6992 2037001
1547.9363 965.09772 3103.4626 2168330
1569.4514 967.02228 3109.6511 1576451
1580.8624 962.74854 3095.9082 2497552
1590.0127 957.21198 3078.1042 2037001
1644.3501 978.69586 3147.1899 2037001
1657.8499 975.66425 3137.4414 1839622
1674.8694 974.74847 3134.4963 1641730
1652.8032 951.35498 3059.2703 2431245
1682.532 957.95886 3080.5061 1444354
1730.3033 974.58337 3133.9656 2300428
1754.0358 977.4588 3143.2119 3023637
1776.212 979.41565 3149.5046 3615774
1794.21 979.05182 3148.3347 1707522
1811.0022 978.04443 3145.0952 1444608
1834.3677 980.57117 3153.2205 1575680
1854.0282 981.08661 3154.8779 2496777
1908.4174 999.78534 3215.0073 2694156
1916.3282 994.00598 3196.4229 2299398
1937.9319 995.37268 3200.8176 2759949
1959.3809 996.63434 3204.8748 2561543
2010.4312 1012.7838 3256.8064 2628363
2045.271 1020.5374 3281.7397 2759950
2019.1835 998.03021 3209.3635 2825742
2041.5166 999.65283 3214.5813 2825742
2074.7117 1006.515 3236.6479 2694155
2088.0759 1003.7189 3227.6567 3746587
2117.4478 1008.5983 3243.3474 2430984
2158.229 1018.7759 3276.0754 3812637
2176.2439 1018.1209 3273.9692 2102276
2200.1162 1020.1937 3280.6345 3418138
2232.0437 1025.9327 3299.0896 1575939
2248.8716 1024.6919 3295.0994 1444352
2265.4248 1023.3483 3290.7788 1575936
2293.1731 1027.0417 3302.6558 1510144
2316.9563 1028.9116 3308.6687 4799789
2346.8315 1033.4329 3323.2078 3089171
2413.2471 1053.8356 3388.8169 3418136
2443.8232 1058.3802 3403.4307 2826001
2467.4321 1059.8574 3408.1812 1970435
2491.7737 1061.623 3413.8586 2168330
2517.7046 1064.0319 3421.6047 2629135
2511.5579 1052.9537 3385.981 2102537
2545.9822 1058.9257 3405.1848 2300173
2547.8291 1051.3605 3380.8577 2234380
2558.5801 1047.5591 3368.6333 2102794
2551.3447 1036.5094 3333.1008 2431243
2577.9871 1039.2869 3342.0325 2102021
2589.717 1036.0562 3331.6433 2694414
2629.5405 1044.0284 3357.28 2365449
2650.4272 1044.4188 3358.5354 2628362
2661.3323 1040.8993 3347.2178 2891535
2662.8701 1033.7955 3324.3738 3154706
2696.0908 1039.0056 3341.1279 2299657
2681.0645 1025.6823 3298.2839 2562829
2720.4121 1033.2026 3322.4675 2168071
2741.8398 1033.858 3324.575 1839622
2768.511 1036.467 3332.9648 1051140
2795.0522 1038.991 3341.0808 1313798
2841.3542 1048.7731 3372.5371 2168074
2895.4744 1061.2842 3412.769 2365452
2903.1558 1056.7185 3398.0874 2299657
2919.2512 1055.2573 3393.3884 2694158
2910.4182 1044.8665 3359.9749 2431242
2925.6501 1043.1978 3354.6086 3286552
2937.0303 1040.1874 3344.9282 3154966
2941.2969 1034.7148 3327.3303 2497036
2986.458 1043.6057 3355.9204 2825744
3008.1028 1044.2156 3357.8816 3154966
2985.2109 1029.4589 3310.4285 3812639
3040.1626 1041.5642 3349.3555 3220759
3099.9441 1055.1564 3393.064 2628622
3120.376 1055.2659 3393.416 2365449
3150.4014 1058.5977 3404.1299 2497037
3157.7546 1054.3171 3390.3652 2562829
3189.4927 1058.1809 3402.79 2496780
3190.051 1051.7167 3382.0027 2694675
3233.939 1059.5291 3407.1252 1839878
3247.1304 1057.25 3399.7964 2497552
0 0 0 0
0 0 0 0
0 0 0 0
0 0 0 0
0 0 0 0
0 0 0 0
0 0 0 0
0 0 0 0
0 0 0 0
-2026.6656 728.15143 2297.7273 2960414
-2096.5713 758.36285 2393.0613 1315339
-2093.5596 762.43073 2405.8977 1644298
-2094.1108 767.8609 2423.033 2499348
-2061.6597 761.18127 2401.9551 2828312
-2062.5156 766.7915 2419.6584 2828313
-2034.7841 761.77783 2403.8374 2894105
-1991.151 750.69824 2368.8752 3749158
-1986.4913 754.25928 2380.1123 4670772
-1966.1395 751.87054 2372.5745 3552547
-1977.7927 761.77448 2403.8269 6381646
-1982.4285 769.09967 2426.9419 3946537
-1926.0422 752.68488 2375.144 1182979
-1922.0032 756.63599 2387.6121 4209193
-1935.8025 767.72021 2422.5891 4274727
-1947.7183 778.21747 2455.7139 5130037
-1917.2347 771.8045 2435.4773 4998960
-1898.7521 770.16199 2430.2942 3288604
-1875.46 766.52863 2418.8289 3091482
-1870.8317 770.52618 2431.4436 3354659
-1852.7015 768.98175 2426.5701 4078381
-1848.9115 773.41187 2440.5493 3815209
-1851.5259 780.61182 2463.2693 4012333
-1845.5306 784.26758 2474.8052 3683369
-1838.3193 787.46094 2484.8821 4012846
-1815.964 784.16644 2474.4861 7170908
-1796.3601 782.01605 2467.7004 4802104
-1777.8179 780.29633 2462.2739 4144174
-1748.556 773.80438 2441.7881 3552038
-1750.9583 781.33356 2465.5469 3946540
-1718.8134 773.44373 2440.6499 2630682
-1724.9227 782.77991 2470.1108 3814954
-1698.0323 777.1723 2452.4158 5920330
-1680.2751 775.68414 2447.7197 3156766
-1676.8875 780.86139 2464.0569 2367249
-1670.7764 784.85028 2476.644 5196603
-1654.7366 784.20453 2474.6062 4209451
-1663.338 795.32941 2509.7117 3223069
-1626.7969 784.87524 2476.7229 5196858
-1616.1678 786.84637 2482.9429 5460286
-1589.1129 780.78314 2463.8098 6249802
-1580.3983 783.70215 2473.021 4868151
-1558.5709 780.11237 2461.6934 3749670
-1562.1179 789.27557 2490.6084 4275760
-1544.9723 788.05865 2486.7683 5131066
-1539.1692 792.65961 2501.2869 5196859
-1519.0747 789.91846 2492.6372 5460031
-1510.3552 793.09668 2502.666 4407343
-1493.4279 791.98505 2499.1584 4735795
-1492.0048 799.15576 2521.7859 3945766
-1488.3596 805.26929 2541.0776 1446408
-1456.7374 796.21631 2512.5103 2103561
-1431.4563 790.47784 2494.4023 4801074
-1417.3219 790.83954 2495.5435 4867124
-1425.8875 804.0083 2537.0986 5656893
-1412.6885 805.05487 2540.4009 3485468
-1417.4845 816.48932 2576.4829 4735535
-1405.3589 818.31946 2582.2583 4538413
-1372.6694 808.08417 2549.9602 6512203
-1355.2366 806.70251 2545.6001 2564623
-1343.7596 808.87476 2552.4548 5064756
-1327.5366 808.20721 2550.3484 4669487
-1299.1902 800.05841 2524.6343 6117959
-1287.1737 801.89313 2530.4238 4407344
-1275.7008 804.11371 2537.4312 4538677
-1255.0156 800.51123 2526.0632 2235924
-1254.8342 810.05817 2556.189 3486503
-1246.8881 814.76434 2571.0398 3683883
-1225.5156 810.70532 2558.2312 5394500
-1208.3667 809.3736 2554.0288 4341042
-1197.0197 811.94342 2562.1382 4210481
-1159.0587 796.2951 2512.7588 3026207
-1149.7139 800.15509 2524.9395 3551781
-1144.2969 806.88654 2546.1809 4078122
-1122.6434 802.19604 2531.3796 4011816
-1103.0935 798.90186 2520.9846 5196088
-1099.4939 807.22766 2547.2573 3946022
-1092.3894 813.17621 2566.0283 5328188
-1079.964 815.276 2572.6543 4868150
-1071.0812 820.14844 2588.0298 2762262
-1056.1926 820.49701 2589.1296 4011812
-1034.7064 815.65503 2573.8503 2498318
-1011.0234 808.91022 2552.5669 4801329
-1004.851 816.18372 2575.5188 4669744
-1003.7189 827.83844 2612.2959 5656896
-995.41846 833.85358 2631.2771 4209964
-965.51489 821.67542 2592.8481 5262654
-970.92224 839.63977 2649.5356 3881001
-952.13202 836.92493 2640.9688 4407602
-936.45911 836.90527 2640.907 3486500
-921.62903 837.65106 2643.2603 4012586
-908.11877 839.64282 2649.5454 3420448
-899.00116 845.83765 2669.0935 3814950
-882.9729 845.63593 2668.457 3223069
-865.81317 844.32343 2664.3154 5196860
-846.63074 840.95306 2653.6799 6183755
-812.59021 822.4173 2595.1892 4999737
0 0 0 0
-704.83118 741.42041 2339.5984 196608
-707.87384 759.56256 2396.8472 3288865
-741.68799 812.14233 2562.7659 3486241
-741.22723 828.6051 2614.7151 5723711
-728.64453 831.9306 2625.209 2959893
-712.50836 831.25555 2623.0789 4143399
-685.57275 817.67017 2580.2092 4736048
-691.80023 843.9201 2663.0425 4209962
-672.50659 839.53595 2649.2083 4144170
-662.05438 846.24353 2670.3743 4078637
-649.20032 850.13416 2682.6516 3552040
-634.20276 851.34296 2686.4658 2827543
-615.45428 847.44897 2674.1782 2498579
-604.51233 854.38263 2696.0576 2958873
-583.41992 846.95715 2672.6262 3419680
-566.32562 845.08331 2666.7131 3090713
-548.23279 841.56903 2655.6235 3353887
-534.46289 844.67908 2665.4377 3748388
-516.84149 841.7063 2656.0566 3814437
-505.74091 849.49969 2680.6494 3090973
-490.10352 849.93103 2682.0105 2827545
-480.76297 861.67712 2719.0762 2959132
-459.13083 851.4436 2686.7834 2762012
-443.4306 851.87054 2688.1309 722693
-430.98132 858.80737 2710.0203 4538163
-417.85123 864.87213 2729.158 4998712
-399.5191 860.22437 2714.4917 5129786
-383.60211 860.60504 2715.6929 3814180
-366.9216 859.23102 2711.3572 1775114
-349.99008 857.11658 2704.6848 2695703
-335.51935 861.11462 2717.301 853248
-318.10062 857.56836 2706.1104 2432530
-302.70105 859.37805 2711.821 1577478
-285.77487 856.81348 2703.7285 1774341
-270.1608 858.112 2707.8259 4011815
-256.45605 866.02209 2732.7866 4998964
-242.42453 873.8205 2757.3953 5656895
-223.93997 865.53528 2731.2507 4078126
-208.62497 869.16388 2742.7009 1117447
-192.33107 868.98285 2742.1296 3946542
-177.6792 876.87207 2767.0244 1709582
-160.21288 871.0636 2748.6956 2038546
-144.17615 872.59247 2753.52 2696474
-128.26057 875.33856 2762.1855 3354147
-110.31171 862.98157 2723.1921 3485475
-94.482506 865.81317 2732.1277 4735538
-78.389153 866.8949 2735.541 4472367
-62.822903 875.88971 2763.9246 2366737
-46.691559 880.57178 2778.6992 2893338
-30.181808 879.33105 2774.7842 3156253
-13.728351 878.72333 2772.8665 3025182
2.7185886 883.38336 2787.5715 1775371
19.313084 886.81586 2798.4028 3880235
35.711555 882.23413 2783.9451 4341301
51.73877 874.27472 2758.8284 2762012
69.281761 889.60071 2807.1907 4012077
85.40493 884.29065 2790.4343 2959130
100.94008 875.60266 2763.0188 3419679
118.19293 882.16034 2783.7122 3155994
135.01587 884.29602 2790.4512 2695445
151.97742 886.77429 2798.2717 2629651
169.4198 891.29462 2812.5356 3287582
186.05626 891.14508 2812.0637 3880233
203.66768 895.30591 2825.1936 3221792
217.41043 883.12006 2786.7405 4077355
231.98022 875.77728 2763.5698 4538163
257.4986 908.01044 2865.2834 2235405
275.78296 912.3244 2878.8967 5590850
293.67776 914.92224 2887.0942 5130299
311.75693 917.77661 2896.1016 3946025
326.38126 910.6933 2873.7498 2433559
344.10339 912.52759 2879.5378 4538932
360.76443 911.50763 2876.3191 6117709
381.57962 920.60193 2905.0168 5065020
394.93082 911.68079 2876.8657 3552035
416.91608 922.60461 2911.3364 5196861
431.0145 915.9007 2890.1819 5920585
450.60846 920.94086 2906.0864 7105116
474.27615 933.62927 2946.1255 2500122
492.02576 934.1803 2947.8643 1973265
497.25638 911.73956 2877.051 1973010
513.51306 910.33313 2872.613 2236441
537.38593 922.08533 2909.698 2235931
550.29004 914.87109 2886.9329 1052171
574.49371 926.31122 2923.0327 2433050
590.4408 924.15839 2916.2395 2301720
615.70355 936.29419 2954.5349 1643020
629.65283 931.0304 2937.9246 2498325
643.55994 925.98914 2922.0166 1182466
658.68585 922.91986 2912.3311 2169102
680.99408 929.81378 2934.0854 3155740
696.53601 927.3559 2926.3293 2103310
718.54291 933.41571 2945.4517 3616806
729.87384 925.6485 2920.9417 3616806
746.02167 924.20862 2916.3979 4603443
768.07892 929.98907 2934.6384 2826518
789.13898 934.33289 2948.3457 4340013
810.87152 939.2674 2963.917 4273963
826.25128 936.79004 2956.0994 3484960
843.10052 936.04694 2953.7546 3945510
863.05182 938.70819 2962.1523 4472112
886.99548 945.5191 2983.6445 3485475
897.92041 938.45728 2961.3604 3287841
916.16522 939.16986 2963.6091 3616808
929.89227 935.31152 2951.4341 3616805
937.41071 925.46625 2920.3667 3814182
961.21838 931.76807 2940.2522 3090716
988.13959 940.80975 2968.7839 6709332
996.59943 932.26569 2941.8225 3156253
1016.8791 934.88202 2950.0784 1775376
1043.6707 943.29547 2976.6277 3682855
1062.2542 944.13391 2979.2737 2958875
1091.8079 954.53589 3012.0977 4274991
1115.0028 959.13336 3026.6052 2234895
1132.4703 958.73657 3025.353 3747365
1152.2017 960.23859 3030.0928 2102796
1168.092 958.54279 3024.7415 2497554
1167.2817 943.40063 2976.9597 2300175
1207.7712 961.59106 3034.3606 4405549
1217.8936 955.42505 3014.9033 2694675
1227.1118 948.73828 2993.803 2563345
1262.5803 962.24829 3036.4346 1971209
1285.6486 966.06073 3048.4648 2826260
1302.7506 965.3465 3046.2112 1839107
1312.5425 959.30902 3027.1594 2299399
1307.1527 942.48792 2974.0796 2760206
1336.0951 950.53949 2999.4868 4207652
1372.9414 963.92877 3041.7375 1509632
1392.7877 965.19031 3045.7183 1641729
1394.5089 954.01959 3010.4685 2299660
1431.0455 966.64844 3050.3196 1839109
1447.3939 965.49542 3046.6812 2431246
1468.3529 967.40857 3052.718 2365966
1486.271 967.29608 3052.363 2629138
1505.0316 967.72791 3053.7258 2497552
1532.2269 973.50861 3071.967 853248
1551.7517 974.33704 3074.5815 1773829
1566.0121 971.87933 3066.8259 1971208
1551.4598 951.80182 3003.47 2563346
1594.8269 967.30951 3052.4055 2497552
1617.6976 970.17706 3061.4543 2300173
1634.5585 969.41675 3059.0549 2234377
1645.4281 965.15881 3045.6189 3352601
1690.4379 980.80164 3094.9807 3089173
1710.9752 982.06207 3098.958 1970692
1738.0587 987.01294 3114.5811 2957587
1766.8568 992.82349 3132.9165 3418138
1796.0254 998.71906 3151.5203 1971466
1787.9233 983.98138 3105.0149 786944
1815.8477 989.16925 3121.3853 589824
1825.6473 984.47864 3106.584 1641472
1871.5266 999.14343 3152.8596 2102019
1901.8446 1005.2928 3172.2642 2036226
1925.015 1007.5805 3179.4832 1904640
1941.0389 1006.1197 3174.8735 1969920
1959.2555 1005.8124 3173.9041 2562313
1983.776 1008.7166 3183.0681 2825742
2014.3925 1014.6364 3201.7485 1904385
2025.0583 1010.4907 3188.6663 2694156
2064.6504 1020.7219 3220.9517 2891535
2069.7954 1013.892 3199.3997 3812637
2068.9185 1004.2629 3169.0142 3615258
2117.1162 1018.4137 3213.6682 3286549
2159.9285 1029.7449 3249.4241 2168072
2185.9741 1032.9529 3259.5471 1904899
2201.6885 1031.2655 3254.2227 2430986
2215.5276 1028.7367 3246.2429 1773319
2247.9661 1034.8134 3265.418 1444353
2256.9194 1030.0676 3250.4426 327680
2273.594 1028.8964 3246.7466 590080
2314.7019 1038.709 3277.7109 1773831
2363.624 1051.8357 3319.1333 2365194
